ply
format ascii 1.0
element vertex 1954
property float32 x
property float32 y
property float32 z
end_header
28.3229 13.3277 -3.5396
28.3679 14.6149 -3.6085
36.5377 30.2266 -5.3623
34.0737 30.3129 -5.1571
31.8515 30.4532 -4.9831
29.7157 30.5269 -4.8174
28.7087 31.6931 -4.8356
28.7620 34.1389 -5.0479
29.0549 37.1122 -5.3298
29.1607 40.1362 -5.6100
8.6839 19.8229 -2.4472
-16.5632 46.6623 -5.5991
-16.6083 41.9479 -5.1017
-16.6617 38.0337 -4.6955
-16.7037 34.6856 -4.3534
-16.7289 31.7675 -4.0599
-16.7522 29.2172 -3.8084
-16.7870 26.9844 -3.5937
-16.8130 24.9801 -3.4050
-16.8309 23.1658 -3.2380
-16.8439 21.5150 -3.0898
-16.8594 20.0110 -2.9589
-16.8736 18.6276 -2.8421
-16.8943 17.3555 -2.7389
-16.9069 16.1647 -2.6451
-16.9187 15.0513 -2.5607
-16.9320 14.0074 -2.4849
-16.9446 13.0222 -2.4166
-16.9525 12.0858 -2.3543
-16.9611 11.1959 -2.2981
-16.9693 10.3465 -2.2474
-16.9892 9.5394 -2.2033
-16.9974 8.7569 -2.1622
-17.0053 8.0021 -2.1252
-17.0130 7.2717 -2.0922
-17.0154 6.5608 -2.0622
-17.0243 5.8714 -2.0364
-17.0329 5.1982 -2.0138
-17.0414 4.5389 -1.9942
-17.0497 3.8915 -1.9776
-17.0522 3.2529 -1.9630
-17.0592 2.6235 -1.9517
-17.0662 2.0005 -1.9431
-17.0731 1.3822 -1.9369
-17.0800 0.7671 -1.9334
-17.0885 0.1534 -1.9325
-17.0946 -0.4604 -1.9338
-17.1006 -1.0759 -1.9376
-17.1067 -1.6946 -1.9439
-17.1128 -2.3181 -1.9528
-17.1506 -2.9536 -1.9679
-17.1716 -3.5963 -1.9839
-17.1938 -4.2505 -2.0028
-17.2188 -4.9188 -2.0250
-17.2453 -5.6033 -2.0505
-17.2719 -6.3060 -2.0792
-17.3025 -7.0308 -2.1119
-17.3454 -7.7849 -2.1499
-17.4049 -8.5750 -2.1940
-17.4764 -9.4044 -2.2442
-17.5619 -10.2800 -2.3011
-17.6824 -11.2216 -2.3682
-17.8787 -12.2680 -2.4519
-18.2019 -13.4757 -2.5610
-18.6964 -14.9099 -2.7042
-19.3416 -16.5945 -2.8818
-20.3291 -18.7498 -3.1273
-23.4919 -23.2820 -3.7401
-4.0190 -13.6053 -1.6042
-3.9777 -36.7862 -4.1840
1.5971 -44.4632 -4.7776
3.2013 -44.5055 -4.7914
23.3233 -21.5113 -3.4071
32.7382 -28.0884 -4.6321
33.7254 -26.8951 -4.6321
34.6691 -25.6672 -4.6321
35.5681 -24.4061 -4.6321
33.4138 -21.2050 -4.2496
32.9994 -19.3165 -4.1060
33.9449 -18.2665 -4.1393
34.8170 -17.1537 -4.1678
31.4904 -14.1335 -3.7065
28.7841 -11.6964 -3.3363
27.8864 -10.1813 -3.1878
25.6517 -8.3348 -2.8963
24.0141 -6.8600 -2.6818
22.6006 -5.5871 -2.4999
21.3651 -4.4745 -2.3440
19.9743 -3.4399 -2.1765
19.2994 -2.6143 -2.0913
18.7227 -1.8546 -2.0203
19.2994 -1.2142 -2.0765
19.9099 -0.5363 -2.1387
20.5590 0.1845 -2.2078
21.2523 0.9545 -2.2844
21.9965 1.7808 -2.3698
22.7996 2.6726 -2.4650
23.6736 3.6407 -2.5720
24.4921 4.6721 -2.6774
25.6716 5.8594 -2.8276
26.8304 7.1462 -2.9815
28.1245 8.5832 -3.1576
28.1968 9.7247 -3.2028
28.2375 10.8879 -3.2498
28.2795 12.0872 -3.3025
28.3229 13.3277 -3.3613
28.3679 14.6149 -3.4267
34.1426 30.3742 -4.9071
31.8515 30.4532 -4.7320
29.7157 30.5269 -4.5747
28.7087 31.6931 -4.5919
28.7943 34.1771 -4.7989
29.0549 37.1122 -5.0612
29.1607 40.1362 -5.3273
8.6837 19.8224 -2.3239
-16.5632 46.6620 -5.3170
-16.6084 41.9482 -4.8447
-16.6616 38.0335 -4.4588
-16.7034 34.6851 -4.1339
-16.7288 31.7674 -3.8553
-16.7523 29.2174 -3.6165
-16.7869 26.9843 -3.4126
-16.8130 24.9800 -3.2334
-16.8308 23.1656 -3.0748
-16.8440 21.5150 -2.9341
-16.8594 20.0111 -2.8098
-16.8736 18.6277 -2.6989
-16.8943 17.3554 -2.6008
-16.9068 16.1646 -2.5118
-16.9187 15.0514 -2.4316
-16.9321 14.0074 -2.3597
-16.9446 13.0222 -2.2948
-16.9525 12.0857 -2.2356
-16.9611 11.1959 -2.1823
-16.9693 10.3465 -2.1342
-16.9890 9.5394 -2.0922
-16.9972 8.7568 -2.0532
-17.0052 8.0020 -2.0181
-17.0129 7.2716 -1.9867
-17.0154 6.5608 -1.9583
-17.0243 5.8715 -1.9338
-17.0330 5.1982 -1.9123
-17.0414 4.5389 -1.8937
-17.0498 3.8915 -1.8779
-17.0522 3.2529 -1.8641
-17.0593 2.6235 -1.8534
-17.0662 2.0005 -1.8452
-17.0732 1.3823 -1.8393
-17.0800 0.7671 -1.8359
-17.0885 0.1534 -1.8351
-17.0946 -0.4604 -1.8363
-17.1006 -1.0759 -1.8399
-17.1067 -1.6946 -1.8459
-17.1128 -2.3181 -1.8544
-17.1506 -2.9536 -1.8688
-17.1716 -3.5963 -1.8839
-17.1938 -4.2505 -1.9019
-17.2188 -4.9188 -1.9230
-17.2453 -5.6033 -1.9471
-17.2719 -6.3060 -1.9744
-17.3025 -7.0308 -2.0055
-17.3454 -7.7849 -2.0416
-17.4049 -8.5750 -2.0835
-17.4764 -9.4044 -2.1311
-17.5619 -10.2800 -2.1852
-17.6824 -11.2216 -2.2489
-17.8787 -12.2680 -2.3284
-18.2019 -13.4757 -2.4319
-18.6964 -14.9099 -2.5679
-19.3416 -16.5945 -2.7366
-20.3291 -18.7498 -2.9697
-23.4919 -23.2820 -3.5516
-4.0187 -13.6041 -1.5232
-3.9522 -36.5506 -3.9478
1.6054 -44.6934 -4.5478
3.2180 -44.7366 -4.5610
23.3233 -21.5113 -3.2265
33.4137 -21.2050 -4.0243
32.9994 -19.3165 -3.8883
33.9449 -18.2665 -3.9199
34.8170 -17.1537 -3.9469
31.4904 -14.1335 -3.5100
28.7841 -11.6964 -3.1595
27.8864 -10.1813 -3.0189
25.6517 -8.3348 -2.7428
24.0141 -6.8600 -2.5397
22.6006 -5.5871 -2.3674
21.3651 -4.4745 -2.2198
19.9743 -3.4399 -2.0611
19.2994 -2.6143 -1.9805
18.7227 -1.8546 -1.9132
19.2994 -1.2142 -1.9664
19.9099 -0.5363 -2.0254
20.5590 0.1845 -2.0907
21.2523 0.9545 -2.1633
21.9965 1.7808 -2.2441
22.7996 2.6726 -2.3344
23.6736 3.6407 -2.4357
24.4921 4.6721 -2.5355
25.6716 5.8594 -2.6777
26.8304 7.1462 -2.8235
28.1245 8.5832 -2.9902
28.1968 9.7247 -3.0331
28.2375 10.8878 -3.0775
28.2795 12.0872 -3.1274
28.3229 13.3277 -3.1831
28.3679 14.6149 -3.2451
34.1426 30.3742 -4.6470
31.8515 30.4532 -4.4812
29.7157 30.5269 -4.3322
28.7087 31.6931 -4.3485
28.7943 34.1772 -4.5445
29.1161 37.1904 -4.8030
29.2064 40.1993 -5.0529
8.6836 19.8220 -2.2006
-16.5631 46.6618 -5.0351
-16.6086 41.9485 -4.5879
-16.6614 38.0331 -4.2224
-16.7032 34.6846 -3.9148
-16.7288 31.7673 -3.6510
-16.7524 29.2176 -3.4249
-16.7868 26.9841 -3.2317
-16.8129 24.9799 -3.0620
-16.8306 23.1653 -2.9118
-16.8440 21.5151 -2.7786
-16.8595 20.0111 -2.6609
-16.8737 18.6277 -2.5559
-16.8942 17.3554 -2.4630
-16.9068 16.1646 -2.3786
-16.9188 15.0514 -2.3028
-16.9321 14.0075 -2.2347
-16.9447 13.0223 -2.1732
-16.9525 12.0857 -2.1171
-16.9611 11.1959 -2.0667
-16.9693 10.3465 -2.0211
-16.9889 9.5393 -1.9813
-16.9971 8.7567 -1.9443
-17.0050 8.0019 -1.9111
-17.0127 7.2716 -1.8814
-17.0155 6.5609 -1.8545
-17.0243 5.8715 -1.8313
-17.0330 5.1982 -1.8110
-17.0415 4.5389 -1.7934
-17.0498 3.8915 -1.7784
-17.0523 3.2529 -1.7653
-17.0593 2.6235 -1.7552
-17.0663 2.0005 -1.7474
-17.0732 1.3823 -1.7419
-17.0801 0.7671 -1.7386
-17.0885 0.1534 -1.7378
-17.0946 -0.4604 -1.7390
-17.1006 -1.0759 -1.7424
-17.1067 -1.6946 -1.7481
-17.1128 -2.3181 -1.7561
-17.1506 -2.9536 -1.7697
-17.1716 -3.5963 -1.7841
-17.1938 -4.2505 -1.8011
-17.2188 -4.9188 -1.8210
-17.2453 -5.6033 -1.8439
-17.2719 -6.3060 -1.8698
-17.3025 -7.0308 -1.8992
-17.3454 -7.7849 -1.9334
-17.4049 -8.5750 -1.9730
-17.4764 -9.4044 -2.0181
-17.5619 -10.2800 -2.0693
-17.6824 -11.2216 -2.1297
-17.8787 -12.2680 -2.2049
-18.2019 -13.4757 -2.3030
-18.6964 -14.9099 -2.4318
-19.3416 -16.5945 -2.5916
-20.3291 -18.7498 -2.8123
-23.4920 -23.2821 -3.3634
-4.0183 -13.6029 -1.4424
-3.9271 -36.3184 -3.7147
1.6137 -44.9258 -4.3159
3.2348 -44.9699 -4.3285
23.3232 -21.5113 -3.0461
33.4137 -21.2050 -3.7993
32.9994 -19.3165 -3.6710
33.9449 -18.2665 -3.7008
34.8170 -17.1537 -3.7263
31.4904 -14.1335 -3.3138
28.7841 -11.6964 -2.9829
27.8864 -10.1813 -2.8501
25.6517 -8.3348 -2.5894
24.0141 -6.8600 -2.3977
22.6006 -5.5871 -2.2351
21.3651 -4.4745 -2.0957
19.9743 -3.4399 -1.9459
19.2994 -2.6143 -1.8698
18.7227 -1.8546 -1.8063
19.2994 -1.2142 -1.8565
19.9099 -0.5363 -1.9121
20.5590 0.1845 -1.9738
21.2523 0.9544 -2.0424
21.9965 1.7808 -2.1187
22.7996 2.6726 -2.2039
23.6736 3.6407 -2.2995
24.4921 4.6721 -2.3938
25.6716 5.8594 -2.5280
26.8304 7.1462 -2.6657
28.1245 8.5832 -2.8230
28.1968 9.7247 -2.8635
28.2375 10.8879 -2.9055
28.2795 12.0872 -2.9526
28.3229 13.3277 -3.0051
28.3679 14.6149 -3.0636
34.1426 30.3742 -4.3872
31.8515 30.4532 -4.2307
29.7157 30.5269 -4.0900
28.7087 31.6931 -4.1054
28.7943 34.1771 -4.2905
29.1161 37.1904 -4.5345
29.2258 40.2258 -4.7736
8.6834 19.8216 -2.0776
-16.5630 46.6616 -4.7536
-16.6087 41.9488 -4.3315
-16.6613 38.0328 -3.9863
-16.7029 34.6840 -3.6958
-16.7288 31.7673 -3.4468
-16.7526 29.2178 -3.2334
-16.7867 26.9840 -3.0510
-16.8128 24.9798 -2.8908
-16.8304 23.1651 -2.7490
-16.8441 21.5152 -2.6233
-16.8595 20.0112 -2.5121
-16.8737 18.6278 -2.4130
-16.8942 17.3553 -2.3253
-16.9067 16.1645 -2.2456
-16.9188 15.0514 -2.1740
-16.9322 14.0075 -2.1097
-16.9447 13.0223 -2.0517
-16.9525 12.0857 -1.9988
-16.9611 11.1960 -1.9511
-16.9693 10.3465 -1.9081
-16.9887 9.5392 -1.8705
-16.9969 8.7567 -1.8356
-17.0049 8.0019 -1.8043
-17.0126 7.2715 -1.7762
-17.0155 6.5609 -1.7508
-17.0243 5.8715 -1.7289
-17.0330 5.1982 -1.7097
-17.0415 4.5390 -1.6931
-17.0498 3.8915 -1.6790
-17.0523 3.2529 -1.6666
-17.0594 2.6235 -1.6570
-17.0663 2.0005 -1.6497
-17.0732 1.3823 -1.6445
-17.0801 0.7671 -1.6414
-17.0885 0.1534 -1.6407
-17.0946 -0.4604 -1.6418
-17.1006 -1.0759 -1.6450
-17.1067 -1.6946 -1.6504
-17.1128 -2.3181 -1.6579
-17.1506 -2.9536 -1.6708
-17.1716 -3.5963 -1.6843
-17.1938 -4.2505 -1.7004
-17.2188 -4.9188 -1.7192
-17.2453 -5.6033 -1.7408
-17.2719 -6.3060 -1.7652
-17.3025 -7.0308 -1.7930
-17.3454 -7.7849 -1.8253
-17.4049 -8.5750 -1.8627
-17.4764 -9.4044 -1.9053
-17.5619 -10.2800 -1.9536
-17.6824 -11.2216 -2.0106
-17.8787 -12.2680 -2.0817
-18.2019 -13.4757 -2.1743
-18.6964 -14.9099 -2.2958
-19.3416 -16.5945 -2.4467
-20.3291 -18.7498 -2.6551
-23.4920 -23.2821 -3.1753
-4.0179 -13.6016 -1.3616
-5.2266 -36.1425 -3.5060
-3.9142 -36.1988 -3.4955
1.6221 -45.1603 -4.0818
3.2517 -45.2053 -4.0938
23.3233 -21.5113 -2.8659
33.4137 -21.2050 -3.5746
32.9994 -19.3165 -3.4538
33.9449 -18.2665 -3.4819
34.8170 -17.1537 -3.5058
31.4904 -14.1335 -3.1177
28.7841 -11.6964 -2.8064
27.8864 -10.1813 -2.6815
25.6517 -8.3348 -2.4363
24.0141 -6.8600 -2.2559
22.6006 -5.5871 -2.1029
21.3651 -4.4745 -1.9717
19.9743 -3.4399 -1.8308
19.2994 -2.6143 -1.7592
18.7227 -1.8546 -1.6994
19.2994 -1.2142 -1.7467
19.9099 -0.5363 -1.7990
20.5590 0.1845 -1.8571
21.2523 0.9545 -1.9216
21.9965 1.7808 -1.9934
22.7996 2.6726 -2.0735
23.6736 3.6407 -2.1635
24.4921 4.6721 -2.2522
25.6716 5.8594 -2.3784
26.8304 7.1462 -2.5080
28.1245 8.5832 -2.6560
28.1968 9.7247 -2.6941
28.2375 10.8878 -2.7336
28.2795 12.0872 -2.7779
28.3229 13.3277 -2.8274
28.3679 14.6149 -2.8824
34.1426 30.3742 -4.1277
31.7884 30.3928 -3.9725
29.6578 30.4674 -3.8406
28.6436 31.6212 -3.8538
28.7943 34.1771 -4.0367
29.1161 37.1904 -4.2663
29.2258 40.2259 -4.4912
8.6832 19.8212 -1.9546
-16.5629 46.6614 -4.4724
-16.6088 41.9491 -4.0753
-16.6611 38.0325 -3.7505
-16.7027 34.6835 -3.4772
-16.7287 31.7672 -3.2430
-16.7527 29.2180 -3.0422
-16.7867 26.9839 -2.8705
-16.8128 24.9797 -2.7198
-16.8302 23.1649 -2.5863
-16.8441 21.5152 -2.4681
-16.8596 20.0112 -2.3635
-16.8738 18.6278 -2.2703
-16.8941 17.3552 -2.1877
-16.9067 16.1645 -2.1128
-16.9189 15.0515 -2.0454
-16.9322 14.0075 -1.9849
-16.9448 13.0223 -1.9303
-16.9525 12.0857 -1.8805
-16.9611 11.1959 -1.8357
-16.9693 10.3465 -1.7952
-16.9885 9.5391 -1.7599
-16.9968 8.7566 -1.7270
-17.0047 8.0018 -1.6975
-17.0124 7.2714 -1.6711
-17.0155 6.5609 -1.6472
-17.0244 5.8715 -1.6266
-17.0330 5.1983 -1.6086
-17.0415 4.5390 -1.5930
-17.0498 3.8915 -1.5797
-17.0524 3.2529 -1.5680
-17.0594 2.6235 -1.5590
-17.0664 2.0005 -1.5521
-17.0733 1.3823 -1.5472
-17.0802 0.7671 -1.5443
-17.0885 0.1534 -1.5436
-17.0946 -0.4604 -1.5446
-17.1006 -1.0759 -1.5477
-17.1067 -1.6946 -1.5527
-17.1128 -2.3181 -1.5598
-17.1506 -2.9536 -1.5719
-17.1716 -3.5963 -1.5847
-17.1938 -4.2505 -1.5998
-17.2188 -4.9188 -1.6175
-17.2453 -5.6033 -1.6379
-17.2719 -6.3060 -1.6608
-17.3025 -7.0308 -1.6870
-17.3454 -7.7850 -1.7173
-17.4049 -8.5750 -1.7526
-17.4764 -9.4044 -1.7926
-17.5619 -10.2800 -1.8381
-17.6824 -11.2216 -1.8917
-17.8787 -12.2680 -1.9585
-18.2019 -13.4757 -2.0456
-18.6964 -14.9099 -2.1601
-19.3416 -16.5945 -2.3019
-20.3291 -18.7498 -2.4980
-23.4920 -23.2821 -2.9875
-4.0176 -13.6004 -1.2809
-3.9346 -36.3878 -3.3059
1.6306 -45.3971 -3.8455
3.2688 -45.4430 -3.8568
23.3233 -21.5113 -2.6859
33.4137 -21.2050 -3.3501
32.9994 -19.3164 -3.2369
33.9449 -18.2665 -3.2632
34.8170 -17.1537 -3.2857
31.4904 -14.1335 -2.9219
28.7841 -11.6964 -2.6301
27.8864 -10.1813 -2.5131
25.6517 -8.3348 -2.2832
24.0141 -6.8600 -2.1142
22.6006 -5.5871 -1.9708
21.3652 -4.4745 -1.8479
19.9743 -3.4399 -1.7158
19.2994 -2.6143 -1.6487
18.7227 -1.8546 -1.5927
19.2994 -1.2142 -1.6370
19.9099 -0.5363 -1.6860
20.5590 0.1845 -1.7404
21.2523 0.9544 -1.8009
21.9965 1.7808 -1.8682
22.7996 2.6726 -1.9433
23.6736 3.6407 -2.0276
24.4921 4.6721 -2.1107
25.6716 5.8594 -2.2291
26.8304 7.1462 -2.3504
28.1245 8.5832 -2.4892
28.1968 9.7247 -2.5249
28.2375 10.8879 -2.5619
28.2795 12.0872 -2.6034
28.3229 13.3277 -2.6498
28.3679 14.6149 -2.7014
34.0737 30.3129 -3.8607
31.7884 30.3928 -3.7230
29.6578 30.4674 -3.5993
28.6436 31.6212 -3.6118
28.7304 34.1012 -3.7747
29.0549 37.1122 -3.9899
29.2258 40.2259 -4.2091
8.6830 19.8207 -1.8318
-16.5629 46.6612 -4.1915
-16.6089 41.9495 -3.8193
-16.6610 38.0322 -3.5149
-16.7024 34.6830 -3.2587
-16.7287 31.7672 -3.0393
-16.7528 29.2182 -2.8511
-16.7866 26.9838 -2.6902
-16.8127 24.9796 -2.5489
-16.8301 23.1646 -2.4239
-16.8442 21.5153 -2.3131
-16.8596 20.0113 -2.2151
-16.8738 18.6279 -2.1277
-16.8941 17.3552 -2.0503
-16.9066 16.1644 -1.9801
-16.9189 15.0515 -1.9170
-16.9322 14.0076 -1.8603
-16.9448 13.0224 -1.8091
-16.9525 12.0857 -1.7624
-16.9611 11.1959 -1.7204
-16.9693 10.3465 -1.6825
-16.9884 9.5390 -1.6493
-16.9966 8.7565 -1.6185
-17.0046 8.0017 -1.5909
-17.0122 7.2714 -1.5662
-17.0155 6.5609 -1.5438
-17.0244 5.8715 -1.5245
-17.0331 5.1983 -1.5076
-17.0415 4.5390 -1.4929
-17.0499 3.8915 -1.4804
-17.0524 3.2529 -1.4696
-17.0594 2.6235 -1.4611
-17.0664 2.0005 -1.4546
-17.0733 1.3823 -1.4500
-17.0802 0.7671 -1.4473
-17.0885 0.1534 -1.4467
-17.0946 -0.4604 -1.4476
-17.1006 -1.0759 -1.4505
-17.1067 -1.6946 -1.4552
-17.1128 -2.3181 -1.4619
-17.1506 -2.9536 -1.4732
-17.1716 -3.5963 -1.4852
-17.1938 -4.2505 -1.4993
-17.2188 -4.9188 -1.5159
-17.2453 -5.6033 -1.5350
-17.2719 -6.3060 -1.5565
-17.3025 -7.0308 -1.5810
-17.3454 -7.7849 -1.6094
-17.4049 -8.5750 -1.6425
-17.4764 -9.4044 -1.6800
-17.5619 -10.2800 -1.7226
-17.6824 -11.2216 -1.7728
-17.8787 -12.2680 -1.8355
-18.2019 -13.4757 -1.9172
-18.6964 -14.9099 -2.0244
-19.3416 -16.5945 -2.1574
-20.3291 -18.7498 -2.3411
-23.4920 -23.2821 -2.7999
-4.0172 -13.5992 -1.2004
-3.9553 -36.5786 -3.1145
1.6387 -45.6222 -3.6058
23.3233 -21.5113 -2.5061
33.4137 -21.2050 -3.1258
32.9994 -19.3164 -3.0202
33.9449 -18.2665 -3.0447
34.8170 -17.1537 -3.0657
31.4904 -14.1334 -2.7263
28.7841 -11.6964 -2.4540
27.8864 -10.1813 -2.3448
25.6517 -8.3348 -2.1304
24.0141 -6.8600 -1.9726
22.6006 -5.5871 -1.8388
21.3651 -4.4745 -1.7241
19.9743 -3.4399 -1.6009
19.2994 -2.6143 -1.5383
18.7227 -1.8546 -1.4860
19.2994 -1.2142 -1.5274
19.9099 -0.5363 -1.5732
20.5590 0.1845 -1.6239
21.2523 0.9545 -1.6803
21.9965 1.7808 -1.7431
22.7996 2.6726 -1.8132
23.6736 3.6407 -1.8918
24.4921 4.6721 -1.9694
25.6716 5.8594 -2.0798
26.8304 7.1462 -2.1931
28.1245 8.5832 -2.3226
28.1968 9.7247 -2.3559
28.2375 10.8879 -2.3904
28.2795 12.0872 -2.4291
28.3229 13.3277 -2.4724
28.3679 14.6149 -2.5205
36.5377 30.2266 -3.7455
34.0737 30.3129 -3.6022
31.7883 30.3928 -3.4737
29.6578 30.4674 -3.3583
28.6436 31.6212 -3.3699
28.7304 34.1012 -3.5220
29.0549 37.1122 -3.7228
29.1607 40.1363 -3.9185
8.6828 19.8203 -1.7091
-16.5628 46.6610 -3.9108
-16.6091 41.9498 -3.5636
-16.6609 38.0319 -3.2795
-16.7022 34.6825 -3.0405
-16.7287 31.7671 -2.8358
-16.7529 29.2185 -2.6603
-16.7865 26.9837 -2.5101
-16.8126 24.9795 -2.3783
-16.8299 23.1644 -2.2616
-16.8442 21.5154 -2.1582
-16.8597 20.0113 -2.0668
-16.8739 18.6279 -1.9852
-16.8940 17.3551 -1.9130
-16.9066 16.1644 -1.8475
-16.9190 15.0516 -1.7886
-16.9323 14.0076 -1.7357
-16.9448 13.0224 -1.6880
-16.9525 12.0857 -1.6444
-16.9611 11.1959 -1.6052
-16.9693 10.3465 -1.5698
-16.9882 9.5389 -1.5389
-16.9965 8.7564 -1.5101
-17.0044 8.0016 -1.4844
-17.0121 7.2713 -1.4613
-17.0156 6.5609 -1.4404
-17.0244 5.8715 -1.4224
-17.0331 5.1983 -1.4066
-17.0416 4.5390 -1.3930
-17.0499 3.8915 -1.3813
-17.0525 3.2529 -1.3712
-17.0595 2.6235 -1.3633
-17.0664 2.0005 -1.3572
-17.0734 1.3823 -1.3529
-17.0802 0.7671 -1.3504
-17.0885 0.1534 -1.3498
-17.0946 -0.4604 -1.3507
-17.1006 -1.0759 -1.3534
-17.1067 -1.6946 -1.3578
-17.1128 -2.3181 -1.3640
-17.1506 -2.9536 -1.3746
-17.1716 -3.5963 -1.3857
-17.1938 -4.2505 -1.3989
-17.2188 -4.9188 -1.4144
-17.2453 -5.6033 -1.4322
-17.2719 -6.3060 -1.4523
-17.3025 -7.0308 -1.4752
-17.3454 -7.7849 -1.5017
-17.4049 -8.5750 -1.5325
-17.4764 -9.4044 -1.5675
-17.5619 -10.2800 -1.6073
-17.6824 -11.2216 -1.6541
-17.8787 -12.2680 -1.7126
-18.2019 -13.4757 -1.7888
-18.6964 -14.9099 -1.8889
-19.3416 -16.5945 -2.0129
-20.3291 -18.7498 -2.1844
-23.4920 -23.2820 -2.6124
-4.0168 -13.5979 -1.1199
-3.9761 -36.7712 -2.9213
1.6287 -45.3426 -3.3268
3.2674 -45.4246 -3.3392
23.3233 -21.5113 -2.3264
33.4137 -21.2050 -2.9017
32.9994 -19.3164 -2.8036
33.9449 -18.2665 -2.8264
34.8170 -17.1537 -2.8459
31.4904 -14.1335 -2.5308
28.7841 -11.6964 -2.2781
27.8864 -10.1813 -2.1767
25.6517 -8.3348 -1.9776
24.0141 -6.8600 -1.8312
22.6006 -5.5871 -1.7070
21.3651 -4.4745 -1.6005
19.9743 -3.4399 -1.4861
19.2994 -2.6143 -1.4280
18.5674 -1.8392 -1.3681
19.2994 -1.2142 -1.4179
19.9099 -0.5363 -1.4604
20.5590 0.1845 -1.5075
21.2523 0.9544 -1.5598
21.9965 1.7808 -1.6181
22.7996 2.6726 -1.6832
23.6736 3.6407 -1.7562
24.4921 4.6721 -1.8282
25.6716 5.8594 -1.9307
26.8304 7.1462 -2.0358
28.1245 8.5832 -2.1560
28.1968 9.7247 -2.1870
28.2375 10.8879 -2.2190
28.2795 12.0872 -2.2550
28.3229 13.3277 -2.2951
28.3679 14.6149 -2.3398
36.5377 30.2266 -3.4769
34.0737 30.3129 -3.3439
31.7884 30.3928 -3.2247
29.6578 30.4674 -3.1176
28.6436 31.6212 -3.1283
28.7304 34.1012 -3.2695
29.0549 37.1122 -3.4559
29.1607 40.1363 -3.6376
8.6826 19.8199 -1.5866
-16.5627 46.6608 -3.6304
-16.6092 41.9501 -3.3082
-16.6607 38.0316 -3.0444
-16.7019 34.6820 -2.8225
-16.7286 31.7670 -2.6325
-16.7530 29.2187 -2.4695
-16.7865 26.9836 -2.3301
-16.8126 24.9794 -2.2078
-16.8297 23.1642 -2.0994
-16.8443 21.5154 -2.0035
-16.8597 20.0114 -1.9186
-16.8739 18.6280 -1.8429
-16.8939 17.3551 -1.7759
-16.9065 16.1643 -1.7150
-16.9190 15.0516 -1.6604
-16.9323 14.0076 -1.6113
-16.9449 13.0224 -1.5670
-16.9525 12.0857 -1.5265
-16.9611 11.1959 -1.4901
-16.9693 10.3465 -1.4573
-16.9881 9.5388 -1.4285
-16.9963 8.7563 -1.4019
-17.0043 8.0016 -1.3779
-17.0119 7.2712 -1.3565
-17.0156 6.5609 -1.3372
-17.0244 5.8715 -1.3204
-17.0331 5.1983 -1.3058
-17.0416 4.5390 -1.2931
-17.0499 3.8915 -1.2823
-17.0525 3.2529 -1.2729
-17.0595 2.6235 -1.2655
-17.0665 2.0005 -1.2599
-17.0734 1.3823 -1.2560
-17.0803 0.7671 -1.2536
-17.0886 0.1534 -1.2530
-17.0946 -0.4604 -1.2539
-17.1006 -1.0759 -1.2563
-17.1067 -1.6946 -1.2604
-17.1128 -2.3181 -1.2662
-17.1506 -2.9536 -1.2760
-17.1716 -3.5963 -1.2864
-17.1938 -4.2505 -1.2986
-17.2188 -4.9188 -1.3130
-17.2453 -5.6033 -1.3295
-17.2719 -6.3060 -1.3482
-17.3025 -7.0308 -1.3694
-17.3454 -7.7850 -1.3940
-17.4049 -8.5750 -1.4226
-17.4764 -9.4044 -1.4552
-17.5619 -10.2800 -1.4921
-17.6824 -11.2216 -1.5356
-17.8787 -12.2680 -1.5898
-18.2019 -13.4757 -1.6606
-18.6964 -14.9099 -1.7534
-19.3416 -16.5945 -1.8686
-20.3291 -18.7498 -2.0278
-23.4920 -23.2820 -2.4251
-4.0165 -13.5967 -1.0395
-3.9971 -36.9657 -2.7262
-0.0000 -33.0258 -2.2347
1.6188 -45.0667 -3.0514
3.2475 -45.1471 -3.0627
23.3233 -21.5113 -2.1469
33.4137 -21.2050 -2.6778
32.9994 -19.3165 -2.5873
33.9449 -18.2665 -2.6083
34.8170 -17.1537 -2.6263
31.4904 -14.1335 -2.3355
28.7841 -11.6964 -2.1023
27.8864 -10.1813 -2.0087
25.6517 -8.3348 -1.8250
24.0141 -6.8600 -1.6899
22.6006 -5.5871 -1.5753
21.3651 -4.4745 -1.4770
19.9743 -3.4399 -1.3714
19.0147 -2.5757 -1.2984
18.5674 -1.8392 -1.2625
19.1393 -1.2041 -1.2976
19.7448 -0.5318 -1.3365
20.3885 0.1830 -1.3796
21.2523 0.9545 -1.4395
21.9965 1.7808 -1.4932
22.7996 2.6726 -1.5533
23.6736 3.6407 -1.6207
24.4921 4.6721 -1.6871
25.6716 5.8594 -1.7817
26.8304 7.1462 -1.8787
28.1245 8.5832 -1.9897
28.1968 9.7247 -2.0182
28.2375 10.8879 -2.0478
28.2795 12.0872 -2.0810
28.3229 13.3277 -2.1180
28.3679 14.6149 -2.1593
36.5377 30.2266 -3.2086
34.0737 30.3129 -3.0859
31.7884 30.3928 -2.9759
29.6578 30.4674 -2.8770
28.6436 31.6212 -2.8869
28.7304 34.1012 -3.0172
29.0549 37.1122 -3.1892
29.1607 40.1362 -3.3569
8.6824 19.8195 -1.4641
-16.5626 46.6605 -3.3502
-16.6093 41.9504 -3.0529
-16.6606 38.0313 -2.8095
-16.7017 34.6814 -2.6046
-16.7286 31.7670 -2.4293
-16.7532 29.2189 -2.2790
-16.7864 26.9835 -2.1503
-16.8125 24.9793 -2.0374
-16.8296 23.1639 -1.9374
-16.8443 21.5155 -1.8489
-16.8598 20.0115 -1.7706
-16.8739 18.6280 -1.7007
-16.8939 17.3550 -1.6388
-16.9065 16.1643 -1.5827
-16.9190 15.0516 -1.5323
-16.9324 14.0077 -1.4870
-16.9449 13.0225 -1.4460
-16.9525 12.0857 -1.4087
-16.9611 11.1959 -1.3751
-16.9693 10.3465 -1.3448
-16.9879 9.5387 -1.3183
-16.9961 8.7563 -1.2937
-17.0041 8.0015 -1.2716
-17.0118 7.2712 -1.2518
-17.0156 6.5609 -1.2340
-17.0245 5.8715 -1.2185
-17.0331 5.1983 -1.2050
-17.0416 4.5390 -1.1933
-17.0499 3.8915 -1.1833
-17.0525 3.2530 -1.1747
-17.0596 2.6235 -1.1679
-17.0665 2.0005 -1.1627
-17.0734 1.3823 -1.1590
-17.0803 0.7671 -1.1569
-17.0886 0.1534 -1.1563
-17.0946 -0.4604 -1.1571
-17.1006 -1.0759 -1.1594
-17.1067 -1.6946 -1.1632
-17.1128 -2.3181 -1.1685
-17.1506 -2.9536 -1.1776
-17.1716 -3.5963 -1.1871
-17.1938 -4.2505 -1.1984
-17.2188 -4.9188 -1.2117
-17.2453 -5.6033 -1.2269
-17.2719 -6.3060 -1.2441
-17.3025 -7.0308 -1.2637
-17.3454 -7.7849 -1.2865
-17.4049 -8.5750 -1.3129
-17.4764 -9.4044 -1.3429
-17.5619 -10.2800 -1.3769
-17.6824 -11.2216 -1.4171
-17.8787 -12.2680 -1.4672
-18.2019 -13.4757 -1.5324
-18.6964 -14.9099 -1.6181
-19.3416 -16.5945 -1.7244
-20.3291 -18.7498 -1.8713
-23.4920 -23.2821 -2.2380
-4.0161 -13.5955 -0.9592
-4.0184 -37.1621 -2.5292
-1.2058 -33.5699 -2.2729
-0.0000 -33.0321 -2.0483
1.1676 -32.5052 -2.0170
2.3063 -32.0618 -1.9933
23.3232 -21.5113 -1.9675
22.1323 -15.1868 -1.6645
33.4137 -21.2050 -2.4540
32.9994 -19.3164 -2.3711
33.9449 -18.2665 -2.3904
34.8170 -17.1537 -2.4068
31.4904 -14.1335 -2.1404
28.7841 -11.6964 -1.9266
27.8864 -10.1813 -1.8409
25.6517 -8.3348 -1.6725
24.0141 -6.8600 -1.5487
22.6006 -5.5871 -1.4437
21.0499 -4.4085 -1.3336
19.9743 -3.4399 -1.2569
19.0147 -2.5757 -1.1899
18.7227 -1.8546 -1.1667
19.1393 -1.2041 -1.1892
19.7448 -0.5318 -1.2248
20.3885 0.1830 -1.2644
21.0761 0.9465 -1.3083
21.8141 1.7661 -1.3571
22.7996 2.6726 -1.4235
23.6736 3.6407 -1.4853
24.4921 4.6721 -1.5462
25.6716 5.8594 -1.6328
26.8304 7.1462 -1.7218
28.1245 8.5832 -1.8234
28.1968 9.7247 -1.8496
28.2375 10.8879 -1.8767
28.2795 12.0872 -1.9071
28.3229 13.3277 -1.9410
28.3679 14.6149 -1.9788
36.5377 30.2266 -2.9405
34.0737 30.3129 -2.8280
31.7884 30.3928 -2.7272
29.6578 30.4674 -2.6366
28.6436 31.6212 -2.6457
28.7304 34.1012 -2.7651
29.0549 37.1122 -2.9227
29.1607 40.1362 -3.0764
8.6823 19.8190 -1.3417
-16.5626 46.6603 -3.0703
-16.6095 41.9508 -2.7979
-16.6605 38.0310 -2.5747
-16.7014 34.6809 -2.3870
-16.7285 31.7669 -2.2263
-16.7533 29.2191 -2.0886
-16.7863 26.9834 -1.9706
-16.8125 24.9792 -1.8671
-16.8294 23.1637 -1.7755
-16.8444 21.5156 -1.6944
-16.8598 20.0115 -1.6226
-16.8740 18.6281 -1.5586
-16.8938 17.3550 -1.5019
-16.9064 16.1642 -1.4504
-16.9191 15.0517 -1.4042
-16.9324 14.0077 -1.3627
-16.9450 13.0225 -1.3252
-16.9525 12.0857 -1.2910
-16.9611 11.1959 -1.2602
-16.9693 10.3465 -1.2324
-16.9878 9.5386 -1.2081
-16.9960 8.7562 -1.1856
-17.0039 8.0014 -1.1653
-17.0116 7.2711 -1.1472
-17.0156 6.5609 -1.1309
-17.0245 5.8715 -1.1167
-17.0332 5.1983 -1.1043
-17.0416 4.5390 -1.0936
-17.0500 3.8916 -1.0845
-17.0526 3.2530 -1.0765
-17.0596 2.6235 -1.0703
-17.0666 2.0006 -1.0656
-17.0735 1.3823 -1.0622
-17.0804 0.7671 -1.0602
-17.0886 0.1534 -1.0597
-17.0946 -0.4604 -1.0604
-17.1006 -1.0759 -1.0625
-17.1067 -1.6946 -1.0660
-17.1128 -2.3181 -1.0709
-17.1506 -2.9536 -1.0792
-17.1716 -3.5963 -1.0879
-17.1938 -4.2505 -1.0983
-17.2188 -4.9188 -1.1105
-17.2453 -5.6033 -1.1244
-17.2719 -6.3060 -1.1402
-17.3025 -7.0308 -1.1581
-17.3454 -7.7849 -1.1790
-17.4049 -8.5750 -1.2032
-17.4764 -9.4044 -1.2307
-17.5619 -10.2800 -1.2619
-17.6824 -11.2216 -1.2987
-17.8787 -12.2680 -1.3446
-18.2019 -13.4757 -1.4044
-18.6964 -14.9099 -1.4829
-19.3416 -16.5945 -1.5803
-20.3291 -18.7498 -1.7149
-23.4919 -23.2820 -2.0510
-4.0157 -13.5943 -0.8790
-4.0398 -37.3604 -2.3302
-1.2060 -33.5764 -2.0834
-0.0000 -33.0384 -1.8621
1.1678 -32.5112 -1.8335
2.3096 -32.1090 -1.8144
3.8346 -35.4626 -2.0103
23.3233 -21.5113 -1.7882
22.1323 -15.1868 -1.5128
33.4137 -21.2050 -2.2304
32.9994 -19.3164 -2.1551
33.9449 -18.2665 -2.1726
34.8170 -17.1536 -2.1875
31.4904 -14.1335 -1.9454
28.7841 -11.6964 -1.7511
27.8864 -10.1813 -1.6732
25.6517 -8.3348 -1.5201
23.6598 -6.7588 -1.3868
22.2672 -5.5047 -1.2928
21.0499 -4.4085 -1.2121
20.2735 -3.4914 -1.1594
19.2994 -2.6143 -1.0977
18.7227 -1.8546 -1.0604
19.2994 -1.2142 -1.0899
19.9099 -0.5363 -1.1225
20.5590 0.1845 -1.1588
21.0761 0.9465 -1.1891
21.8141 1.7661 -1.2335
22.6105 2.6504 -1.2831
23.4773 3.6105 -1.3387
24.4921 4.6721 -1.4053
25.6716 5.8594 -1.4841
26.8304 7.1462 -1.5649
28.1245 8.5832 -1.6573
28.1968 9.7247 -1.6810
28.2375 10.8879 -1.7057
28.2795 12.0872 -1.7333
28.3229 13.3277 -1.7642
28.3679 14.6149 -1.7985
34.0737 30.3129 -2.5704
31.8515 30.4532 -2.4836
29.7157 30.5269 -2.4011
28.7087 31.6931 -2.4101
28.7943 34.1771 -2.5187
29.0549 37.1122 -2.6564
29.1607 40.1362 -2.7961
8.6821 19.8186 -1.2195
-16.5625 46.6601 -2.7905
-16.6096 41.9511 -2.5430
-16.6603 38.0307 -2.3401
-16.7012 34.6804 -2.1694
-16.7285 31.7668 -2.0235
-16.7534 29.2193 -1.8983
-16.7863 26.9832 -1.7911
-16.8124 24.9791 -1.6970
-16.8292 23.1635 -1.6137
-16.8444 21.5156 -1.5401
-16.8599 20.0116 -1.4748
-16.8740 18.6281 -1.4166
-16.8938 17.3549 -1.3650
-16.9064 16.1642 -1.3183
-16.9191 15.0517 -1.2763
-16.9324 14.0077 -1.2386
-16.9450 13.0225 -1.2045
-16.9525 12.0857 -1.1734
-16.9611 11.1959 -1.1454
-16.9693 10.3465 -1.1202
-16.9876 9.5385 -1.0980
-16.9958 8.7561 -1.0775
-17.0038 8.0014 -1.0591
-17.0115 7.2710 -1.0427
-17.0157 6.5609 -1.0278
-17.0245 5.8715 -1.0150
-17.0332 5.1983 -1.0037
-17.0417 4.5390 -0.9940
-17.0500 3.8916 -0.9857
-17.0526 3.2530 -0.9784
-17.0596 2.6236 -0.9728
-17.0666 2.0006 -0.9685
-17.0735 1.3823 -0.9654
-17.0804 0.7671 -0.9636
-17.0886 0.1534 -0.9632
-17.0946 -0.4604 -0.9638
-17.1006 -1.0759 -0.9657
-17.1067 -1.6946 -0.9689
-17.1128 -2.3181 -0.9733
-17.1506 -2.9536 -0.9808
-17.1716 -3.5963 -0.9888
-17.1938 -4.2505 -0.9982
-17.2188 -4.9188 -1.0093
-17.2453 -5.6033 -1.0220
-17.2719 -6.3060 -1.0363
-17.3025 -7.0308 -1.0526
-17.3454 -7.7849 -1.0715
-17.4049 -8.5750 -1.0935
-17.4764 -9.4044 -1.1185
-17.5619 -10.2800 -1.1469
-17.6824 -11.2216 -1.1803
-17.8787 -12.2680 -1.2221
-18.2019 -13.4757 -1.2764
-18.6964 -14.9099 -1.3478
-19.3416 -16.5945 -1.4363
-20.3291 -18.7498 -1.5587
-23.4919 -23.2820 -1.8641
-4.0154 -13.5930 -0.7988
-4.0615 -37.5608 -2.1293
-1.2063 -33.5829 -1.8940
-0.0000 -33.0447 -1.6758
1.1680 -32.5173 -1.6502
2.3131 -32.1563 -1.6350
3.8408 -35.5205 -1.8119
23.3232 -21.5113 -1.6091
22.1323 -15.1868 -1.3613
33.4138 -21.2050 -2.0070
32.9994 -19.3165 -1.9392
33.9449 -18.2665 -1.9549
34.8170 -17.1537 -1.9684
31.4904 -14.1335 -1.7505
28.7841 -11.6964 -1.5757
27.8864 -10.1813 -1.5055
25.2733 -8.2118 -1.3477
23.6598 -6.7588 -1.2479
22.6006 -5.5871 -1.1807
21.3651 -4.4745 -1.1070
20.2735 -3.4914 -1.0433
19.2994 -2.6143 -0.9877
18.7227 -1.8546 -0.9542
19.2994 -1.2142 -0.9807
19.9099 -0.5363 -1.0101
20.5590 0.1845 -1.0427
21.2523 0.9545 -1.0789
21.9965 1.7808 -1.1192
22.7996 2.6726 -1.1642
23.4773 3.6105 -1.2046
24.4211 4.6586 -1.2608
25.4587 5.8108 -1.3243
26.8304 7.1462 -1.4081
28.1245 8.5832 -1.4913
28.1968 9.7247 -1.5126
28.2375 10.8878 -1.5348
28.2795 12.0872 -1.5597
28.3229 13.3277 -1.5875
28.3679 14.6149 -1.6184
34.1426 30.3742 -2.3175
31.8515 30.4532 -2.2348
29.7157 30.5269 -2.1605
28.7087 31.6931 -2.1687
28.7943 34.1771 -2.2664
29.1161 37.1904 -2.3953
29.2258 40.2258 -2.5216
8.6819 19.8182 -1.0973
-16.5624 46.6599 -2.5110
-16.6097 41.9514 -2.2882
-16.6602 38.0303 -2.1056
-16.7009 34.6799 -1.9521
-16.7285 31.7668 -1.8208
-16.7535 29.2195 -1.7081
-16.7862 26.9831 -1.6116
-16.8123 24.9790 -1.5270
-16.8291 23.1632 -1.4520
-16.8445 21.5157 -1.3858
-16.8599 20.0116 -1.3271
-16.8741 18.6282 -1.2747
-16.8937 17.3549 -1.2283
-16.9063 16.1641 -1.1862
-16.9192 15.0517 -1.1484
-16.9325 14.0078 -1.1145
-16.9450 13.0225 -1.0838
-16.9525 12.0857 -1.0558
-16.9611 11.1959 -1.0307
-16.9693 10.3465 -1.0079
-16.9874 9.5385 -0.9880
-16.9957 8.7560 -0.9696
-17.0036 8.0013 -0.9530
-17.0113 7.2710 -0.9382
-17.0157 6.5609 -0.9249
-17.0245 5.8715 -0.9133
-17.0332 5.1983 -0.9032
-17.0417 4.5390 -0.8944
-17.0500 3.8916 -0.8869
-17.0527 3.2530 -0.8804
-17.0597 2.6236 -0.8753
-17.0667 2.0006 -0.8714
-17.0736 1.3823 -0.8687
-17.0804 0.7671 -0.8671
-17.0886 0.1534 -0.8667
-17.0946 -0.4604 -0.8673
-17.1006 -1.0759 -0.8690
-17.1067 -1.6946 -0.8718
-17.1128 -2.3181 -0.8758
-17.1506 -2.9536 -0.8826
-17.1716 -3.5963 -0.8897
-17.1938 -4.2505 -0.8982
-17.2188 -4.9188 -0.9082
-17.2453 -5.6033 -0.9196
-17.2719 -6.3060 -0.9325
-17.3025 -7.0308 -0.9472
-17.3454 -7.7849 -0.9642
-17.4049 -8.5750 -0.9840
-17.4764 -9.4044 -1.0065
-17.5619 -10.2800 -1.0320
-17.6824 -11.2216 -1.0621
-17.8787 -12.2680 -1.0996
-18.2019 -13.4757 -1.1485
-18.6964 -14.9099 -1.2128
-19.3416 -16.5945 -1.2924
-20.3291 -18.7498 -1.4025
-23.4920 -23.2820 -1.6774
-4.0150 -13.5918 -0.7187
-4.0833 -37.7631 -1.9263
-1.2065 -33.5894 -1.7046
-0.0000 -33.0510 -1.4896
1.1682 -32.5234 -1.4668
2.3164 -32.2036 -1.4552
3.8471 -35.5785 -1.6129
23.3233 -21.5113 -1.4301
31.4417 -23.2778 -1.7632
22.1323 -15.1868 -1.2098
33.4137 -21.2050 -1.7837
32.9994 -19.3165 -1.7234
33.9449 -18.2665 -1.7374
34.8170 -17.1537 -1.7494
31.4904 -14.1335 -1.5557
28.3433 -11.5173 -1.3789
27.7591 -10.1349 -1.3319
25.2733 -8.2118 -1.1977
24.0141 -6.8600 -1.1256
22.6006 -5.5871 -1.0493
21.3651 -4.4745 -0.9838
20.2735 -3.4914 -0.9272
19.2994 -2.6143 -0.8778
18.7227 -1.8546 -0.8480
19.2994 -1.2142 -0.8716
8.5786 -0.2311 -0.3868
20.5590 0.1846 -0.9267
21.2523 0.9545 -0.9588
21.9965 1.7808 -0.9947
22.7996 2.6726 -1.0346
23.6736 3.6407 -1.0795
24.6253 4.6975 -1.1299
25.6544 5.8555 -1.1860
26.6079 7.0869 -1.2411
27.8913 8.5120 -1.3143
28.1968 9.7247 -1.3443
28.2375 10.8879 -1.3640
28.2795 12.0872 -1.3861
28.3229 13.3277 -1.4108
28.3679 14.6149 -1.4383
34.1426 30.3742 -2.0597
31.8515 30.4532 -1.9862
29.7157 30.5269 -1.9201
28.7087 31.6931 -1.9274
28.7943 34.1771 -2.0142
29.1161 37.1904 -2.1288
29.2258 40.2259 -2.2410
8.6817 19.8178 -0.9752
-16.5623 46.6597 -2.2316
-16.6098 41.9517 -2.0336
-16.6601 38.0300 -1.8713
-16.7007 34.6794 -1.7348
-16.7284 31.7667 -1.6182
-16.7536 29.2197 -1.5181
-16.7861 26.9830 -1.4323
-16.8123 24.9789 -1.3571
-16.8289 23.1630 -1.2904
-16.8445 21.5158 -1.2316
-16.8600 20.0117 -1.1794
-16.8741 18.6283 -1.1329
-16.8937 17.3548 -1.0916
-16.9063 16.1641 -1.0542
-16.9192 15.0518 -1.0207
-16.9325 14.0078 -0.9905
-16.9451 13.0226 -0.9632
-16.9525 12.0857 -0.9384
-16.9611 11.1959 -0.9160
-16.9693 10.3465 -0.8958
-16.9873 9.5384 -0.8781
-16.9955 8.7559 -0.8617
-17.0035 8.0012 -0.8470
-17.0112 7.2709 -0.8338
-17.0157 6.5609 -0.8220
-17.0246 5.8715 -0.8117
-17.0332 5.1983 -0.8027
-17.0417 4.5390 -0.7949
-17.0500 3.8916 -0.7882
-17.0527 3.2530 -0.7824
-17.0597 2.6236 -0.7779
-17.0667 2.0006 -0.7745
-17.0736 1.3823 -0.7720
-17.0805 0.7671 -0.7706
-17.0886 0.1534 -0.7702
-17.0946 -0.4604 -0.7708
-17.1006 -1.0759 -0.7723
-17.1067 -1.6946 -0.7748
-17.1128 -2.3181 -0.7783
-17.1506 -2.9536 -0.7844
-17.1716 -3.5963 -0.7907
-17.1938 -4.2505 -0.7983
-17.2188 -4.9188 -0.8071
-17.2453 -5.6033 -0.8173
-17.2719 -6.3060 -0.8287
-17.3025 -7.0308 -0.8418
-17.3454 -7.7850 -0.8569
-17.4049 -8.5750 -0.8745
-17.4764 -9.4044 -0.8945
-17.5619 -10.2800 -0.9172
-17.6824 -11.2216 -0.9439
-17.8787 -12.2680 -0.9773
-18.2019 -13.4757 -1.0207
-18.6964 -14.9099 -1.0778
-19.3416 -16.5945 -1.1486
-20.3291 -18.7498 -1.2465
-23.4920 -23.2821 -1.4907
-4.0147 -13.5906 -0.6387
-4.1054 -37.9675 -1.7212
-3.5010 -48.6718 -2.1994
-1.2067 -33.5959 -1.5152
-0.0000 -33.0573 -1.3035
1.1684 -32.5295 -1.2835
2.3199 -32.2512 -1.2750
3.8534 -35.6367 -1.4134
23.3233 -21.5113 -1.2511
31.3826 -23.2340 -1.5397
22.1323 -15.1868 -1.0584
33.4137 -21.2050 -1.5605
32.9994 -19.3165 -1.5077
33.9449 -18.2665 -1.5200
34.8170 -17.1537 -1.5304
31.0081 -13.9170 -1.3402
28.3433 -11.5173 -1.2064
27.8864 -10.1813 -1.1706
25.6517 -8.3348 -1.0635
24.0141 -6.8600 -0.9848
22.6006 -5.5871 -0.9180
21.3651 -4.4745 -0.8607
20.2735 -3.4914 -0.8112
19.2994 -2.6143 -0.7679
18.7227 -1.8546 -0.7419
19.2994 -1.2142 -0.7625
8.5781 -0.2310 -0.3384
20.5590 0.1846 -0.8107
21.2523 0.9545 -0.8388
21.9965 1.7808 -0.8702
22.7996 2.6726 -0.9052
23.6736 3.6407 -0.9444
24.6253 4.6975 -0.9885
25.6716 5.8594 -1.0383
26.8304 7.1462 -1.0948
28.1245 8.5832 -1.1595
28.1968 9.7247 -1.1761
28.2375 10.8878 -1.1933
28.2795 12.0872 -1.2127
28.3229 13.3277 -1.2343
28.3679 14.6149 -1.2583
34.1426 30.3742 -1.8019
31.8515 30.4532 -1.7376
29.7157 30.5269 -1.6798
28.7087 31.6931 -1.6862
28.7943 34.1772 -1.7622
29.1161 37.1904 -1.8624
29.2258 40.2258 -1.9606
8.6815 19.8173 -0.8531
-16.5623 46.6595 -1.9523
-16.6100 41.9521 -1.7792
-16.6599 38.0297 -1.6371
-16.7004 34.6789 -1.5177
-16.7284 31.7666 -1.4157
-16.7537 29.2199 -1.3281
-16.7860 26.9829 -1.2530
-16.8122 24.9788 -1.1873
-16.8287 23.1628 -1.1289
-16.8446 21.5158 -1.0775
-16.8600 20.0118 -1.0318
-16.8742 18.6283 -0.9911
-16.8936 17.3548 -0.9550
-16.9062 16.1640 -0.9223
-16.9193 15.0518 -0.8929
-16.9326 14.0078 -0.8665
-16.9451 13.0226 -0.8427
-16.9525 12.0857 -0.8209
-16.9611 11.1959 -0.8014
-16.9693 10.3465 -0.7837
-16.9871 9.5383 -0.7682
-16.9954 8.7559 -0.7539
-17.0033 8.0011 -0.7410
-17.0110 7.2709 -0.7295
-17.0157 6.5610 -0.7191
-17.0246 5.8716 -0.7101
-17.0333 5.1983 -0.7022
-17.0417 4.5390 -0.6954
-17.0501 3.8916 -0.6896
-17.0527 3.2530 -0.6845
-17.0598 2.6236 -0.6806
-17.0667 2.0006 -0.6776
-17.0736 1.3823 -0.6754
-17.0805 0.7671 -0.6742
-17.0886 0.1534 -0.6738
-17.0946 -0.4604 -0.6743
-17.1006 -1.0759 -0.6756
-17.1067 -1.6946 -0.6778
-17.1128 -2.3181 -0.6809
-17.1506 -2.9536 -0.6862
-17.1716 -3.5963 -0.6918
-17.1938 -4.2505 -0.6984
-17.2188 -4.9188 -0.7061
-17.2453 -5.6033 -0.7150
-17.2719 -6.3060 -0.7250
-17.3025 -7.0308 -0.7364
-17.3454 -7.7849 -0.7497
-17.4049 -8.5750 -0.7651
-17.4764 -9.4044 -0.7825
-17.5619 -10.2800 -0.8024
-17.6824 -11.2216 -0.8258
-17.8787 -12.2680 -0.8550
-18.2019 -13.4757 -0.8930
-18.6964 -14.9099 -0.9429
-19.3416 -16.5945 -1.0049
-20.3291 -18.7498 -1.0905
-23.4920 -23.2821 -1.3042
-4.0143 -13.5894 -0.5587
-4.1278 -38.1741 -1.5140
-3.5010 -48.6718 -1.9241
-1.2070 -33.6024 -1.3258
-0.0000 -33.0636 -1.1173
1.1686 -32.5356 -1.1002
2.3233 -32.2988 -1.0943
3.8597 -35.6951 -1.2133
23.3233 -21.5113 -1.0722
22.1323 -15.1868 -0.9071
33.4137 -21.2050 -1.3373
32.8551 -19.2320 -1.2865
33.8016 -18.1894 -1.2972
34.3428 -16.9200 -1.2938
31.4904 -14.1334 -1.1664
28.7841 -11.6964 -1.0500
27.8864 -10.1813 -1.0032
25.6517 -8.3348 -0.9115
24.0141 -6.8600 -0.8440
22.6006 -5.5871 -0.7867
21.3651 -4.4745 -0.7377
20.2735 -3.4914 -0.6952
19.2994 -2.6143 -0.6581
18.7227 -1.8546 -0.6358
19.2994 -1.2142 -0.6535
8.5777 -0.2310 -0.2900
20.5590 0.1845 -0.6948
21.2523 0.9545 -0.7189
21.9965 1.7808 -0.7458
22.7996 2.6726 -0.7757
23.6736 3.6407 -0.8094
24.6253 4.6975 -0.8472
25.6716 5.8594 -0.8898
26.8304 7.1462 -0.9383
28.1245 8.5832 -0.9937
28.1968 9.7247 -1.0079
28.2375 10.8879 -1.0227
28.2795 12.0872 -1.0393
28.3229 13.3277 -1.0578
28.3679 14.6149 -1.0784
34.1426 30.3742 -1.5443
31.7884 30.3928 -1.4862
29.6578 30.4674 -1.4369
28.6436 31.6212 -1.4418
28.7943 34.1771 -1.5102
29.1161 37.1904 -1.5961
29.2258 40.2259 -1.6803
8.6813 19.8169 -0.7311
-16.5622 46.6593 -1.6732
-16.6101 41.9524 -1.5248
-16.6598 38.0294 -1.4030
-16.7002 34.6783 -1.3007
-16.7284 31.7666 -1.2132
-16.7539 29.2201 -1.1382
-16.7860 26.9828 -1.0739
-16.8121 24.9787 -1.0175
-16.8286 23.1625 -0.9675
-16.8446 21.5159 -0.9234
-16.8601 20.0118 -0.8843
-16.8742 18.6284 -0.8494
-16.8936 17.3547 -0.8185
-16.9062 16.1640 -0.7904
-16.9193 15.0519 -0.7653
-16.9326 14.0079 -0.7426
-16.9452 13.0226 -0.7222
-16.9525 12.0857 -0.7036
-16.9611 11.1959 -0.6868
-16.9693 10.3465 -0.6716
-16.9870 9.5382 -0.6583
-16.9952 8.7558 -0.6461
-17.0032 8.0011 -0.6350
-17.0109 7.2708 -0.6252
-17.0158 6.5610 -0.6163
-17.0246 5.8716 -0.6086
-17.0333 5.1983 -0.6018
-17.0418 4.5390 -0.5960
-17.0501 3.8916 -0.5910
-17.0528 3.2530 -0.5867
-17.0598 2.6236 -0.5833
-17.0668 2.0006 -0.5807
-17.0737 1.3823 -0.5789
-17.0806 0.7671 -0.5778
-17.0886 0.1534 -0.5775
-17.0946 -0.4604 -0.5779
-17.1006 -1.0759 -0.5790
-17.1067 -1.6946 -0.5809
-17.1128 -2.3181 -0.5836
-17.1506 -2.9536 -0.5881
-17.1716 -3.5963 -0.5929
-17.1938 -4.2505 -0.5985
-17.2188 -4.9188 -0.6052
-17.2453 -5.6033 -0.6128
-17.2719 -6.3060 -0.6214
-17.3025 -7.0308 -0.6311
-17.3454 -7.7849 -0.6425
-17.4049 -8.5750 -0.6557
-17.4764 -9.4044 -0.6707
-17.5619 -10.2800 -0.6877
-17.6824 -11.2216 -0.7077
-17.8787 -12.2680 -0.7327
-18.2019 -13.4757 -0.7653
-18.6964 -14.9099 -0.8081
-19.3416 -16.5945 -0.8612
-20.3291 -18.7498 -0.9346
-23.4920 -23.2821 -1.1177
-4.0139 -13.5881 -0.4788
-4.1503 -38.3828 -1.3046
-3.5010 -48.6718 -1.6490
-1.2072 -33.6089 -1.1365
-0.0000 -33.0699 -0.9312
1.1689 -32.5417 -0.9169
2.3267 -32.3466 -0.9132
3.8660 -35.7536 -1.0126
23.3233 -21.5113 -0.8934
22.1323 -15.1868 -0.7558
34.1045 -21.6434 -1.1374
32.9994 -19.3165 -1.0767
33.9449 -18.2665 -1.0854
34.9071 -17.1981 -1.0957
31.4904 -14.1335 -0.9719
28.7841 -11.6964 -0.8749
27.8864 -10.1813 -0.8359
25.6517 -8.3348 -0.7595
24.0141 -6.8600 -0.7032
22.6006 -5.5871 -0.6555
21.3651 -4.4745 -0.6146
20.2735 -3.4914 -0.5793
19.2994 -2.6143 -0.5484
18.7227 -1.8546 -0.5298
19.2994 -1.2142 -0.5445
8.5772 -0.2310 -0.2416
20.5590 0.1845 -0.5789
21.2523 0.9545 -0.5990
21.9965 1.7808 -0.6214
22.7996 2.6726 -0.6464
23.6736 3.6407 -0.6744
24.6253 4.6975 -0.7059
25.6716 5.8594 -0.7414
26.8304 7.1462 -0.7818
28.1245 8.5832 -0.8280
28.1968 9.7247 -0.8399
28.2375 10.8879 -0.8522
28.2795 12.0872 -0.8660
28.3229 13.3277 -0.8814
28.3679 14.6149 -0.8986
36.5377 30.2266 -1.3352
34.0737 30.3129 -1.2842
31.7884 30.3928 -1.2384
29.6578 30.4674 -1.1972
28.6436 31.6212 -1.2014
28.7304 34.1012 -1.2556
29.0549 37.1122 -1.3272
29.1607 40.1362 -1.3969
8.6811 19.8165 -0.6092
-16.5621 46.6590 -1.3941
-16.6102 41.9527 -1.2705
-16.6597 38.0291 -1.1691
-16.7000 34.6778 -1.0838
-16.7283 31.7666 -1.0109
-16.7540 29.2203 -0.9484
-16.7859 26.9827 -0.8948
-16.8121 24.9786 -0.8478
-16.8284 23.1623 -0.8062
-16.8447 21.5160 -0.7694
-16.8601 20.0119 -0.7368
-16.8743 18.6284 -0.7078
-16.8935 17.3547 -0.6820
-16.9061 16.1639 -0.6586
-16.9193 15.0519 -0.6377
-16.9326 14.0079 -0.6188
-16.9452 13.0227 -0.6017
-16.9525 12.0857 -0.5862
-16.9611 11.1959 -0.5723
-16.9693 10.3465 -0.5596
-16.9868 9.5381 -0.5486
-16.9951 8.7557 -0.5383
-17.0030 8.0010 -0.5291
-17.0107 7.2707 -0.5209
-17.0158 6.5610 -0.5135
-17.0247 5.8716 -0.5071
-17.0333 5.1983 -0.5015
-17.0418 4.5390 -0.4966
-17.0501 3.8916 -0.4924
-17.0528 3.2530 -0.4888
-17.0598 2.6236 -0.4860
-17.0668 2.0006 -0.4839
-17.0737 1.3823 -0.4823
-17.0806 0.7671 -0.4814
-17.0886 0.1534 -0.4812
-17.0946 -0.4604 -0.4815
-17.1006 -1.0759 -0.4825
-17.1067 -1.6946 -0.4840
-17.1128 -2.3181 -0.4863
-17.1506 -2.9536 -0.4900
-17.1716 -3.5963 -0.4940
-17.1938 -4.2505 -0.4987
-17.2188 -4.9188 -0.5042
-17.2453 -5.6033 -0.5106
-17.2719 -6.3060 -0.5177
-17.3025 -7.0308 -0.5259
-17.3454 -7.7849 -0.5353
-17.4049 -8.5750 -0.5463
-17.4764 -9.4044 -0.5588
-17.5619 -10.2800 -0.5730
-17.6824 -11.2216 -0.5897
-17.8787 -12.2680 -0.6105
-18.2019 -13.4757 -0.6377
-18.6964 -14.9099 -0.6733
-19.3416 -16.5945 -0.7176
-20.3291 -18.7498 -0.7787
-23.4920 -23.2821 -0.9313
-4.0136 -13.5869 -0.3989
-4.1732 -38.5937 -1.0930
-3.5010 -48.6718 -1.3740
-1.2074 -33.6154 -0.9471
-0.0000 -33.0761 -0.7450
1.1691 -32.5478 -0.7336
2.3302 -32.3944 -0.7315
3.8724 -35.8123 -0.8113
23.3233 -21.5113 -0.7147
22.1323 -15.1868 -0.6046
34.1045 -21.6434 -0.9098
32.9994 -19.3165 -0.8613
33.9449 -18.2665 -0.8683
34.9071 -17.1981 -0.8765
31.4904 -14.1335 -0.7775
28.7841 -11.6964 -0.6998
27.8864 -10.1813 -0.6687
25.6517 -8.3348 -0.6075
24.0141 -6.8600 -0.5625
22.6006 -5.5871 -0.5244
21.3651 -4.4745 -0.4917
20.2735 -3.4914 -0.4634
19.2994 -2.6143 -0.4387
18.7227 -1.8546 -0.4238
19.2994 -1.2142 -0.4356
8.5767 -0.2310 -0.1933
20.5590 0.1845 -0.4631
21.2523 0.9545 -0.4792
21.9965 1.7808 -0.4971
22.7996 2.6726 -0.5171
23.6736 3.6407 -0.5395
24.6253 4.6975 -0.5647
25.6716 5.8594 -0.5931
26.8304 7.1462 -0.6254
28.1245 8.5832 -0.6623
28.1968 9.7247 -0.6718
28.2375 10.8879 -0.6817
28.2795 12.0872 -0.6927
28.3229 13.3277 -0.7050
28.3679 14.6149 -0.7188
36.5377 30.2266 -1.0681
34.0737 30.3129 -1.0272
31.7883 30.3928 -0.9906
29.6578 30.4674 -0.9577
28.6436 31.6212 -0.9610
28.7304 34.1012 -1.0044
29.0549 37.1122 -1.0616
29.1607 40.1362 -1.1174
8.6810 19.8161 -0.4873
-16.5620 46.6588 -1.1152
-16.6104 41.9530 -1.0163
-16.6595 38.0288 -0.9352
-16.6997 34.6773 -0.8669
-16.7283 31.7665 -0.8087
-16.7541 29.2205 -0.7587
-16.7858 26.9826 -0.7158
-16.8120 24.9785 -0.6782
-16.8282 23.1621 -0.6449
-16.8447 21.5160 -0.6155
-16.8602 20.0119 -0.5894
-16.8743 18.6285 -0.5662
-16.8935 17.3546 -0.5455
-16.9061 16.1639 -0.5268
-16.9194 15.0519 -0.5101
-16.9327 14.0079 -0.4950
-16.9452 13.0227 -0.4814
-16.9525 12.0857 -0.4689
-16.9611 11.1959 -0.4578
-16.9693 10.3465 -0.4477
-16.9866 9.5380 -0.4388
-16.9949 8.7556 -0.4306
-17.0029 8.0009 -0.4233
-17.0106 7.2707 -0.4167
-17.0158 6.5610 -0.4108
-17.0247 5.8716 -0.4056
-17.0333 5.1983 -0.4011
-17.0418 4.5390 -0.3972
-17.0501 3.8916 -0.3939
-17.0529 3.2530 -0.3910
-17.0599 2.6236 -0.3888
-17.0669 2.0006 -0.3870
-17.0738 1.3823 -0.3858
-17.0806 0.7671 -0.3851
-17.0886 0.1534 -0.3849
-17.0946 -0.4604 -0.3852
-17.1006 -1.0759 -0.3859
-17.1067 -1.6946 -0.3872
-17.1128 -2.3181 -0.3890
-17.1506 -2.9536 -0.3920
-17.1716 -3.5963 -0.3952
-17.1938 -4.2505 -0.3989
-17.2188 -4.9188 -0.4034
-17.2453 -5.6033 -0.4084
-17.2719 -6.3060 -0.4142
-17.3025 -7.0308 -0.4207
-17.3454 -7.7850 -0.4282
-17.4049 -8.5750 -0.4370
-17.4764 -9.4044 -0.4470
-17.5619 -10.2800 -0.4584
-17.6824 -11.2216 -0.4717
-17.8787 -12.2680 -0.4884
-18.2019 -13.4757 -0.5101
-18.6964 -14.9099 -0.5386
-19.3416 -16.5945 -0.5740
-20.3291 -18.7498 -0.6229
-23.4920 -23.2821 -0.7450
-4.0132 -13.5857 -0.3191
-4.1962 -38.8069 -0.8792
-3.5010 -48.6718 -1.0991
-1.2077 -33.6219 -0.7578
-0.0000 -33.0824 -0.5588
1.1693 -32.5539 -0.5502
2.3336 -32.4424 -0.5494
23.3233 -21.5113 -0.5360
22.1323 -15.1868 -0.4534
34.1045 -21.6434 -0.6823
32.9994 -19.3164 -0.6459
33.9449 -18.2665 -0.6511
34.9071 -17.1981 -0.6573
31.4904 -14.1335 -0.5830
28.7841 -11.6964 -0.5248
27.8864 -10.1813 -0.5015
25.6517 -8.3348 -0.4556
24.0141 -6.8600 -0.4219
22.6006 -5.5871 -0.3933
21.3651 -4.4745 -0.3687
20.2735 -3.4914 -0.3475
19.2994 -2.6143 -0.3290
18.7227 -1.8546 -0.3178
19.2994 -1.2142 -0.3266
8.5762 -0.2310 -0.1449
20.5590 0.1845 -0.3473
21.2523 0.9545 -0.3594
21.9965 1.7808 -0.3728
22.7996 2.6726 -0.3878
23.6736 3.6407 -0.4046
24.6253 4.6975 -0.4235
25.6716 5.8594 -0.4448
26.8304 7.1462 -0.4690
28.1245 8.5832 -0.4967
28.1968 9.7247 -0.5038
28.2375 10.8878 -0.5112
28.2795 12.0872 -0.5195
28.3229 13.3277 -0.5287
28.3679 14.6149 -0.5390
36.5377 30.2266 -0.8010
34.0737 30.3129 -0.7704
31.7884 30.3928 -0.7429
29.6578 30.4674 -0.7182
28.6436 31.6212 -0.7207
28.7304 34.1012 -0.7532
29.0549 37.1122 -0.7962
29.1607 40.1362 -0.8380
8.6808 19.8156 -0.3654
-16.5620 46.6586 -0.8363
-16.6105 41.9533 -0.7622
-16.6594 38.0285 -0.7013
-16.6995 34.6768 -0.6501
-16.7283 31.7664 -0.6064
-16.7542 29.2207 -0.5690
-16.7858 26.9825 -0.5368
-16.8119 24.9784 -0.5086
-16.8281 23.1618 -0.4836
-16.8448 21.5161 -0.4616
-16.8602 20.0120 -0.4420
-16.8744 18.6285 -0.4246
-16.8934 17.3546 -0.4091
-16.9060 16.1638 -0.3951
-16.9194 15.0520 -0.3825
-16.9327 14.0080 -0.3712
-16.9453 13.0227 -0.3610
-16.9525 12.0857 -0.3517
-16.9611 11.1959 -0.3433
-16.9693 10.3465 -0.3357
-16.9865 9.5379 -0.3291
-16.9948 8.7555 -0.3229
-17.0027 8.0009 -0.3174
-17.0104 7.2706 -0.3125
-17.0158 6.5610 -0.3081
-17.0247 5.8716 -0.3042
-17.0334 5.1984 -0.3008
-17.0418 4.5391 -0.2979
-17.0501 3.8916 -0.2954
-17.0529 3.2530 -0.2932
-17.0599 2.6236 -0.2916
-17.0669 2.0006 -0.2903
-17.0738 1.3823 -0.2894
-17.0807 0.7671 -0.2888
-17.0886 0.1534 -0.2887
-17.0946 -0.4604 -0.2889
-17.1006 -1.0759 -0.2894
-17.1067 -1.6946 -0.2904
-17.1128 -2.3181 -0.2917
-17.1506 -2.9536 -0.2940
-17.1716 -3.5963 -0.2964
-17.1938 -4.2505 -0.2992
-17.2188 -4.9188 -0.3025
-17.2453 -5.6033 -0.3063
-17.2719 -6.3060 -0.3106
-17.3025 -7.0308 -0.3155
-17.3454 -7.7850 -0.3211
-17.4049 -8.5750 -0.3277
-17.4764 -9.4044 -0.3352
-17.5619 -10.2800 -0.3437
-17.6824 -11.2216 -0.3538
-17.8787 -12.2680 -0.3663
-18.2019 -13.4757 -0.3826
-18.6964 -14.9099 -0.4039
-19.3416 -16.5945 -0.4305
-20.3291 -18.7498 -0.4672
-23.4921 -23.2822 -0.5587
-4.0129 -13.5845 -0.2393
-4.2195 -39.0224 -0.6630
-3.5010 -48.6718 -0.8243
-1.2079 -33.6284 -0.5684
-0.0000 -33.0887 -0.3726
1.1695 -32.5600 -0.3669
2.3371 -32.4905 -0.3668
23.3233 -21.5113 -0.3573
22.1323 -15.1868 -0.3023
34.1045 -21.6434 -0.4548
32.9994 -19.3165 -0.4306
33.9449 -18.2665 -0.4341
34.9071 -17.1981 -0.4382
31.4904 -14.1335 -0.3887
28.7841 -11.6964 -0.3499
27.8864 -10.1813 -0.3343
25.6517 -8.3348 -0.3037
24.0141 -6.8600 -0.2812
22.6006 -5.5871 -0.2622
21.3651 -4.4745 -0.2458
20.2734 -3.4914 -0.2317
19.2994 -2.6143 -0.2193
18.7227 -1.8546 -0.2119
19.2994 -1.2142 -0.2178
8.5758 -0.2310 -0.0966
20.5590 0.1846 -0.2315
21.2523 0.9544 -0.2396
21.9965 1.7808 -0.2485
22.7996 2.6726 -0.2585
23.6736 3.6407 -0.2697
24.6253 4.6975 -0.2823
25.6716 5.8594 -0.2965
26.8304 7.1462 -0.3127
28.1245 8.5832 -0.3311
28.1968 9.7247 -0.3359
28.2375 10.8878 -0.3408
28.2795 12.0872 -0.3463
28.3229 13.3277 -0.3525
28.3679 14.6149 -0.3593
36.5377 30.2266 -0.5340
34.0737 30.3129 -0.5135
31.7884 30.3928 -0.4952
29.6578 30.4674 -0.4788
28.6436 31.6212 -0.4804
28.7304 34.1012 -0.5021
29.0549 37.1122 -0.5307
29.1607 40.1363 -0.5587
8.6806 19.8152 -0.2436
-16.5619 46.6584 -0.5575
-16.6106 41.9537 -0.5081
-16.6593 38.0282 -0.4675
-16.6992 34.6763 -0.4334
-16.7282 31.7663 -0.4043
-16.7543 29.2209 -0.3793
-16.7857 26.9824 -0.3578
-16.8119 24.9783 -0.3390
-16.8279 23.1616 -0.3224
-16.8448 21.5162 -0.3077
-16.8603 20.0120 -0.2947
-16.8744 18.6286 -0.2831
-16.8934 17.3545 -0.2727
-16.9060 16.1638 -0.2634
-16.9195 15.0520 -0.2550
-16.9328 14.0080 -0.2475
-16.9453 13.0228 -0.2407
-16.9525 12.0857 -0.2344
-16.9611 11.1959 -0.2289
-16.9693 10.3465 -0.2238
-16.9863 9.5378 -0.2194
-16.9946 8.7555 -0.2153
-17.0026 8.0008 -0.2116
-17.0103 7.2705 -0.2083
-17.0159 6.5610 -0.2054
-17.0247 5.8716 -0.2028
-17.0334 5.1984 -0.2005
-17.0419 4.5391 -0.1986
-17.0502 3.8916 -0.1969
-17.0529 3.2530 -0.1955
-17.0600 2.6236 -0.1944
-17.0669 2.0006 -0.1935
-17.0738 1.3823 -0.1929
-17.0807 0.7671 -0.1925
-17.0886 0.1534 -0.1924
-17.0946 -0.4604 -0.1926
-17.1007 -1.0759 -0.1929
-17.1067 -1.6946 -0.1936
-17.1128 -2.3181 -0.1945
-17.1506 -2.9536 -0.1960
-17.1716 -3.5963 -0.1976
-17.1938 -4.2505 -0.1994
-17.2188 -4.9188 -0.2017
-17.2453 -5.6033 -0.2042
-17.2719 -6.3060 -0.2070
-17.3025 -7.0308 -0.2103
-17.3454 -7.7850 -0.2141
-17.4049 -8.5750 -0.2185
-17.4764 -9.4044 -0.2235
-17.5619 -10.2800 -0.2291
-17.6824 -11.2216 -0.2358
-17.8787 -12.2680 -0.2442
-18.2019 -13.4757 -0.2550
-18.6964 -14.9099 -0.2693
-19.3416 -16.5945 -0.2870
-20.3291 -18.7498 -0.3114
-23.4919 -23.2820 -0.3724
-4.0125 -13.5833 -0.1595
-4.2431 -39.2403 -0.4444
-3.0432 -42.3077 -0.4776
-1.2081 -33.6349 -0.3790
-0.0000 -33.0950 -0.1863
1.1697 -32.5661 -0.1835
2.3406 -32.5388 -0.1837
23.3233 -21.5113 -0.1786
22.1323 -15.1868 -0.1511
34.1045 -21.6434 -0.2274
32.9994 -19.3165 -0.2153
33.9449 -18.2665 -0.2170
34.9071 -17.1981 -0.2191
31.4904 -14.1335 -0.1943
28.7841 -11.6964 -0.1749
27.8864 -10.1813 -0.1671
25.8935 -8.4133 -0.1533
24.0141 -6.8600 -0.1406
22.6006 -5.5871 -0.1311
21.3652 -4.4745 -0.1229
20.2735 -3.4914 -0.1158
19.2994 -2.6143 -0.1097
18.7227 -1.8546 -0.1059
19.2994 -1.2142 -0.1089
8.5753 -0.2310 -0.0483
20.5590 0.1845 -0.1158
21.2523 0.9545 -0.1198
21.9965 1.7808 -0.1243
