ply
format ascii 1.0
element vertex 1955
property float32 x
property float32 y
property float32 z
end_header
-17.0520 3.2528 -2.7595
-17.0590 2.6235 -2.7436
-17.0660 2.0005 -2.7314
-17.0729 1.3822 -2.7228
-17.0798 0.7671 -2.7178
-17.0885 0.1534 -2.7165
-17.0945 -0.4604 -2.7184
-17.1006 -1.0759 -2.7237
-17.1066 -1.6945 -2.7326
-17.1128 -2.3181 -2.7451
-17.1506 -2.9536 -2.7664
-17.1716 -3.5963 -2.7888
-17.1939 -4.2505 -2.8154
-17.2189 -4.9189 -2.8466
-17.2453 -5.6033 -2.8824
-17.2719 -6.3060 -2.9228
-17.3025 -7.0308 -2.9688
-17.3455 -7.7850 -3.0222
-17.4049 -8.5750 -3.0843
-17.4764 -9.4044 -3.1548
-17.5620 -10.2800 -3.2348
-17.6824 -11.2216 -3.3291
-17.8787 -12.2680 -3.4468
-18.2019 -13.4757 -3.6001
-18.6965 -14.9100 -3.8013
-19.3417 -16.5946 -4.0511
-20.3292 -18.7499 -4.3962
-23.4930 -23.2831 -5.2578
-18.4723 -19.6710 -4.2895
-4.0207 -13.6110 -2.2560
-4.1587 -38.4601 -6.1493
1.5424 -42.9414 -6.5826
3.0914 -42.9773 -6.6009
23.3234 -21.5114 -4.8607
24.3649 -20.9043 -4.9181
25.0996 -20.0162 -4.9181
25.8019 -19.1024 -4.9181
26.4710 -18.1639 -4.9181
27.1059 -17.2020 -4.9181
27.7059 -16.2179 -4.9181
28.2703 -15.2129 -4.9181
28.7981 -14.1883 -4.9181
29.2889 -13.1454 -4.9181
28.7840 -11.6963 -4.7597
27.8864 -10.1813 -4.5479
25.6516 -8.3347 -4.1319
24.0140 -6.8600 -3.8260
22.6005 -5.5871 -3.5665
21.3651 -4.4745 -3.3440
19.9743 -3.4399 -3.1050
19.2994 -2.6143 -2.9836
18.7227 -1.8546 -2.8822
19.2994 -1.2142 -2.9624
19.9099 -0.5363 -3.0512
20.5590 0.1845 -3.1497
21.2524 0.9544 -3.2590
21.9966 1.7808 -3.3808
22.7996 2.6726 -3.5167
23.6736 3.6407 -3.6693
24.4921 4.6721 -3.8197
25.6716 5.8594 -4.0339
26.8305 7.1462 -4.2536
28.1246 8.5832 -4.5047
28.1968 9.7247 -4.5693
28.2375 10.8879 -4.6363
28.2795 12.0873 -4.7114
28.3229 13.3277 -4.7953
28.3679 14.6149 -4.8886
34.1426 30.3742 -7.0007
31.7883 30.3928 -6.7375
29.6578 30.4673 -6.5136
28.6436 31.6213 -6.5361
28.7944 34.1772 -6.8463
29.1162 37.1905 -7.2357
8.6848 19.8249 -3.3157
-16.6624 38.0354 -6.3614
-16.7051 34.6885 -5.8982
-16.7290 31.7677 -5.5002
-16.7515 29.2160 -5.1592
-16.7873 26.9849 -4.8686
-16.8134 24.9806 -4.6130
-16.8318 23.1670 -4.3869
-16.8436 21.5146 -4.1858
-16.8591 20.0107 -4.0085
-16.8733 18.6273 -3.8503
-16.8945 17.3557 -3.7105
-16.9071 16.1649 -3.5834
-16.9185 15.0511 -3.4690
-16.9318 14.0072 -3.3664
-16.9444 13.0221 -3.2738
-16.9525 12.0857 -3.1894
-16.9611 11.1959 -3.1134
-16.9693 10.3465 -3.0447
-16.9899 9.5398 -2.9850
-16.9981 8.7573 -2.9293
-17.0060 8.0024 -2.8792
-17.0137 7.2720 -2.8345
-17.0153 6.5608 -2.7937
-17.0241 5.8714 -2.7588
-17.0328 5.1982 -2.7281
-17.0413 4.5389 -2.7016
-17.0496 3.8915 -2.6791
-17.0520 3.2529 -2.6594
-17.0591 2.6235 -2.6441
-17.0660 2.0005 -2.6323
-17.0729 1.3822 -2.6240
-17.0798 0.7671 -2.6192
-17.0885 0.1534 -2.6180
-17.0945 -0.4604 -2.6197
-17.1006 -1.0759 -2.6249
-17.1067 -1.6946 -2.6335
-17.1128 -2.3181 -2.6455
-17.1506 -2.9536 -2.6661
-17.1716 -3.5963 -2.6877
-17.1939 -4.2505 -2.7133
-17.2189 -4.9189 -2.7434
-17.2453 -5.6033 -2.7778
-17.2719 -6.3060 -2.8168
-17.3025 -7.0308 -2.8611
-17.3455 -7.7850 -2.9126
-17.4049 -8.5750 -2.9724
-17.4764 -9.4044 -3.0403
-17.5620 -10.2800 -3.1174
-17.6824 -11.2216 -3.2083
-17.8787 -12.2680 -3.3217
-18.2019 -13.4757 -3.4695
-18.6965 -14.9100 -3.6634
-19.3417 -16.5946 -3.9041
-20.3292 -18.7499 -4.2367
-23.4930 -23.2831 -5.0671
-4.0203 -13.6097 -2.1740
-4.1303 -38.1974 -5.8857
1.5502 -43.1573 -6.3671
3.1070 -43.1940 -6.3849
23.3234 -21.5114 -4.6780
25.3163 -21.7206 -4.9181
26.0797 -20.7979 -4.9181
26.8095 -19.8483 -4.9181
27.5047 -18.8732 -4.9181
28.1644 -17.8737 -4.9181
28.7879 -16.8512 -4.9181
29.3742 -15.8069 -4.9181
29.9227 -14.7423 -4.9181
30.4326 -13.6587 -4.9181
28.7840 -11.6963 -4.5808
27.8864 -10.1813 -4.3769
25.6516 -8.3347 -3.9766
24.0140 -6.8600 -3.6822
22.6005 -5.5871 -3.4325
21.3651 -4.4745 -3.2183
19.9743 -3.4399 -2.9883
19.2994 -2.6143 -2.8714
18.7227 -1.8546 -2.7739
19.2994 -1.2142 -2.8511
19.9099 -0.5363 -2.9365
20.5590 0.1845 -3.0313
21.2524 0.9545 -3.1365
21.9966 1.7808 -3.2537
22.7996 2.6726 -3.3845
23.6736 3.6407 -3.5314
24.4921 4.6721 -3.6762
25.6716 5.8594 -3.8823
26.8305 7.1462 -4.0937
28.1246 8.5832 -4.3354
28.1968 9.7247 -4.3976
28.2375 10.8879 -4.4620
28.2795 12.0872 -4.5343
28.3229 13.3277 -4.6151
28.3679 14.6149 -4.7049
34.0736 30.3128 -6.7240
31.7883 30.3928 -6.4842
29.6578 30.4673 -6.2688
28.6436 31.6212 -6.2905
28.7304 34.1013 -6.5743
29.1162 37.1905 -6.9638
8.6846 19.8245 -3.1910
-16.6076 41.9461 -6.6515
-16.6623 38.0351 -6.1223
-16.7048 34.6879 -5.6764
-16.7290 31.7677 -5.2935
-16.7516 29.2162 -4.9654
-16.7872 26.9848 -4.6856
-16.8133 24.9805 -4.4396
-16.8316 23.1667 -4.2220
-16.8437 21.5147 -4.0285
-16.8591 20.0107 -3.8578
-16.8733 18.6274 -3.7056
-16.8945 17.3557 -3.5710
-16.9071 16.1648 -3.4487
-16.9185 15.0512 -3.3386
-16.9319 14.0072 -3.2399
-16.9444 13.0221 -3.1508
-16.9525 12.0857 -3.0696
-16.9611 11.1959 -2.9964
-16.9693 10.3465 -2.9303
-16.9897 9.5397 -2.8728
-16.9979 8.7572 -2.8192
-17.0058 8.0023 -2.7710
-17.0135 7.2719 -2.7279
-17.0153 6.5608 -2.6887
-17.0242 5.8714 -2.6551
-17.0328 5.1982 -2.6256
-17.0413 4.5389 -2.6001
-17.0496 3.8915 -2.5784
-17.0521 3.2529 -2.5594
-17.0591 2.6235 -2.5447
-17.0661 2.0005 -2.5334
-17.0730 1.3822 -2.5254
-17.0799 0.7671 -2.5207
-17.0885 0.1534 -2.5196
-17.0945 -0.4604 -2.5213
-17.1006 -1.0759 -2.5262
-17.1067 -1.6945 -2.5345
-17.1128 -2.3181 -2.5461
-17.1506 -2.9536 -2.5659
-17.1716 -3.5963 -2.5867
-17.1939 -4.2505 -2.6113
-17.2189 -4.9189 -2.6403
-17.2453 -5.6033 -2.6734
-17.2719 -6.3060 -2.7109
-17.3025 -7.0308 -2.7536
-17.3455 -7.7850 -2.8031
-17.4049 -8.5750 -2.8607
-17.4764 -9.4044 -2.9260
-17.5620 -10.2800 -3.0003
-17.6824 -11.2216 -3.0877
-17.8787 -12.2680 -3.1969
-18.2019 -13.4757 -3.3391
-18.6965 -14.9100 -3.5258
-19.3417 -16.5946 -3.7574
-20.3292 -18.7499 -4.0775
-19.3720 -19.1989 -4.0212
-4.0199 -13.6085 -2.0921
-4.1023 -37.9386 -5.6262
1.5580 -43.3751 -6.1497
3.1227 -43.4126 -6.1670
23.3234 -21.5114 -4.4956
26.3433 -22.6017 -4.9181
27.1376 -21.6415 -4.9181
27.8970 -20.6535 -4.9181
28.6204 -19.6388 -4.9181
29.3069 -18.5987 -4.9181
29.9557 -17.5347 -4.9181
30.5658 -16.4481 -4.9181
31.1365 -15.3403 -4.9181
31.0079 -13.9169 -4.8157
28.7840 -11.6963 -4.4022
27.8864 -10.1813 -4.2063
25.6516 -8.3347 -3.8216
24.0140 -6.8600 -3.5386
22.6005 -5.5871 -3.2987
21.3651 -4.4745 -3.0929
19.9743 -3.4399 -2.8718
19.2994 -2.6143 -2.7595
18.7227 -1.8546 -2.6658
19.2994 -1.2142 -2.7399
19.9099 -0.5363 -2.8220
20.5590 0.1845 -2.9131
21.2524 0.9545 -3.0143
21.9966 1.7808 -3.1269
22.7996 2.6726 -3.2526
23.6736 3.6407 -3.3937
24.4921 4.6721 -3.5328
25.6716 5.8594 -3.7309
26.8305 7.1462 -3.9341
28.1246 8.5832 -4.1664
28.1968 9.7247 -4.2261
28.2375 10.8879 -4.2881
28.2795 12.0872 -4.3576
28.3229 13.3277 -4.4352
28.3679 14.6149 -4.5215
36.5376 30.2266 -6.7189
34.0736 30.3128 -6.4618
31.7883 30.3928 -6.2315
29.6578 30.4673 -6.0245
28.6436 31.6212 -6.0453
28.7304 34.1013 -6.3180
29.0550 37.1123 -6.6782
8.6844 19.8240 -3.0666
-16.6077 41.9464 -6.3922
-16.6621 38.0348 -5.8836
-16.7046 34.6874 -5.4551
-16.7289 31.7676 -5.0871
-16.7517 29.2164 -4.7718
-16.7871 26.9847 -4.5029
-16.8132 24.9804 -4.2665
-16.8314 23.1665 -4.0573
-16.8437 21.5147 -3.8715
-16.8592 20.0108 -3.7075
-16.8734 18.6274 -3.5611
-16.8944 17.3556 -3.4318
-16.9070 16.1648 -3.3143
-16.9186 15.0512 -3.2085
-16.9319 14.0073 -3.1136
-16.9445 13.0221 -3.0280
-16.9525 12.0857 -2.9499
-16.9611 11.1959 -2.8796
-16.9693 10.3465 -2.8160
-16.9896 9.5397 -2.7608
-16.9978 8.7571 -2.7092
-17.0057 8.0023 -2.6630
-17.0133 7.2718 -2.6216
-17.0153 6.5608 -2.5839
-17.0242 5.8714 -2.5516
-17.0329 5.1982 -2.5233
-17.0413 4.5389 -2.4988
-17.0497 3.8915 -2.4779
-17.0521 3.2529 -2.4597
-17.0592 2.6235 -2.4455
-17.0661 2.0005 -2.4346
-17.0730 1.3822 -2.4270
-17.0799 0.7671 -2.4225
-17.0885 0.1534 -2.4214
-17.0945 -0.4604 -2.4230
-17.1006 -1.0759 -2.4278
-17.1067 -1.6946 -2.4357
-17.1128 -2.3181 -2.4468
-17.1506 -2.9536 -2.4658
-17.1716 -3.5963 -2.4858
-17.1939 -4.2505 -2.5095
-17.2189 -4.9188 -2.5373
-17.2453 -5.6033 -2.5692
-17.2719 -6.3060 -2.6052
-17.3025 -7.0308 -2.6462
-17.3455 -7.7850 -2.6939
-17.4049 -8.5750 -2.7491
-17.4764 -9.4044 -2.8120
-17.5620 -10.2800 -2.8833
-17.6824 -11.2216 -2.9673
-17.8787 -12.2680 -3.0723
-18.2019 -13.4757 -3.2089
-18.6965 -14.9100 -3.3883
-19.3417 -16.5946 -3.6109
-20.3292 -18.7499 -3.9185
-23.4929 -23.2830 -4.6865
-4.0196 -13.6072 -2.0104
-4.0748 -37.6838 -5.3705
1.5659 -43.5947 -5.9305
3.1386 -43.6330 -5.9473
23.3234 -21.5114 -4.3136
27.4553 -23.5558 -4.9181
28.2832 -22.5551 -4.9181
29.0746 -21.5253 -4.9181
29.8285 -20.4677 -4.9181
30.5440 -19.3838 -4.9181
31.2201 -18.2749 -4.9181
31.8560 -17.1424 -4.9181
32.4508 -15.9879 -4.9181
31.4902 -14.1334 -4.6925
28.7840 -11.6963 -4.2239
27.8864 -10.1813 -4.0360
25.6516 -8.3347 -3.6668
24.0140 -6.8600 -3.3953
22.6005 -5.5871 -3.1651
21.3651 -4.4745 -2.9676
19.9743 -3.4399 -2.7555
19.2994 -2.6143 -2.6477
18.7227 -1.8546 -2.5578
19.2994 -1.2142 -2.6290
19.9099 -0.5363 -2.7078
20.5590 0.1845 -2.7951
21.2524 0.9544 -2.8922
21.9966 1.7809 -3.0002
22.7996 2.6726 -3.1208
23.6736 3.6407 -3.2563
24.4921 4.6721 -3.3898
25.6716 5.8594 -3.5798
26.8305 7.1462 -3.7748
28.1245 8.5832 -3.9976
28.1968 9.7247 -4.0550
28.2375 10.8879 -4.1144
28.2795 12.0872 -4.1811
28.3229 13.3277 -4.2555
28.3679 14.6149 -4.3384
36.5376 30.2266 -6.4468
34.0736 30.3128 -6.2001
31.7883 30.3928 -5.9791
29.6578 30.4673 -5.7805
28.6436 31.6212 -5.8004
28.7304 34.1013 -6.0621
29.0550 37.1123 -6.4078
8.6843 19.8236 -2.9423
-16.5634 46.6627 -6.7316
-16.6079 41.9467 -6.1334
-16.6620 38.0345 -5.6452
-16.7043 34.6869 -5.2340
-16.7289 31.7676 -4.8811
-16.7518 29.2166 -4.5786
-16.7871 26.9846 -4.3205
-16.8132 24.9802 -4.0937
-16.8313 23.1663 -3.8930
-16.8438 21.5148 -3.7147
-16.8592 20.0108 -3.5573
-16.8734 18.6275 -3.4169
-16.8944 17.3556 -3.2928
-16.9070 16.1647 -3.1800
-16.9186 15.0512 -3.0786
-16.9319 14.0073 -2.9875
-16.9445 13.0221 -2.9053
-16.9525 12.0857 -2.8304
-16.9611 11.1959 -2.7629
-16.9693 10.3465 -2.7020
-16.9894 9.5396 -2.6489
-16.9976 8.7570 -2.5995
-17.0055 8.0022 -2.5551
-17.0132 7.2718 -2.5154
-17.0154 6.5608 -2.4793
-17.0242 5.8714 -2.4482
-17.0329 5.1982 -2.4211
-17.0414 4.5389 -2.3976
-17.0497 3.8915 -2.3775
-17.0522 3.2529 -2.3601
-17.0592 2.6235 -2.3465
-17.0662 2.0005 -2.3360
-17.0731 1.3822 -2.3287
-17.0799 0.7671 -2.3244
-17.0885 0.1534 -2.3233
-17.0945 -0.4604 -2.3249
-17.1006 -1.0759 -2.3294
-17.1067 -1.6946 -2.3370
-17.1128 -2.3181 -2.3477
-17.1506 -2.9536 -2.3660
-17.1716 -3.5963 -2.3851
-17.1939 -4.2505 -2.4079
-17.2189 -4.9189 -2.4346
-17.2453 -5.6033 -2.4652
-17.2719 -6.3060 -2.4997
-17.3025 -7.0308 -2.5391
-17.3455 -7.7850 -2.5847
-17.4049 -8.5750 -2.6378
-17.4764 -9.4044 -2.6981
-17.5620 -10.2800 -2.7665
-17.6824 -11.2216 -2.8472
-17.8787 -12.2680 -2.9478
-18.2019 -13.4757 -3.0789
-18.6965 -14.9100 -3.2511
-19.3417 -16.5946 -3.4647
-20.3292 -18.7499 -3.7598
-23.4930 -23.2831 -4.4967
-4.0192 -13.6060 -1.9288
-4.0476 -37.4327 -5.1187
1.5738 -43.8162 -5.7095
3.1546 -43.8553 -5.7256
23.3234 -21.5114 -4.1318
28.6634 -24.5923 -4.9181
29.5276 -23.5475 -4.9181
30.3539 -22.4724 -4.9181
31.1410 -21.3683 -4.9181
31.8880 -20.2367 -4.9181
32.5938 -19.0790 -4.9181
33.2577 -17.8967 -4.9181
33.8787 -16.6914 -4.9181
31.4902 -14.1334 -4.4948
28.7840 -11.6963 -4.0459
27.8864 -10.1813 -3.8659
25.6516 -8.3347 -3.5123
24.0140 -6.8600 -3.2522
22.6005 -5.5871 -3.0317
21.3651 -4.4745 -2.8425
19.9743 -3.4399 -2.6394
19.2994 -2.6143 -2.5361
18.7227 -1.8546 -2.4500
19.2994 -1.2142 -2.5182
19.9099 -0.5363 -2.5936
20.5590 0.1845 -2.6773
21.2524 0.9545 -2.7703
21.9966 1.7809 -2.8738
22.7996 2.6726 -2.9893
23.6736 3.6407 -3.1190
24.4921 4.6721 -3.2469
25.6716 5.8594 -3.4290
26.8305 7.1462 -3.6157
28.1246 8.5832 -3.8292
28.1968 9.7247 -3.8841
28.2375 10.8879 -3.9410
28.2795 12.0872 -4.0049
28.3229 13.3277 -4.0762
28.3679 14.6149 -4.1555
36.5376 30.2266 -6.1751
34.0736 30.3128 -5.9388
31.7883 30.3928 -5.7271
29.6578 30.4673 -5.5368
28.6436 31.6212 -5.5560
28.7304 34.1013 -5.8066
29.0550 37.1123 -6.1377
8.6841 19.8232 -2.8182
-16.5633 46.6625 -6.4479
-16.6080 41.9471 -5.8749
-16.6619 38.0342 -5.4073
-16.7041 34.6864 -5.0134
-16.7289 31.7675 -4.6753
-16.7520 29.2168 -4.3857
-16.7870 26.9845 -4.1384
-16.8131 24.9802 -3.9211
-16.8311 23.1660 -3.7288
-16.8438 21.5149 -3.5582
-16.8593 20.0109 -3.4074
-16.8735 18.6275 -3.2729
-16.8943 17.3555 -3.1540
-16.9069 16.1647 -3.0460
-16.9186 15.0513 -2.9488
-16.9320 14.0073 -2.8616
-16.9446 13.0222 -2.7829
-16.9525 12.0857 -2.7111
-16.9611 11.1959 -2.6465
-16.9693 10.3465 -2.5881
-16.9892 9.5395 -2.5373
-16.9974 8.7569 -2.4899
-17.0054 8.0021 -2.4474
-17.0130 7.2717 -2.4093
-17.0154 6.5608 -2.3748
-17.0243 5.8714 -2.3451
-17.0329 5.1982 -2.3190
-17.0414 4.5389 -2.2965
-17.0497 3.8915 -2.2773
-17.0522 3.2529 -2.2606
-17.0592 2.6235 -2.2476
-17.0662 2.0005 -2.2376
-17.0731 1.3823 -2.2305
-17.0800 0.7671 -2.2264
-17.0885 0.1534 -2.2254
-17.0946 -0.4604 -2.2269
-17.1006 -1.0759 -2.2313
-17.1067 -1.6946 -2.2385
-17.1128 -2.3181 -2.2488
-17.1506 -2.9536 -2.2662
-17.1716 -3.5963 -2.2846
-17.1939 -4.2505 -2.3064
-17.2189 -4.9188 -2.3319
-17.2453 -5.6033 -2.3613
-17.2719 -6.3060 -2.3944
-17.3025 -7.0308 -2.4321
-17.3455 -7.7850 -2.4758
-17.4049 -8.5750 -2.5266
-17.4764 -9.4044 -2.5844
-17.5620 -10.2800 -2.6499
-17.6824 -11.2216 -2.7272
-17.8787 -12.2680 -2.8236
-18.2019 -13.4757 -2.9492
-18.6965 -14.9100 -3.1141
-19.3417 -16.5946 -3.3187
-20.2028 -18.6332 -3.5789
-23.4930 -23.2831 -4.3072
-4.0188 -13.6047 -1.8473
-4.0209 -37.1854 -4.8705
1.5819 -44.0396 -5.4864
3.1707 -44.0796 -5.5021
23.3234 -21.5114 -3.9502
29.9806 -25.7224 -4.9181
30.8846 -24.6297 -4.9181
31.7488 -23.5051 -4.9181
32.5721 -22.3503 -4.9181
33.3534 -21.1667 -4.9181
32.9995 -19.3164 -4.7605
33.7968 -18.1868 -4.7782
34.3891 -16.9428 -4.7728
31.4902 -14.1334 -4.2973
28.7840 -11.6963 -3.8682
27.8864 -10.1813 -3.6960
25.6516 -8.3347 -3.3580
24.0140 -6.8600 -3.1093
22.6005 -5.5871 -2.8985
21.3651 -4.4745 -2.7176
19.9743 -3.4399 -2.5234
19.2994 -2.6143 -2.4247
18.7227 -1.8546 -2.3424
19.2994 -1.2142 -2.4075
19.9099 -0.5363 -2.4797
20.5590 0.1845 -2.5597
21.2524 0.9545 -2.6486
21.9966 1.7808 -2.7475
22.7996 2.6726 -2.8580
23.6736 3.6407 -2.9820
24.4921 4.6721 -3.1042
25.6716 5.8594 -3.2783
26.8305 7.1462 -3.4568
28.1246 8.5832 -3.6609
28.1968 9.7247 -3.7134
28.2375 10.8879 -3.7678
28.2795 12.0872 -3.8289
28.3229 13.3277 -3.8971
28.3679 14.6149 -3.9729
36.5376 30.2266 -5.9037
34.0736 30.3128 -5.6779
31.7883 30.3928 -5.4754
29.7157 30.5268 -5.3039
28.7088 31.6931 -5.3239
28.7304 34.1013 -5.5515
29.0550 37.1123 -5.8680
29.1608 40.1363 -6.1766
8.6839 19.8227 -2.6943
-16.5632 46.6622 -6.1646
-16.6081 41.9474 -5.6169
-16.6617 38.0339 -5.1696
-14.9720 31.0898 -4.2961
-16.7288 31.7674 -4.4699
-16.7521 29.2170 -4.1930
-16.7869 26.9843 -3.9566
-16.8130 24.9801 -3.7488
-16.8309 23.1658 -3.5650
-16.8439 21.5149 -3.4018
-16.8593 20.0110 -3.2577
-16.8735 18.6276 -3.1292
-16.8943 17.3554 -3.0154
-16.9069 16.1646 -2.9122
-16.9187 15.0513 -2.8193
-16.9320 14.0074 -2.7359
-16.9446 13.0222 -2.6606
-16.9525 12.0857 -2.5920
-16.9611 11.1959 -2.5302
-16.9693 10.3465 -2.4744
-16.9891 9.5394 -2.4258
-16.9973 8.7568 -2.3805
-17.0052 8.0020 -2.3398
-17.0129 7.2716 -2.3035
-17.0154 6.5608 -2.2704
-17.0243 5.8714 -2.2420
-17.0329 5.1982 -2.2171
-17.0414 4.5389 -2.1956
-17.0497 3.8915 -2.1773
-17.0522 3.2529 -2.1613
-17.0593 2.6235 -2.1488
-17.0662 2.0005 -2.1393
-17.0732 1.3823 -2.1326
-17.0800 0.7671 -2.1286
-17.0885 0.1534 -2.1276
-17.0946 -0.4604 -2.1290
-17.1006 -1.0759 -2.1332
-17.1067 -1.6946 -2.1402
-17.1128 -2.3181 -2.1500
-17.1506 -2.9536 -2.1667
-17.1716 -3.5963 -2.1842
-17.1939 -4.2505 -2.2051
-17.2189 -4.9188 -2.2295
-17.2453 -5.6033 -2.2575
-17.2719 -6.3060 -2.2892
-17.3025 -7.0308 -2.3252
-17.3455 -7.7850 -2.3670
-17.4049 -8.5750 -2.4156
-17.4764 -9.4044 -2.4708
-17.5620 -10.2800 -2.5335
-17.6824 -11.2216 -2.6073
-17.8787 -12.2680 -2.6995
-18.2019 -13.4757 -2.8196
-18.6965 -14.9100 -2.9772
-19.3417 -16.5946 -3.1729
-20.3292 -18.7499 -3.4431
-23.4929 -23.2830 -4.1179
-4.0185 -13.6035 -1.7660
-3.9945 -36.9417 -4.6260
1.5900 -44.2650 -5.2615
3.1870 -44.3058 -5.2765
23.3234 -21.5114 -3.7689
31.4226 -26.9596 -4.9181
32.3701 -25.8143 -4.9181
33.2759 -24.6357 -4.9181
34.1387 -23.4253 -4.9181
33.4134 -21.2048 -4.7008
32.9995 -19.3165 -4.5421
33.9449 -18.2665 -4.5789
34.8170 -17.1537 -4.6105
31.4902 -14.1334 -4.1001
28.7840 -11.6963 -3.6906
27.8864 -10.1813 -3.5264
25.6516 -8.3347 -3.2039
24.0140 -6.8600 -2.9666
22.6005 -5.5871 -2.7654
21.3651 -4.4745 -2.5929
19.9743 -3.4399 -2.4076
19.2994 -2.6143 -2.3134
18.7227 -1.8546 -2.2349
19.2994 -1.2142 -2.2970
19.9099 -0.5363 -2.3659
20.5590 0.1845 -2.4422
21.2524 0.9544 -2.5270
21.9966 1.7808 -2.6214
22.7996 2.6726 -2.7268
23.6736 3.6407 -2.8452
24.4921 4.6721 -2.9618
25.6716 5.8594 -3.1279
26.8305 7.1462 -3.2982
28.1246 8.5832 -3.4929
28.1968 9.7247 -3.5430
28.2375 10.8879 -3.5949
28.2795 12.0872 -3.6532
28.3229 13.3277 -3.7182
28.3679 14.6149 -3.7906
36.5376 30.2266 -5.6328
34.0736 30.3128 -5.4173
31.8515 30.4532 -5.2346
29.7157 30.5268 -5.0605
28.7088 31.6932 -5.0796
28.7944 34.1772 -5.3086
29.0550 37.1123 -5.5987
29.1608 40.1364 -5.8931
8.6837 19.8223 -2.5706
-16.5632 46.6620 -5.8816
-16.6082 41.9477 -5.3591
-16.6616 38.0336 -4.9324
-16.7035 34.6853 -4.5730
-16.7288 31.7674 -4.2648
-16.7522 29.2172 -4.0006
-16.7869 26.9842 -3.7750
-16.8130 24.9800 -3.5768
-16.8308 23.1656 -3.4013
-16.8439 21.5150 -3.2457
-16.8594 20.0110 -3.1082
-16.8736 18.6276 -2.9856
-16.8942 17.3554 -2.8770
-16.9068 16.1646 -2.7785
-16.9187 15.0514 -2.6899
-16.9321 14.0074 -2.6103
-16.9446 13.0222 -2.5385
-16.9525 12.0857 -2.4731
-16.9611 11.1959 -2.4141
-16.9693 10.3465 -2.3608
-16.9889 9.5393 -2.3144
-16.9971 8.7568 -2.2712
-17.0051 8.0020 -2.2324
-17.0127 7.2716 -2.1977
-17.0154 6.5608 -2.1662
-17.0243 5.8715 -2.1391
-17.0330 5.1982 -2.1154
-17.0414 4.5389 -2.0949
-17.0498 3.8915 -2.0774
-17.0523 3.2529 -2.0621
-17.0593 2.6235 -2.0502
-17.0663 2.0005 -2.0411
-17.0732 1.3823 -2.0347
-17.0801 0.7671 -2.0309
-17.0885 0.1534 -2.0300
-17.0946 -0.4604 -2.0313
-17.1006 -1.0759 -2.0353
-17.1067 -1.6946 -2.0420
-17.1128 -2.3181 -2.0513
-17.1506 -2.9536 -2.0672
-17.1716 -3.5963 -2.0840
-17.1939 -4.2505 -2.1039
-17.2189 -4.9189 -2.1272
-17.2453 -5.6033 -2.1539
-17.2719 -6.3060 -2.1841
-17.3025 -7.0308 -2.2185
-17.3455 -7.7850 -2.2584
-17.4049 -8.5750 -2.3048
-17.4764 -9.4044 -2.3574
-17.5620 -10.2800 -2.4172
-17.6824 -11.2216 -2.4877
-17.8787 -12.2680 -2.5756
-18.2019 -13.4757 -2.6902
-18.6965 -14.9100 -2.8406
-19.3417 -16.5946 -3.0273
-20.3292 -18.7499 -3.2851
-23.4929 -23.2830 -3.9290
-4.0181 -13.6022 -1.6848
-3.9685 -36.7014 -4.3850
1.5981 -44.4924 -5.0345
3.2034 -44.5341 -5.0489
23.3234 -21.5114 -3.5879
34.9548 -25.8788 -4.9181
35.8613 -24.6073 -4.9181
33.4134 -21.2048 -4.4750
32.9995 -19.3164 -4.3239
33.9450 -18.2665 -4.3590
34.8170 -17.1537 -4.3890
31.4902 -14.1334 -3.9031
28.7840 -11.6963 -3.5134
27.8864 -10.1813 -3.3570
25.6516 -8.3347 -3.0500
24.0140 -6.8600 -2.8241
22.6005 -5.5871 -2.6326
21.3651 -4.4745 -2.4684
19.9743 -3.4399 -2.2919
19.2994 -2.6143 -2.2023
18.7227 -1.8546 -2.1275
19.2994 -1.2142 -2.1867
19.9099 -0.5363 -2.2522
20.5590 0.1845 -2.3249
21.2524 0.9544 -2.4056
21.9966 1.7808 -2.4955
22.7996 2.6726 -2.5958
23.6736 3.6407 -2.7085
24.4921 4.6721 -2.8195
25.6716 5.8594 -2.9776
26.8305 7.1462 -3.1398
28.1245 8.5832 -3.3251
28.1968 9.7247 -3.3728
28.2375 10.8879 -3.4222
28.2795 12.0872 -3.4777
28.3229 13.3277 -3.5396
28.3679 14.6149 -3.6085
34.1426 30.3742 -5.1675
31.8515 30.4532 -4.9831
29.7157 30.5268 -4.8174
28.7088 31.6931 -4.8356
28.7944 34.1772 -5.0536
29.1046 37.1755 -5.3389
29.1608 40.1363 -5.6100
8.6835 19.8219 -2.4471
-16.5631 46.6618 -5.5991
-16.6084 41.9480 -5.1017
-16.6615 38.0332 -4.6954
-16.7033 34.6848 -4.3533
-16.7287 31.7673 -4.0599
-16.7523 29.2175 -3.8085
-16.7868 26.9841 -3.5936
-16.8129 24.9799 -3.4050
-16.8306 23.1653 -3.2379
-16.8440 21.5151 -3.0898
-16.8594 20.0111 -2.9589
-16.8736 18.6277 -2.8421
-16.8942 17.3553 -2.7388
-16.9068 16.1645 -2.6450
-16.9188 15.0514 -2.5607
-16.9321 14.0075 -2.4849
-16.9447 13.0223 -2.4166
-16.9525 12.0857 -2.3543
-16.9611 11.1959 -2.2981
-16.9693 10.3465 -2.2474
-16.9888 9.5392 -2.2032
-16.9970 8.7567 -2.1621
-17.0049 8.0019 -2.1252
-17.0126 7.2715 -2.0921
-17.0155 6.5609 -2.0622
-17.0243 5.8715 -2.0364
-17.0330 5.1982 -2.0138
-17.0415 4.5389 -1.9942
-17.0498 3.8915 -1.9776
-17.0523 3.2529 -1.9631
-17.0594 2.6235 -1.9518
-17.0663 2.0005 -1.9431
-17.0732 1.3823 -1.9370
-17.0801 0.7671 -1.9334
-17.0885 0.1534 -1.9325
-17.0946 -0.4604 -1.9338
-17.1006 -1.0759 -1.9376
-17.1067 -1.6946 -1.9439
-17.1128 -2.3181 -1.9528
-17.1506 -2.9536 -1.9679
-17.1716 -3.5963 -1.9839
-17.1939 -4.2505 -2.0028
-17.2189 -4.9189 -2.0250
-17.2453 -5.6033 -2.0505
-17.2719 -6.3060 -2.0792
-17.3025 -7.0308 -2.1119
-17.3455 -7.7850 -2.1499
-17.4049 -8.5750 -2.1941
-17.4764 -9.4044 -2.2442
-17.5620 -10.2800 -2.3011
-17.6824 -11.2216 -2.3682
-17.8787 -12.2680 -2.4519
-18.2019 -13.4757 -2.5610
-18.6965 -14.9100 -2.7042
-19.3417 -16.5946 -2.8818
-20.3292 -18.7499 -3.1273
-23.4930 -23.2830 -3.7402
-4.0177 -13.6010 -1.6037
-3.9429 -36.4646 -4.1475
1.6064 -44.7219 -4.8054
3.2200 -44.7645 -4.8193
23.3234 -21.5114 -3.4071
33.4134 -21.2048 -4.2495
32.9995 -19.3165 -4.1060
33.9449 -18.2665 -4.1393
34.8170 -17.1537 -4.1678
31.4902 -14.1334 -3.7064
28.7840 -11.6963 -3.3363
27.8864 -10.1813 -3.1878
25.6516 -8.3347 -2.8963
24.0140 -6.8600 -2.6818
22.6005 -5.5871 -2.4999
21.3651 -4.4745 -2.3440
19.9743 -3.4399 -2.1765
19.2994 -2.6143 -2.0913
18.7227 -1.8546 -2.0203
19.2994 -1.2142 -2.0765
19.9099 -0.5363 -2.1387
20.5590 0.1845 -2.2078
21.2524 0.9544 -2.2844
21.9966 1.7808 -2.3698
22.7996 2.6726 -2.4650
23.6736 3.6407 -2.5720
24.4921 4.6721 -2.6774
25.6716 5.8594 -2.8276
26.8305 7.1462 -2.9815
28.1246 8.5832 -3.1576
28.1968 9.7247 -3.2028
28.2375 10.8879 -3.2498
28.2795 12.0872 -3.3025
28.3229 13.3277 -3.3613
28.3679 14.6149 -3.4267
34.1426 30.3742 -4.9071
31.8515 30.4532 -4.7320
29.7157 30.5268 -4.5747
28.7088 31.6931 -4.5919
28.7944 34.1772 -4.7989
29.1162 37.1905 -5.0719
8.6833 19.8214 -2.3237
-16.5630 46.6616 -5.3169
-16.6085 41.9484 -4.8447
-16.6613 38.0329 -4.4587
-16.7030 34.6843 -4.1338
-16.7287 31.7672 -3.8553
-16.7524 29.2177 -3.6166
-16.7867 26.9840 -3.4125
-16.8128 24.9798 -3.2334
-16.8304 23.1651 -3.0747
-16.8440 21.5151 -2.9341
-16.8595 20.0111 -2.8098
-16.8737 18.6277 -2.6989
-16.8941 17.3553 -2.6008
-16.9067 16.1645 -2.5117
-16.9188 15.0514 -2.4317
-16.9321 14.0075 -2.3597
-16.9447 13.0223 -2.2948
-16.9525 12.0857 -2.2356
-16.9611 11.1959 -2.1823
-16.9693 10.3465 -2.1342
-16.9886 9.5391 -2.0922
-16.9968 8.7566 -2.0531
-17.0048 8.0018 -2.0181
-17.0124 7.2715 -1.9867
-17.0155 6.5609 -1.9583
-17.0244 5.8715 -1.9338
-17.0330 5.1983 -1.9123
-17.0415 4.5390 -1.8937
-17.0498 3.8915 -1.8779
-17.0524 3.2529 -1.8641
-17.0594 2.6235 -1.8534
-17.0664 2.0005 -1.8452
-17.0733 1.3823 -1.8394
-17.0801 0.7671 -1.8359
-17.0885 0.1534 -1.8351
-17.0946 -0.4604 -1.8363
-17.1006 -1.0759 -1.8399
-17.1067 -1.6946 -1.8459
-17.1128 -2.3181 -1.8544
-17.1506 -2.9536 -1.8688
-17.1716 -3.5963 -1.8839
-17.1939 -4.2505 -1.9019
-17.2189 -4.9188 -1.9230
-17.2453 -5.6033 -1.9471
-17.2719 -6.3060 -1.9744
-17.3025 -7.0308 -2.0055
-17.3455 -7.7850 -2.0416
-17.4049 -8.5750 -2.0835
-17.4764 -9.4044 -2.1311
-17.5620 -10.2800 -2.1852
-17.6824 -11.2216 -2.2489
-17.8787 -12.2680 -2.3284
-18.2019 -13.4757 -2.4319
-18.6965 -14.9100 -2.5679
-19.3417 -16.5946 -2.7366
-20.3292 -18.7499 -2.9697
-23.4929 -23.2830 -3.5518
-4.0174 -13.5998 -1.5228
-3.9177 -36.2311 -3.9132
1.6147 -44.9535 -4.5743
3.2367 -44.9969 -4.5876
23.3234 -21.5114 -3.2265
33.4133 -21.2047 -4.0243
32.9995 -19.3164 -3.8884
33.9449 -18.2665 -3.9199
34.8170 -17.1537 -3.9469
31.4902 -14.1334 -3.5100
28.7840 -11.6963 -3.1595
27.8864 -10.1813 -3.0189
25.6516 -8.3347 -2.7428
24.0140 -6.8600 -2.5397
22.6005 -5.5871 -2.3674
21.3651 -4.4745 -2.2198
19.9743 -3.4399 -2.0611
19.2994 -2.6143 -1.9805
18.7227 -1.8546 -1.9132
19.2994 -1.2142 -1.9664
19.9099 -0.5363 -2.0254
20.5590 0.1845 -2.0907
21.2524 0.9545 -2.1633
21.9966 1.7808 -2.2442
22.7996 2.6726 -2.3344
23.6736 3.6407 -2.4357
24.4921 4.6721 -2.5355
25.6716 5.8594 -2.6777
26.8305 7.1462 -2.8235
28.1245 8.5832 -2.9902
28.1968 9.7247 -3.0331
28.2375 10.8879 -3.0775
28.2795 12.0872 -3.1274
28.3229 13.3277 -3.1831
28.3679 14.6149 -3.2451
34.1426 30.3742 -4.6470
31.8515 30.4532 -4.4812
29.7157 30.5268 -4.3322
28.7088 31.6931 -4.3485
28.7944 34.1772 -4.5445
29.1162 37.1905 -4.8030
29.2259 40.2259 -5.0562
8.6831 19.8210 -2.2005
-16.5629 46.6614 -5.0351
-16.6086 41.9487 -4.5879
-16.6612 38.0326 -4.2224
-16.7028 34.6838 -3.9147
-16.7287 31.7672 -3.6509
-16.7526 29.2179 -3.4249
-16.7867 26.9839 -3.2316
-16.8128 24.9797 -3.0620
-16.8302 23.1649 -2.9117
-16.8441 21.5152 -2.7786
-16.8595 20.0112 -2.6609
-16.8737 18.6278 -2.5559
-16.8941 17.3552 -2.4629
-16.9067 16.1644 -2.3786
-16.9189 15.0515 -2.3028
-16.9322 14.0075 -2.2347
-16.9448 13.0223 -2.1732
-16.9525 12.0857 -2.1171
-16.9611 11.1959 -2.0667
-16.9693 10.3465 -2.0211
-16.9884 9.5390 -1.9813
-16.9967 8.7565 -1.9443
-17.0046 8.0017 -1.9111
-17.0123 7.2714 -1.8814
-17.0155 6.5609 -1.8545
-17.0244 5.8715 -1.8313
-17.0330 5.1983 -1.8110
-17.0415 4.5390 -1.7934
-17.0498 3.8915 -1.7784
-17.0524 3.2529 -1.7653
-17.0594 2.6235 -1.7552
-17.0664 2.0005 -1.7474
-17.0733 1.3823 -1.7419
-17.0802 0.7671 -1.7386
-17.0885 0.1534 -1.7378
-17.0946 -0.4604 -1.7390
-17.1006 -1.0759 -1.7424
-17.1067 -1.6946 -1.7481
-17.1128 -2.3181 -1.7561
-17.1506 -2.9536 -1.7697
-17.1716 -3.5963 -1.7841
-17.1939 -4.2505 -1.8011
-17.2189 -4.9188 -1.8210
-17.2453 -5.6033 -1.8439
-17.2719 -6.3060 -1.8698
-17.3025 -7.0308 -1.8992
-17.3455 -7.7850 -1.9334
-17.4049 -8.5750 -1.9731
-17.4764 -9.4044 -2.0182
-17.5620 -10.2800 -2.0693
-17.6824 -11.2216 -2.1297
-17.8787 -12.2680 -2.2049
-18.2019 -13.4757 -2.3030
-18.6965 -14.9100 -2.4318
-19.3417 -16.5946 -2.5916
-20.3292 -18.7499 -2.8123
-23.4930 -23.2831 -3.3635
-4.0170 -13.5985 -1.4419
-3.9219 -36.2703 -3.7098
1.6231 -45.1872 -4.3410
3.2536 -45.2315 -4.3537
23.3234 -21.5114 -3.0461
33.4134 -21.2048 -3.7993
32.9995 -19.3165 -3.6710
33.9449 -18.2665 -3.7008
34.8170 -17.1537 -3.7263
31.4902 -14.1334 -3.3138
28.7840 -11.6963 -2.9828
27.8864 -10.1813 -2.8501
25.6516 -8.3347 -2.5894
24.0140 -6.8600 -2.3977
22.6005 -5.5871 -2.2351
21.3651 -4.4745 -2.0957
19.9743 -3.4399 -1.9459
19.2994 -2.6143 -1.8698
18.7227 -1.8546 -1.8063
19.2994 -1.2142 -1.8565
19.9099 -0.5363 -1.9121
20.5590 0.1845 -1.9739
21.2524 0.9545 -2.0424
21.9966 1.7809 -2.1187
22.7996 2.6726 -2.2039
23.6736 3.6407 -2.2995
24.4921 4.6721 -2.3938
25.6716 5.8594 -2.5280
26.8305 7.1462 -2.6657
28.1246 8.5832 -2.8230
28.1968 9.7247 -2.8635
28.2375 10.8879 -2.9055
28.2795 12.0872 -2.9526
28.3229 13.3277 -3.0051
28.3679 14.6149 -3.0636
34.1426 30.3742 -4.3872
31.7883 30.3928 -4.2223
29.6578 30.4673 -4.0820
28.6436 31.6212 -4.0961
28.7944 34.1772 -4.2905
29.1162 37.1905 -4.5345
29.2259 40.2260 -4.7736
8.6829 19.8206 -2.0775
-16.5629 46.6612 -4.7536
-16.6088 41.9490 -4.3315
-16.6611 38.0323 -3.9863
-16.7025 34.6832 -3.6958
-16.7286 31.7671 -3.4468
-16.7527 29.2181 -3.2335
-16.7866 26.9838 -3.0510
-16.8127 24.9796 -2.8908
-16.8301 23.1646 -2.7489
-16.8441 21.5153 -2.6233
-16.8596 20.0112 -2.5121
-16.8738 18.6279 -2.4130
-16.8940 17.3552 -2.3252
-16.9066 16.1644 -2.2456
-16.9189 15.0515 -2.1740
-16.9322 14.0076 -2.1097
-16.9448 13.0224 -2.0517
-16.9525 12.0857 -1.9988
-16.9611 11.1959 -1.9511
-16.9693 10.3465 -1.9081
-16.9883 9.5389 -1.8705
-16.9965 8.7564 -1.8356
-17.0044 8.0017 -1.8042
-17.0121 7.2713 -1.7762
-17.0155 6.5609 -1.7508
-17.0244 5.8715 -1.7289
-17.0331 5.1983 -1.7097
-17.0415 4.5390 -1.6931
-17.0499 3.8915 -1.6790
-17.0524 3.2529 -1.6666
-17.0595 2.6235 -1.6571
-17.0664 2.0005 -1.6497
-17.0734 1.3823 -1.6445
-17.0802 0.7671 -1.6414
-17.0885 0.1534 -1.6407
-17.0946 -0.4604 -1.6418
-17.1006 -1.0759 -1.6450
-17.1067 -1.6946 -1.6504
-17.1128 -2.3181 -1.6579
-17.1506 -2.9536 -1.6708
-17.1716 -3.5963 -1.6843
-17.1939 -4.2505 -1.7004
-17.2189 -4.9189 -1.7192
-17.2453 -5.6033 -1.7408
-17.2719 -6.3060 -1.7652
-17.3025 -7.0308 -1.7930
-17.3455 -7.7850 -1.8253
-17.4049 -8.5750 -1.8627
-17.4764 -9.4044 -1.9053
-17.5620 -10.2800 -1.9537
-17.6824 -11.2216 -2.0106
-17.8787 -12.2680 -2.0817
-18.2019 -13.4757 -2.1743
-18.6965 -14.9100 -2.2958
-19.3417 -16.5946 -2.4467
-20.3292 -18.7499 -2.6551
-23.4930 -23.2831 -3.1755
-4.0166 -13.5973 -1.3612
-3.9423 -36.4589 -3.5206
1.6316 -45.4231 -4.1055
3.2706 -45.4684 -4.1176
23.3234 -21.5114 -2.8659
33.4134 -21.2048 -3.5746
32.9995 -19.3165 -3.4538
33.9449 -18.2665 -3.4819
34.8170 -17.1537 -3.5058
31.4902 -14.1334 -3.1177
28.7840 -11.6963 -2.8064
27.8864 -10.1813 -2.6815
25.6516 -8.3347 -2.4362
24.0140 -6.8600 -2.2559
22.6005 -5.5871 -2.1029
21.3651 -4.4745 -1.9717
19.9743 -3.4399 -1.8308
19.2994 -2.6143 -1.7592
18.7227 -1.8546 -1.6994
19.2994 -1.2142 -1.7467
19.9099 -0.5363 -1.7990
20.5590 0.1845 -1.8571
21.2524 0.9544 -1.9216
21.9966 1.7809 -1.9934
22.7996 2.6726 -2.0735
23.6736 3.6407 -2.1635
24.4921 4.6721 -2.2522
25.6716 5.8594 -2.3785
26.8305 7.1462 -2.5080
28.1246 8.5832 -2.6560
28.1968 9.7247 -2.6941
28.2375 10.8879 -2.7336
28.2795 12.0872 -2.7779
28.3229 13.3277 -2.8274
28.3679 14.6149 -2.8824
34.0736 30.3128 -4.1194
31.7883 30.3928 -3.9725
29.6578 30.4673 -3.8405
28.6436 31.6212 -3.8538
28.7304 34.1013 -4.0277
29.0550 37.1123 -4.2573
29.2259 40.2260 -4.4912
8.6828 19.8202 -1.9545
-16.5628 46.6610 -4.4723
-16.6089 41.9493 -4.0753
-16.6609 38.0320 -3.7505
-16.7023 34.6828 -3.4771
-16.7286 31.7670 -3.2429
-16.7528 29.2183 -3.0422
-16.7865 26.9837 -2.8705
-16.8126 24.9794 -2.7198
-16.8299 23.1644 -2.5863
-16.8442 21.5153 -2.4681
-16.8596 20.0113 -2.3635
-16.8738 18.6279 -2.2702
-16.8940 17.3551 -2.1877
-16.9066 16.1643 -2.1128
-16.9189 15.0515 -2.0454
-16.9323 14.0076 -1.9849
-16.9448 13.0224 -1.9303
-16.9525 12.0857 -1.8805
-16.9611 11.1959 -1.8357
-16.9693 10.3465 -1.7952
-16.9881 9.5388 -1.7598
-16.9963 8.7564 -1.7270
-17.0043 8.0016 -1.6975
-17.0120 7.2713 -1.6711
-17.0156 6.5609 -1.6472
-17.0244 5.8715 -1.6266
-17.0331 5.1983 -1.6086
-17.0416 4.5390 -1.5930
-17.0499 3.8915 -1.5797
-17.0525 3.2529 -1.5681
-17.0595 2.6235 -1.5590
-17.0665 2.0005 -1.5521
-17.0734 1.3823 -1.5472
-17.0803 0.7671 -1.5443
-17.0886 0.1534 -1.5436
-17.0946 -0.4604 -1.5446
-17.1006 -1.0759 -1.5477
-17.1067 -1.6946 -1.5527
-17.1128 -2.3181 -1.5598
-17.1506 -2.9536 -1.5719
-17.1716 -3.5963 -1.5847
-17.1939 -4.2505 -1.5998
-17.2189 -4.9189 -1.6175
-17.2453 -5.6033 -1.6379
-17.2719 -6.3060 -1.6608
-17.3025 -7.0308 -1.6870
-17.3455 -7.7850 -1.7173
-17.4049 -8.5750 -1.7526
-17.4764 -9.4044 -1.7926
-17.5620 -10.2800 -1.8381
-17.6824 -11.2216 -1.8917
-17.8787 -12.2680 -1.9585
-18.2019 -13.4757 -2.0456
-18.6965 -14.9100 -2.1600
-19.3417 -16.5946 -2.3020
-20.3292 -18.7499 -2.4980
-23.4930 -23.2831 -2.9876
-4.0163 -13.5961 -1.2805
-3.9629 -36.6493 -3.3297
1.6376 -45.5924 -3.8620
23.3234 -21.5114 -2.6859
33.4134 -21.2048 -3.3500
32.9995 -19.3165 -3.2369
33.9449 -18.2665 -3.2632
34.8170 -17.1537 -3.2857
31.4902 -14.1334 -2.9219
28.7840 -11.6963 -2.6301
27.8864 -10.1813 -2.5131
25.6516 -8.3347 -2.2832
24.0140 -6.8600 -2.1142
22.6005 -5.5871 -1.9708
21.3651 -4.4745 -1.8479
19.9743 -3.4399 -1.7158
19.0146 -2.5757 -1.6243
18.5674 -1.8393 -1.5795
19.1394 -1.2041 -1.6234
19.7448 -0.5318 -1.6721
20.5590 0.1845 -1.7405
21.2524 0.9544 -1.8009
21.9966 1.7808 -1.8682
22.7996 2.6726 -1.9433
23.6736 3.6407 -2.0276
24.4921 4.6721 -2.1107
25.6716 5.8594 -2.2291
26.8305 7.1462 -2.3505
28.1246 8.5832 -2.4892
28.1968 9.7247 -2.5249
28.2375 10.8879 -2.5619
28.2795 12.0872 -2.6034
28.3229 13.3277 -2.6498
28.3679 14.6149 -2.7014
36.5376 30.2266 -4.0142
34.0736 30.3128 -3.8606
31.7883 30.3928 -3.7230
29.6578 30.4673 -3.5993
28.6436 31.6212 -3.6118
28.7304 34.1013 -3.7747
29.0550 37.1123 -3.9899
29.1608 40.1364 -4.1997
8.6826 19.8197 -1.8317
-16.5627 46.6608 -4.1914
-16.3110 41.1969 -3.7508
-16.6608 38.0317 -3.5149
-16.7020 34.6822 -3.2587
-16.7286 31.7670 -3.0392
-16.7529 29.2185 -2.8512
-16.7864 26.9836 -2.6902
-16.8126 24.9794 -2.5489
-16.8297 23.1642 -2.4238
-16.8442 21.5154 -2.3131
-16.8597 20.0114 -2.2151
-16.8739 18.6280 -2.1277
-16.8939 17.3551 -2.0503
-16.9065 16.1643 -1.9801
-16.9190 15.0516 -1.9170
-16.9323 14.0076 -1.8603
-16.9449 13.0224 -1.8091
-16.9525 12.0857 -1.7624
-16.9611 11.1959 -1.7204
-16.9693 10.3465 -1.6825
-16.9880 9.5388 -1.6493
-16.9962 8.7563 -1.6185
-17.0041 8.0015 -1.5909
-17.0118 7.2712 -1.5661
-17.0156 6.5609 -1.5438
-17.0245 5.8715 -1.5245
-17.0331 5.1983 -1.5076
-17.0416 4.5390 -1.4929
-17.0499 3.8915 -1.4804
-17.0525 3.2529 -1.4696
-17.0596 2.6235 -1.4611
-17.0665 2.0005 -1.4546
-17.0734 1.3823 -1.4500
-17.0803 0.7671 -1.4474
-17.0886 0.1534 -1.4467
-17.0946 -0.4604 -1.4476
-17.1006 -1.0759 -1.4505
-17.1067 -1.6946 -1.4552
-17.1128 -2.3181 -1.4619
-17.1506 -2.9536 -1.4732
-17.1716 -3.5963 -1.4852
-17.1939 -4.2505 -1.4993
-17.2189 -4.9188 -1.5159
-17.2453 -5.6033 -1.5350
-17.2719 -6.3060 -1.5565
-17.3025 -7.0308 -1.5810
-17.3455 -7.7850 -1.6095
-17.4049 -8.5750 -1.6425
-17.4764 -9.4044 -1.6800
-17.5620 -10.2800 -1.7226
-17.6824 -11.2216 -1.7729
-17.8787 -12.2680 -1.8355
-18.2019 -13.4757 -1.9172
-18.6965 -14.9100 -2.0244
-19.3417 -16.5946 -2.1574
-20.3292 -18.7499 -2.3411
-23.4930 -23.2831 -2.8000
-4.0159 -13.5948 -1.2000
-3.9837 -36.8414 -3.1369
1.6275 -45.3110 -3.5812
3.2652 -45.3939 -3.5947
23.3234 -21.5114 -2.5061
33.4134 -21.2048 -3.1257
32.9995 -19.3164 -3.0202
33.9449 -18.2665 -3.0447
34.8170 -17.1537 -3.0657
31.4902 -14.1334 -2.7263
28.7840 -11.6963 -2.4540
27.8864 -10.1813 -2.3448
25.6516 -8.3347 -2.1304
24.0140 -6.8600 -1.9726
22.6005 -5.5871 -1.8388
21.3651 -4.4745 -1.7241
19.9743 -3.4399 -1.6009
19.0146 -2.5757 -1.5156
18.5674 -1.8393 -1.4737
19.1394 -1.2041 -1.5147
8.5786 -0.2311 -0.6778
20.3886 0.1830 -1.6105
21.0761 0.9465 -1.6664
21.9966 1.7809 -1.7431
22.7996 2.6726 -1.8132
23.6736 3.6407 -1.8918
24.4921 4.6721 -1.9694
25.6716 5.8594 -2.0798
26.8305 7.1462 -2.1931
28.1245 8.5832 -2.3226
28.1968 9.7247 -2.3559
28.2375 10.8879 -2.3904
28.2795 12.0872 -2.4291
28.3229 13.3277 -2.4724
28.3679 14.6149 -2.5205
36.5376 30.2266 -3.7454
34.0736 30.3128 -3.6022
31.7883 30.3928 -3.4737
29.6578 30.4673 -3.3583
28.6436 31.6212 -3.3699
28.7304 34.1013 -3.5220
29.0550 37.1123 -3.7228
29.1608 40.1364 -3.9185
8.6824 19.8193 -1.7091
-16.5626 46.6605 -3.9108
-16.6091 41.9500 -3.5637
-16.6606 38.0314 -3.2795
-16.7018 34.6817 -3.0404
-16.7285 31.7669 -2.8357
-16.7530 29.2187 -2.6603
-16.7864 26.9835 -2.5100
-16.8125 24.9793 -2.3783
-16.8296 23.1639 -2.2615
-16.8443 21.5154 -2.1582
-16.8597 20.0114 -2.0668
-16.8739 18.6280 -1.9852
-16.8939 17.3550 -1.9130
-16.9065 16.1642 -1.8475
-16.9190 15.0516 -1.7886
-16.9323 14.0077 -1.7357
-16.9449 13.0225 -1.6880
-16.9525 12.0857 -1.6444
-16.9611 11.1959 -1.6052
-16.9693 10.3465 -1.5698
-16.9878 9.5387 -1.5388
-16.9960 8.7562 -1.5101
-17.0040 8.0014 -1.4843
-17.0117 7.2711 -1.4613
-17.0156 6.5609 -1.4404
-17.0245 5.8715 -1.4224
-17.0331 5.1983 -1.4066
-17.0416 4.5390 -1.3930
-17.0499 3.8915 -1.3813
-17.0526 3.2530 -1.3712
-17.0596 2.6235 -1.3633
-17.0666 2.0005 -1.3572
-17.0735 1.3823 -1.3530
-17.0803 0.7671 -1.3504
-17.0886 0.1534 -1.3498
-17.0946 -0.4604 -1.3507
-17.1006 -1.0759 -1.3534
-17.1067 -1.6946 -1.3578
-17.1128 -2.3181 -1.3640
-17.1506 -2.9536 -1.3746
-17.1716 -3.5963 -1.3857
-17.1939 -4.2505 -1.3989
-17.2189 -4.9188 -1.4144
-17.2453 -5.6033 -1.4322
-17.2719 -6.3060 -1.4523
-17.3025 -7.0308 -1.4752
-17.3455 -7.7850 -1.5017
-17.4049 -8.5750 -1.5325
-17.4764 -9.4044 -1.5675
-17.5620 -10.2800 -1.6073
-17.6824 -11.2216 -1.6541
-17.8787 -12.2680 -1.7126
-18.2019 -13.4757 -1.7888
-18.6965 -14.9100 -1.8888
-19.3417 -16.5946 -2.0129
-20.3292 -18.7499 -2.1844
-23.4929 -23.2830 -2.6125
-4.0155 -13.5936 -1.1196
-4.0047 -37.0354 -2.9423
-1.2057 -33.5666 -2.6530
-0.0000 -33.0292 -2.4218
1.1675 -32.5024 -2.3847
3.2452 -45.1147 -3.3165
23.3234 -21.5114 -2.3264
22.1306 -15.1856 -1.9679
33.4134 -21.2048 -2.9016
32.9995 -19.3165 -2.8036
33.9449 -18.2665 -2.8264
34.8170 -17.1537 -2.8458
31.4902 -14.1334 -2.5308
28.7840 -11.6963 -2.2781
27.8864 -10.1813 -2.1767
25.6516 -8.3347 -1.9776
24.0140 -6.8600 -1.8312
22.6005 -5.5871 -1.7070
21.0499 -4.4085 -1.5769
19.9743 -3.4399 -1.4861
19.2994 -2.6143 -1.4280
18.7227 -1.8546 -1.3795
19.2994 -1.2142 -1.4179
8.5781 -0.2310 -0.6292
20.3886 0.1830 -1.4950
21.0762 0.9465 -1.5469
21.8142 1.7661 -1.6047
22.6106 2.6504 -1.6692
23.6736 3.6407 -1.7562
24.4921 4.6721 -1.8282
25.6716 5.8594 -1.9307
26.8305 7.1462 -2.0359
28.1246 8.5832 -2.1560
28.1968 9.7247 -2.1870
28.2375 10.8879 -2.2190
28.2795 12.0872 -2.2550
28.3229 13.3277 -2.2951
28.3679 14.6149 -2.3398
36.5376 30.2266 -3.4769
34.0736 30.3128 -3.3439
31.7883 30.3928 -3.2247
29.6578 30.4673 -3.1176
28.6436 31.6212 -3.1283
28.7304 34.1013 -3.2695
29.0550 37.1123 -3.4559
29.1608 40.1364 -3.6376
8.6822 19.8189 -1.5865
-16.5625 46.6603 -3.6304
-16.6093 41.9503 -3.3082
-16.6605 38.0311 -3.0444
-16.7015 34.6812 -2.8224
-16.7285 31.7668 -2.6324
-16.7532 29.2189 -2.4696
-16.7863 26.9833 -2.3301
-16.8124 24.9792 -2.2077
-16.8294 23.1637 -2.0994
-16.8443 21.5155 -2.0035
-16.8598 20.0115 -1.9186
-16.8740 18.6281 -1.8429
-16.8938 17.3550 -1.7758
-16.9064 16.1642 -1.7150
-16.9191 15.0517 -1.6604
-16.9324 14.0077 -1.6113
-16.9450 13.0225 -1.5670
-16.9525 12.0857 -1.5265
-16.9611 11.1959 -1.4901
-16.9693 10.3465 -1.4573
-16.9876 9.5386 -1.4285
-16.9959 8.7561 -1.4018
-17.0038 8.0014 -1.3779
-17.0115 7.2711 -1.3565
-17.0156 6.5609 -1.3372
-17.0245 5.8715 -1.3204
-17.0332 5.1983 -1.3058
-17.0416 4.5390 -1.2931
-17.0500 3.8915 -1.2823
-17.0526 3.2530 -1.2729
-17.0596 2.6236 -1.2656
-17.0666 2.0006 -1.2599
-17.0735 1.3823 -1.2560
-17.0804 0.7671 -1.2536
-17.0886 0.1534 -1.2530
-17.0946 -0.4604 -1.2539
-17.1006 -1.0759 -1.2563
-17.1067 -1.6946 -1.2604
-17.1128 -2.3181 -1.2662
-17.1506 -2.9536 -1.2760
-17.1716 -3.5963 -1.2864
-17.1939 -4.2505 -1.2986
-17.2189 -4.9189 -1.3130
-17.2453 -5.6033 -1.3295
-17.2719 -6.3060 -1.3482
-17.3025 -7.0308 -1.3694
-17.3455 -7.7850 -1.3940
-17.4049 -8.5750 -1.4226
-17.4764 -9.4044 -1.4552
-17.5620 -10.2800 -1.4921
-17.6824 -11.2216 -1.5356
-17.8787 -12.2680 -1.5898
-18.2019 -13.4757 -1.6606
-18.6965 -14.9100 -1.7534
-19.3417 -16.5946 -1.8686
-20.3292 -18.7499 -2.0278
-23.4930 -23.2831 -2.4252
-4.0152 -13.5924 -1.0392
-4.0258 -37.2313 -2.7458
-1.2059 -33.5731 -2.4632
-0.0000 -33.0355 -2.2353
1.1677 -32.5085 -2.2011
2.3082 -32.0890 -2.1769
3.8310 -35.4293 -2.4113
23.3234 -21.5114 -2.1469
22.1323 -15.1868 -1.8162
33.4134 -21.2048 -2.6777
32.9995 -19.3165 -2.5873
33.9449 -18.2665 -2.6083
34.8170 -17.1537 -2.6263
31.4902 -14.1334 -2.3355
28.7840 -11.6963 -2.1023
27.8864 -10.1813 -2.0087
25.6516 -8.3347 -1.8250
23.6597 -6.7588 -1.6650
22.2671 -5.5047 -1.5520
21.2931 -4.4594 -1.4720
20.2734 -3.4914 -1.3920
19.2994 -2.6143 -1.3178
18.7227 -1.8546 -1.2731
19.2994 -1.2142 -1.3085
8.5777 -0.2310 -0.5806
20.5590 0.1845 -1.3912
21.2524 0.9544 -1.4395
21.8142 1.7661 -1.4809
22.6106 2.6504 -1.5404
23.4774 3.6105 -1.6072
24.4921 4.6721 -1.6871
25.6716 5.8594 -1.7817
26.8305 7.1462 -1.8788
28.1246 8.5832 -1.9897
28.1968 9.7247 -2.0182
28.2375 10.8879 -2.0478
28.2795 12.0872 -2.0810
28.3229 13.3277 -2.1180
28.3679 14.6149 -2.1593
36.5376 30.2266 -3.2086
34.0736 30.3128 -3.0859
31.7883 30.3928 -2.9759
29.6578 30.4673 -2.8770
28.6436 31.6212 -2.8869
28.7304 34.1013 -3.0172
29.0550 37.1123 -3.1892
29.1608 40.1364 -3.3569
8.6820 19.8185 -1.4640
-16.5625 46.6601 -3.3502
-16.6094 41.9506 -3.0529
-16.6604 38.0307 -2.8094
-16.7013 34.6806 -2.6046
-16.7285 31.7668 -2.4293
-16.7533 29.2191 -2.2790
-16.7862 26.9832 -2.1503
-16.8124 24.9791 -2.0374
-16.8292 23.1635 -1.9373
-16.8444 21.5156 -1.8489
-16.8598 20.0115 -1.7706
-16.8740 18.6281 -1.7007
-16.8938 17.3549 -1.6388
-16.9064 16.1641 -1.5827
-16.9191 15.0517 -1.5323
-16.9324 14.0077 -1.4870
-16.9450 13.0225 -1.4461
-16.9525 12.0857 -1.4087
-16.9611 11.1959 -1.3751
-16.9693 10.3465 -1.3448
-16.9875 9.5385 -1.3182
-16.9957 8.7560 -1.2936
-17.0037 8.0013 -1.2716
-17.0114 7.2710 -1.2518
-17.0157 6.5609 -1.2340
-17.0245 5.8715 -1.2185
-17.0332 5.1983 -1.2050
-17.0417 4.5390 -1.1933
-17.0500 3.8916 -1.1833
-17.0526 3.2530 -1.1747
-17.0597 2.6236 -1.1679
-17.0666 2.0006 -1.1627
-17.0736 1.3823 -1.1590
-17.0804 0.7671 -1.1569
-17.0886 0.1534 -1.1563
-17.0946 -0.4604 -1.1571
-17.1006 -1.0759 -1.1594
-17.1067 -1.6946 -1.1632
-17.1128 -2.3181 -1.1685
-17.1506 -2.9536 -1.1776
-17.1716 -3.5963 -1.1871
-17.1939 -4.2505 -1.1984
-17.2189 -4.9188 -1.2117
-17.2453 -5.6033 -1.2269
-17.2719 -6.3060 -1.2441
-17.3025 -7.0308 -1.2637
-17.3455 -7.7850 -1.2865
-17.4049 -8.5750 -1.3129
-17.4764 -9.4044 -1.3429
-17.5620 -10.2800 -1.3769
-17.6824 -11.2216 -1.4171
-17.8787 -12.2680 -1.4672
-18.2019 -13.4757 -1.5324
-18.6965 -14.9100 -1.6181
-19.3417 -16.5946 -1.7244
-20.3292 -18.7499 -1.8713
-23.4930 -23.2831 -2.2381
-4.0148 -13.5911 -0.9589
-4.0472 -37.4291 -2.5474
-1.2062 -33.5796 -2.2736
-0.0000 -33.0417 -2.0489
1.1679 -32.5146 -2.0175
2.3116 -32.1361 -1.9979
3.8372 -35.4870 -2.2134
23.3234 -21.5114 -1.9675
22.1323 -15.1868 -1.6645
33.4134 -21.2048 -2.4540
32.9995 -19.3165 -2.3711
33.9449 -18.2665 -2.3904
34.8170 -17.1537 -2.4068
31.4902 -14.1334 -2.1404
28.7840 -11.6963 -1.9266
27.8864 -10.1813 -1.8409
25.2732 -8.2118 -1.6478
23.6597 -6.7588 -1.5258
22.6005 -5.5871 -1.4437
21.3651 -4.4745 -1.3536
20.2734 -3.4914 -1.2757
19.2994 -2.6143 -1.2077
18.7227 -1.8546 -1.1667
19.2994 -1.2142 -1.1991
8.5772 -0.2310 -0.5321
20.5590 0.1845 -1.2749
21.2524 0.9545 -1.3192
21.9966 1.7808 -1.3685
22.7996 2.6726 -1.4235
23.4774 3.6105 -1.4730
24.4212 4.6586 -1.5417
25.4588 5.8108 -1.6193
26.8305 7.1462 -1.7218
28.1246 8.5832 -1.8234
28.1968 9.7247 -1.8496
28.2375 10.8879 -1.8767
28.2795 12.0872 -1.9071
28.3229 13.3277 -1.9410
28.3679 14.6149 -1.9788
34.1426 30.3742 -2.8337
31.8515 30.4532 -2.7326
29.7156 30.5268 -2.6417
28.7088 31.6931 -2.6517
28.7944 34.1772 -2.7712
29.0550 37.1123 -2.9227
29.1608 40.1363 -3.0764
8.6818 19.8180 -1.3417
-16.5624 46.6599 -3.0703
-16.6095 41.9510 -2.7979
-16.6602 38.0304 -2.5746
-16.7010 34.6802 -2.3869
-16.7284 31.7667 -2.2263
-16.7534 29.2193 -2.0886
-16.7862 26.9831 -1.9706
-16.8123 24.9790 -1.8671
-16.8291 23.1632 -1.7754
-16.8444 21.5157 -1.6944
-16.8599 20.0116 -1.6226
-16.8741 18.6282 -1.5586
-16.8937 17.3549 -1.5019
-16.9063 16.1641 -1.4504
-16.9191 15.0517 -1.4042
-16.9325 14.0078 -1.3627
-16.9450 13.0225 -1.3252
-16.9525 12.0857 -1.2910
-16.9611 11.1959 -1.2602
-16.9693 10.3465 -1.2324
-16.9873 9.5384 -1.2081
-16.9956 8.7560 -1.1855
-17.0035 8.0012 -1.1653
-17.0112 7.2709 -1.1472
-17.0157 6.5609 -1.1309
-17.0246 5.8715 -1.1167
-17.0332 5.1983 -1.1043
-17.0417 4.5390 -1.0936
-17.0500 3.8916 -1.0845
-17.0527 3.2530 -1.0765
-17.0597 2.6236 -1.0703
-17.0667 2.0006 -1.0656
-17.0736 1.3823 -1.0622
-17.0805 0.7671 -1.0602
-17.0886 0.1534 -1.0597
-17.0946 -0.4604 -1.0604
-17.1006 -1.0759 -1.0625
-17.1067 -1.6946 -1.0660
-17.1128 -2.3181 -1.0709
-17.1506 -2.9536 -1.0792
-17.1716 -3.5963 -1.0879
-17.1939 -4.2505 -1.0983
-17.2189 -4.9189 -1.1105
-17.2453 -5.6033 -1.1244
-17.2719 -6.3060 -1.1402
-17.3025 -7.0308 -1.1581
-17.3455 -7.7850 -1.1790
-17.4049 -8.5750 -1.2032
-17.4764 -9.4044 -1.2307
-17.5620 -10.2800 -1.2619
-17.6824 -11.2216 -1.2987
-17.8787 -12.2680 -1.3446
-18.2019 -13.4757 -1.4044
-18.6965 -14.9100 -1.4829
-19.3417 -16.5946 -1.5803
-20.3292 -18.7499 -1.7149
-23.4929 -23.2830 -2.0510
-4.0145 -13.5899 -0.8787
-4.0688 -37.6289 -2.3470
-1.2064 -33.5862 -2.0840
-0.0000 -33.0480 -1.8626
1.1681 -32.5207 -1.8341
2.3150 -32.1834 -1.8186
3.8435 -35.5449 -2.0150
23.3234 -21.5114 -1.7883
22.1323 -15.1868 -1.5128
33.4134 -21.2048 -2.2304
32.9995 -19.3165 -2.1551
33.9449 -18.2666 -2.1726
34.8170 -17.1537 -2.1875
31.4902 -14.1334 -1.9454
28.7840 -11.6963 -1.7511
27.7591 -10.1349 -1.6655
25.2731 -8.2118 -1.4977
24.0140 -6.8600 -1.4076
22.6005 -5.5871 -1.3121
21.3651 -4.4745 -1.2303
20.2734 -3.4914 -1.1594
19.2994 -2.6143 -1.0977
18.7227 -1.8546 -1.0604
19.2994 -1.2142 -1.0899
8.5767 -0.2310 -0.4836
20.5590 0.1845 -1.1588
21.2524 0.9545 -1.1990
21.9966 1.7809 -1.2438
22.7996 2.6726 -1.2938
23.6736 3.6407 -1.3499
24.6254 4.6975 -1.4129
25.4634 5.8119 -1.4720
26.6080 7.0870 -1.5519
27.8914 8.5121 -1.6435
28.1968 9.7247 -1.6810
28.2375 10.8879 -1.7057
28.2795 12.0872 -1.7333
28.3229 13.3277 -1.7642
28.3679 14.6149 -1.7985
34.1426 30.3742 -2.5756
31.8515 30.4532 -2.4836
29.7157 30.5268 -2.4011
28.7088 31.6931 -2.4101
28.7944 34.1772 -2.5188
29.1162 37.1905 -2.6620
29.2259 40.2260 -2.8024
8.6816 19.8176 -1.2194
-16.5623 46.6597 -2.7905
-16.6097 41.9513 -2.5430
-16.6601 38.0301 -2.3400
-16.7008 34.6796 -2.1694
-16.7284 31.7666 -2.0235
-16.7535 29.2195 -1.8983
-16.7861 26.9830 -1.7910
-16.8122 24.9789 -1.6970
-16.8289 23.1630 -1.6137
-16.8445 21.5157 -1.5401
-16.8599 20.0117 -1.4748
-16.8741 18.6282 -1.4166
-16.8937 17.3548 -1.3650
-16.9063 16.1641 -1.3183
-16.9192 15.0518 -1.2763
-16.9325 14.0078 -1.2386
-16.9451 13.0226 -1.2045
-16.9525 12.0857 -1.1734
-16.9611 11.1959 -1.1454
-16.9693 10.3465 -1.1202
-16.9872 9.5383 -1.0980
-16.9954 8.7559 -1.0775
-17.0034 8.0012 -1.0591
-17.0111 7.2709 -1.0427
-17.0157 6.5610 -1.0278
-17.0246 5.8716 -1.0150
-17.0332 5.1983 -1.0037
-17.0417 4.5390 -0.9940
-17.0500 3.8916 -0.9857
-17.0527 3.2530 -0.9784
-17.0598 2.6236 -0.9728
-17.0667 2.0006 -0.9685
-17.0736 1.3823 -0.9654
-17.0805 0.7671 -0.9636
-17.0886 0.1534 -0.9632
-17.0946 -0.4604 -0.9638
-17.1006 -1.0759 -0.9657
-17.1067 -1.6946 -0.9689
-17.1128 -2.3181 -0.9733
-17.1506 -2.9536 -0.9808
-17.1716 -3.5963 -0.9888
-17.1939 -4.2505 -0.9982
-17.2189 -4.9188 -1.0093
-17.2453 -5.6033 -1.0220
-17.2719 -6.3060 -1.0363
-17.3025 -7.0308 -1.0526
-17.3455 -7.7850 -1.0715
-17.4049 -8.5750 -1.0935
-17.4764 -9.4044 -1.1185
-17.5620 -10.2800 -1.1469
-17.6824 -11.2216 -1.1803
-17.8787 -12.2680 -1.2221
-18.2019 -13.4757 -1.2764
-18.6965 -14.9100 -1.3478
-19.3417 -16.5946 -1.4363
-20.3292 -18.7499 -1.5587
-23.4931 -23.2831 -1.8642
-4.0141 -13.5887 -0.7986
-4.0906 -37.8306 -2.1446
-1.2066 -33.5927 -1.8945
-0.0000 -33.0543 -1.6763
1.1683 -32.5268 -1.6506
2.3184 -32.2308 -1.6388
3.8498 -35.6029 -1.8161
23.3234 -21.5114 -1.6091
31.4065 -23.2517 -1.9818
22.1323 -15.1868 -1.3613
33.4134 -21.2048 -2.0070
32.9995 -19.3164 -1.9392
33.9449 -18.2665 -1.9549
34.8170 -17.1537 -1.9684
31.4902 -14.1334 -1.7505
28.3432 -11.5172 -1.5515
27.7591 -10.1349 -1.4987
25.6516 -8.3347 -1.3679
24.0140 -6.8600 -1.2666
22.6005 -5.5871 -1.1807
21.3651 -4.4745 -1.1070
20.2734 -3.4914 -1.0433
19.2994 -2.6143 -0.9877
18.7227 -1.8546 -0.9542
19.2994 -1.2142 -0.9807
8.5763 -0.2310 -0.4351
20.5590 0.1845 -1.0427
21.2524 0.9545 -1.0789
21.9966 1.7808 -1.1192
22.7996 2.6726 -1.1642
23.6736 3.6407 -1.2147
24.6254 4.6975 -1.2714
25.6716 5.8594 -1.3354
26.8305 7.1462 -1.4081
27.8914 8.5121 -1.4789
28.1968 9.7247 -1.5126
28.2375 10.8879 -1.5348
28.2795 12.0872 -1.5597
28.3229 13.3277 -1.5875
28.3679 14.6149 -1.6184
34.1426 30.3742 -2.3175
31.8515 30.4532 -2.2348
29.7157 30.5268 -2.1605
28.7088 31.6931 -2.1687
28.7944 34.1772 -2.2664
29.1162 37.1905 -2.3953
29.2259 40.2259 -2.5216
8.6815 19.8172 -1.0972
-16.5623 46.6595 -2.5110
-16.6098 41.9516 -2.2882
-16.6600 38.0298 -2.1056
-16.7006 34.6791 -1.9520
-16.7284 31.7666 -1.8207
-16.7536 29.2197 -1.7082
-16.7860 26.9829 -1.6116
-16.8122 24.9788 -1.5270
-16.8287 23.1628 -1.4520
-16.8445 21.5158 -1.3858
-16.8600 20.0117 -1.3271
-16.8742 18.6283 -1.2747
-16.8936 17.3548 -1.2283
-16.9062 16.1640 -1.1862
-16.9192 15.0518 -1.1485
-16.9325 14.0078 -1.1145
-16.9451 13.0226 -1.0838
-16.9525 12.0857 -1.0558
-16.9611 11.1959 -1.0307
-16.9693 10.3465 -1.0079
-16.9870 9.5382 -0.9880
-16.9953 8.7558 -0.9696
-17.0032 8.0011 -0.9530
-17.0109 7.2708 -0.9382
-17.0157 6.5610 -0.9249
-17.0246 5.8716 -0.9133
-17.0333 5.1983 -0.9032
-17.0417 4.5390 -0.8944
-17.0501 3.8916 -0.8869
-17.0528 3.2530 -0.8804
-17.0598 2.6236 -0.8753
-17.0668 2.0006 -0.8715
-17.0737 1.3823 -0.8687
-17.0805 0.7671 -0.8671
-17.0886 0.1534 -0.8667
