ply
format ascii 1.0
element vertex 2026
property float32 x
property float32 y
property float32 z
end_header
8.5017 39.7356 -3.4399
7.8522 40.6746 -3.5068
7.1216 41.3312 -3.5504
6.3899 42.1205 -3.6064
5.6264 42.8754 -3.6606
4.8233 43.5082 -3.7056
4.0269 44.4569 -3.7788
3.1676 45.0099 -3.8196
2.3112 46.0146 -3.9002
1.4162 47.0192 -3.9821
0.4814 47.9626 -4.0604
-0.4883 48.6494 -4.1185
-1.4999 49.7990 -4.2175
-3.9360 9.0184 -0.8330
-4.1006 8.9038 -0.8298
-5.7980 10.8228 -1.0394
-6.0181 10.7114 -1.0401
-9.1080 10.1222 -1.1527
-9.2720 9.8976 -1.1481
-9.4348 9.6746 -1.1440
-9.5966 9.4532 -1.1403
-9.7573 9.2330 -1.1372
-9.9362 9.0312 -1.1367
-10.1261 8.8392 -1.1378
-10.3164 8.6467 -1.1395
-10.5074 8.4536 -1.1416
-10.6991 8.2596 -1.1442
-10.9216 8.0868 -1.1504
-11.1686 7.9276 -1.1594
-11.4197 7.7658 -1.1691
-14.1305 9.2000 -1.4274
-14.3745 8.9532 -1.4336
-14.6207 8.7042 -1.4404
-14.8694 8.4527 -1.4479
-8.0520 4.3658 -0.7754
-15.3751 7.9412 -1.4649
-15.6327 7.6808 -1.4745
-15.8937 7.4168 -1.4847
-16.1585 7.1490 -1.4958
-19.8079 8.2922 -1.8178
-20.1374 7.9590 -1.8330
-20.4757 7.6211 -1.8495
-20.9431 7.3199 -1.8781
-24.4570 8.0009 -2.1783
-24.8673 7.5860 -2.2009
-25.2862 7.1623 -2.2248
-25.7146 6.7291 -2.2501
-30.9240 7.4324 -2.6924
-35.1211 7.6989 -3.0437
-35.6462 7.0672 -3.0763
-36.2694 6.4370 -3.1183
-41.4605 6.5028 -3.5526
-45.7486 6.2372 -3.9086
-44.0129 -13.9109 -3.9076
-36.2277 -13.0715 -3.2603
-34.1760 -13.9056 -3.1234
-22.2249 -11.7632 -2.1287
-22.0076 -12.2198 -2.1309
-20.9757 -12.2041 -2.0543
-20.9528 -12.7604 -2.0768
-20.9291 -13.3292 -2.1005
-20.0325 -13.3308 -2.0370
-20.2359 -14.0603 -2.0859
-20.1591 -14.6155 -2.1078
-20.1842 -15.2611 -2.1421
-19.6398 -15.4788 -2.1169
-20.2235 -16.6076 -2.2153
-22.9249 -19.6095 -2.5538
-22.0680 -19.6572 -2.5018
-21.7309 -20.1537 -2.5089
-21.5722 -20.8274 -2.5384
-21.4094 -21.5171 -2.5695
-24.8750 -26.0247 -3.0476
-13.0849 -16.7749 -1.8010
-12.9367 -17.2896 -1.8280
-12.5510 -17.4955 -1.8227
-12.2366 -17.8011 -1.8286
-11.9201 -18.1090 -1.8353
-10.7390 -17.0504 -1.7058
-9.5788 -15.9076 -1.5719
-9.3884 -16.3242 -1.5941
-8.8396 -16.1097 -1.5555
-8.7049 -16.6481 -1.5903
-8.2020 -16.4840 -1.5586
-7.9568 -16.8300 -1.5759
-7.9394 -17.7045 -1.6425
-7.4481 -17.5439 -1.6134
-7.4185 -18.4978 -1.6871
-6.7543 -17.8719 -1.6173
-6.1427 -17.2958 -1.5537
-4.4158 -13.2723 -1.1841
-5.6397 -18.1599 -1.6097
-3.6280 -12.5675 -1.1073
-3.3904 -12.6956 -1.1124
-3.1517 -12.8297 -1.1184
-2.9766 -13.2603 -1.1505
-2.6505 -13.0260 -1.1253
-2.2542 -12.3410 -1.0620
-2.0111 -12.4154 -1.0647
-1.8839 -13.3186 -1.1387
-1.6348 -13.5072 -1.1518
-1.3800 -13.7033 -1.1659
-1.0757 -13.3674 -1.1352
-0.8366 -13.8756 -1.1767
-0.5653 -14.0733 -1.1923
-0.2783 -13.8635 -1.1738
-0.0000 -14.4543 -0.8963
0.2902 -14.4534 -0.8964
0.5747 -14.3070 -0.8879
0.6032 -10.0036 -0.6215
0.8006 -9.9490 -0.6189
1.0242 -10.1695 -0.6338
1.2437 -10.2760 -0.6419
1.4704 -10.3953 -0.6510
1.6777 -10.3571 -0.6506
1.7925 -9.8132 -0.6186
2.0511 -10.0800 -0.6379
2.2302 -9.9354 -0.6314
2.4922 -10.1448 -0.6478
2.5990 -9.7320 -0.6246
2.7408 -9.4943 -0.6128
2.8782 -9.2679 -0.6018
3.2358 -9.7258 -0.6356
3.5548 -10.0092 -0.6587
3.7748 -9.9883 -0.6621
3.9490 -9.8466 -0.6579
4.3440 -10.2322 -0.6893
4.7212 -10.5280 -0.7155
4.8362 -10.2295 -0.7017
5.5565 -11.1672 -0.7735
5.8797 -11.2450 -0.7869
22.7680 -41.4938 -2.9349
23.6870 -41.1860 -2.9462
25.4212 -42.2172 -3.0559
16.4788 -20.2733 -1.6201
42.7477 -1.0729 -2.6516
28.4315 14.6848 -1.9843
29.9451 23.1173 -2.3459
29.4016 23.6546 -2.3400
28.8606 24.1895 -2.3351
28.3217 24.7224 -2.3312
27.7843 25.2538 -2.3283
27.2481 25.7840 -2.3262
26.7126 26.3134 -2.3251
21.2685 21.8090 -1.8890
23.0530 24.6083 -2.0910
22.5712 25.0847 -2.0925
22.0884 25.5620 -2.0949
21.6044 26.0406 -2.0982
21.1186 26.5209 -2.1023
20.6308 27.0033 -2.1073
20.1404 27.4881 -2.1131
19.6471 27.9759 -2.1199
19.1505 28.4670 -2.1275
18.6500 28.9618 -2.1361
18.1453 29.4609 -2.1456
17.5938 29.8932 -2.1509
17.1212 30.4734 -2.1675
16.6009 30.9879 -2.1799
16.0743 31.5086 -2.1934
15.5410 32.0359 -2.2080
15.0004 32.5705 -2.2236
14.4517 33.1129 -2.2404
13.8946 33.6638 -2.2583
13.3282 34.2239 -2.2775
12.7519 34.7937 -2.2979
12.1649 35.3741 -2.3196
13.6002 42.2899 -2.7547
12.8821 43.0000 -2.7835
12.1485 43.7254 -2.8141
11.0378 43.0613 -2.7566
9.8354 41.8451 -2.6655
8.9892 42.0145 -2.6643
7.8978 40.9107 -2.5837
6.9787 40.5021 -2.5486
6.2532 41.2195 -2.5853
5.4930 41.8582 -2.6179
4.7246 42.6180 -2.6589
3.9408 43.5059 -2.7089
3.1189 44.3186 -2.7550
2.2628 45.0521 -2.7972
1.3865 46.0316 -2.8557
0.4711 46.9366 -2.9107
-0.4805 47.8776 -2.9691
-1.4716 48.8575 -3.0310
-2.4994 49.7626 -3.0897
-3.9360 9.0184 -0.6102
-4.1006 8.9038 -0.6079
-5.7973 10.8216 -0.7613
-6.0173 10.7100 -0.7618
-15.4659 18.6417 -1.5020
-15.7917 18.2751 -1.4977
-9.1080 10.1223 -0.8444
-9.2721 9.8976 -0.8410
-9.4349 9.6747 -0.8380
-9.5966 9.4532 -0.8353
-9.7574 9.2331 -0.8330
-9.9362 9.0312 -0.8326
-10.1261 8.8392 -0.8335
-10.3164 8.6467 -0.8347
-10.5074 8.4536 -0.8363
-10.6991 8.2596 -0.8382
-10.9214 8.0866 -0.8427
-11.1684 7.9275 -0.8493
-11.4195 7.7657 -0.8564
-14.1305 9.2000 -1.0456
-14.3745 8.9532 -1.0501
-14.6207 8.7042 -1.0551
-14.8694 8.4527 -1.0606
-8.0513 4.3654 -0.5679
-15.3751 7.9412 -1.0731
-15.6327 7.6808 -1.0801
-15.8937 7.4168 -1.0876
-16.1585 7.1489 -1.0957
-19.8079 8.2922 -1.3316
-20.1374 7.9590 -1.3427
-20.4757 7.6211 -1.3548
-20.9431 7.3199 -1.3757
-24.4570 8.0009 -1.5957
-24.8673 7.5860 -1.6122
-25.2862 7.1623 -1.6297
-25.7146 6.7291 -1.6483
-30.9240 7.4324 -1.9722
-35.0394 7.6810 -2.2244
-35.6462 7.0672 -2.2535
-36.2694 6.4370 -2.2842
-41.2638 6.4719 -2.5901
-45.7486 6.2372 -2.8631
-43.7949 -13.8420 -2.8482
-34.6220 -11.7122 -2.2664
-33.5913 -12.1203 -2.2145
-33.3582 -12.7986 -2.2156
-32.7170 -13.3120 -2.1903
-32.4235 -13.9575 -2.1890
-33.0901 -15.0388 -2.2539
-32.2268 -15.4343 -2.2158
-22.8150 -11.4953 -1.5842
-22.5581 -11.9395 -1.5827
-21.9698 -12.1989 -1.5583
-21.6777 -12.6125 -1.5552
-21.0714 -12.8327 -1.5299
-20.3830 -12.9814 -1.4985
-19.9461 -13.2733 -1.4857
-20.5123 -14.2524 -1.5489
-13.2085 -9.5762 -1.0117
-13.6768 -10.3409 -1.0632
-19.9339 -15.7105 -1.5739
-25.8552 -21.2324 -2.0746
-26.2319 -22.4383 -2.1406
-14.9294 -19.1395 -1.5052
-14.0533 -18.7819 -1.4546
-12.4749 -17.3895 -1.3271
-12.8578 -19.5335 -1.4501
-9.5161 -15.8035 -1.1439
-9.0966 -15.8169 -1.1314
-8.9687 -16.3452 -1.1561
-8.3062 -15.8857 -1.1116
-8.0987 -16.2764 -1.1273
-8.1301 -17.1966 -1.1795
-7.5073 -16.7409 -1.1377
-6.8417 -16.1156 -1.0857
-7.1131 -17.7363 -1.1850
-6.6604 -17.6234 -1.1683
-4.6513 -13.0964 -0.8618
-4.3537 -13.0856 -0.8552
-4.1330 -13.3084 -0.8641
-3.7981 -13.1569 -0.8492
-3.3996 -12.7299 -0.8170
-3.4440 -14.0192 -0.8952
-2.8184 -12.5557 -0.7980
-2.5799 -12.6790 -0.8023
-2.4020 -13.1500 -0.8289
-2.1173 -13.0710 -0.8211
-1.7979 -12.7107 -0.7960
-1.5948 -13.1770 -0.8231
-1.3841 -13.7433 -0.8565
-1.1076 -13.7646 -0.8563
-0.7991 -13.2530 -0.8233
-0.5550 -13.8152 -0.8574
-0.2788 -13.8855 -0.8612
0.0000 -14.3360 -0.5653
0.2882 -14.3565 -0.5662
0.6009 -14.9597 -0.5904
0.6138 -10.1794 -0.4021
0.8177 -10.1619 -0.4020
1.0466 -10.3925 -0.4119
1.2300 -10.1626 -0.4036
1.3385 -9.4626 -0.3768
1.5862 -9.7923 -0.3912
1.7925 -9.8135 -0.3934
2.0378 -10.0147 -0.4030
2.2500 -10.0234 -0.4051
2.4460 -9.9568 -0.4043
2.6994 -10.1082 -0.4125
2.8906 -10.0134 -0.4110
2.9517 -9.5045 -0.3924
3.1496 -9.4666 -0.3934
3.5697 -10.0510 -0.4206
3.7449 -9.9090 -0.4177
3.9369 -9.8166 -0.4170
4.0391 -9.5141 -0.4076
4.6218 -10.3063 -0.4454
4.8742 -10.3098 -0.4497
5.4781 -11.0096 -0.4849
20.6734 -39.5380 -1.7593
22.9798 -41.8797 -1.8836
23.6870 -41.1860 -1.8734
25.5527 -42.4357 -1.9532
16.4772 -20.2713 -1.0301
42.7477 -1.0729 -1.6861
28.4283 14.6832 -1.2616
29.9451 23.1173 -1.4917
29.4016 23.6546 -1.4880
28.8606 24.1895 -1.4849
28.3217 24.7224 -1.4824
27.7843 25.2538 -1.4805
27.2481 25.7840 -1.4792
26.7126 26.3134 -1.4785
21.2665 21.8070 -1.2011
23.0530 24.6083 -1.3296
22.5712 25.0847 -1.3306
22.0884 25.5620 -1.3321
21.6044 26.0406 -1.3342
21.1186 26.5209 -1.3368
20.6308 27.0033 -1.3400
20.1404 27.4881 -1.3437
19.6471 27.9759 -1.3480
19.1505 28.4670 -1.3528
18.6500 28.9618 -1.3583
18.1453 29.4609 -1.3643
17.5938 29.8932 -1.3677
17.1212 30.4734 -1.3783
16.6009 30.9879 -1.3862
16.0743 31.5086 -1.3948
15.5410 32.0359 -1.4040
15.0004 32.5705 -1.4139
14.4517 33.1129 -1.4246
13.8946 33.6638 -1.4360
13.3282 34.2239 -1.4482
12.7519 34.7937 -1.4612
12.1649 35.3741 -1.4750
14.1507 47.2346 -1.9443
12.7220 45.7896 -1.8739
11.3926 44.4451 -1.8092
10.1514 43.1899 -1.7494
8.9892 42.0145 -1.6942
7.8978 40.9107 -1.6429
6.9787 40.5021 -1.6206
6.2532 41.2195 -1.6439
5.5061 41.9582 -1.6686
4.7359 42.7198 -1.6948
3.9408 43.5059 -1.7225
3.1115 44.2130 -1.7477
2.2628 45.0521 -1.7787
1.3865 46.0315 -1.8159
0.4711 46.9366 -1.8509
-0.4805 47.8776 -1.8880
-1.4716 48.8575 -1.9274
-2.4994 49.7626 -1.9647
-3.9360 9.0184 -0.3880
-4.1006 8.9038 -0.3865
-5.7967 10.8204 -0.4840
-6.0165 10.7085 -0.4843
-14.5680 18.2946 -0.9221
-14.8987 17.9580 -0.9201
-15.2284 17.6232 -0.9184
-9.2173 10.2437 -0.5434
-9.3639 9.9957 -0.5401
-9.5255 9.7676 -0.5380
-9.6859 9.5412 -0.5361
-9.8453 9.3163 -0.5345
-10.0250 9.1120 -0.5342
-10.2166 8.9182 -0.5347
-10.4087 8.7240 -0.5355
-10.6013 8.5292 -0.5365
-10.7948 8.3335 -0.5377
-11.0272 8.1649 -0.5410
-11.2851 8.0103 -0.5457
-13.8885 9.4447 -0.6623
-14.1305 9.2000 -0.6649
-14.3745 8.9532 -0.6678
-14.6207 8.7042 -0.6709
-14.8694 8.4527 -0.6744
-8.0506 4.3650 -0.3611
-15.3751 7.9412 -0.6823
-15.6327 7.6808 -0.6868
-15.8937 7.4168 -0.6916
-16.1585 7.1489 -0.6967
-19.8079 8.2922 -0.8467
-20.1374 7.9590 -0.8538
-20.4754 7.6210 -0.8615
-20.9430 7.3199 -0.8748
-24.4570 8.0009 -1.0147
-24.8673 7.5860 -1.0252
-25.2862 7.1623 -1.0363
-25.7146 6.7291 -1.0481
-30.9240 7.4324 -1.2541
-35.0394 7.6810 -1.4144
-35.6462 7.0672 -1.4329
-36.2694 6.4370 -1.4525
-41.2638 6.4719 -1.6470
-45.7486 6.2372 -1.8206
-44.0254 -12.9488 -1.8095
-43.2821 -13.6799 -1.7899
-35.4131 -11.9798 -1.4741
-34.2055 -12.3419 -1.4339
-33.5153 -12.8589 -1.4155
-33.0039 -13.4287 -1.4050
-32.5261 -14.0017 -1.3963
-32.7300 -14.8751 -1.4176
-32.4363 -15.5346 -1.4181
-23.5085 -11.8447 -1.0380
-21.9101 -11.5965 -0.9775
-21.9776 -12.2032 -0.9912
-21.5069 -12.5131 -0.9811
-21.0294 -12.8071 -0.9709
-20.5814 -13.1077 -0.9622
-20.5159 -13.6525 -0.9717
-19.5813 -13.6054 -0.9402
-20.4366 -14.8167 -0.9953
-20.0611 -15.1680 -0.9917
-20.9278 -16.4938 -1.0507
-25.8202 -21.2036 -1.3174
-24.8288 -31.8306 -1.5918
-24.2458 -32.4040 -1.5958
-23.6597 -32.9806 -1.6005
-10.0601 -15.9723 -0.7443
-9.9209 -16.4758 -0.7583
-8.8562 -15.3989 -0.7004
-8.6585 -15.7797 -0.7097
-8.4552 -16.1707 -0.7195
-8.2461 -16.5726 -0.7299
-8.1031 -17.1396 -0.7476
-7.7696 -17.3258 -0.7487
-7.0695 -16.6521 -0.7133
-6.4322 -16.0386 -0.6814
-6.5693 -17.3825 -0.7327
-4.6999 -13.2333 -0.5537
-4.4209 -13.2876 -0.5522
-4.1975 -13.5160 -0.5581
-3.7039 -12.8306 -0.5266
-3.4959 -13.0906 -0.5343
-3.2784 -13.3452 -0.5419
-3.0017 -13.3720 -0.5404
-2.5531 -12.5471 -0.5049
-2.2881 -12.5268 -0.5021
-2.1363 -13.1880 -0.5268
-1.8489 -13.0708 -0.5205
-1.5992 -13.2134 -0.5248
-1.2651 -12.5624 -0.4979
-1.0942 -13.5973 -0.5379
-0.8243 -13.6703 -0.5400
-0.5489 -13.6655 -0.5393
-0.2874 -14.3156 -0.5646
-0.0000 -14.2197 -0.2402
0.2859 -14.2399 -0.2406
1.6516 -41.1156 -0.6951
0.6247 -10.3610 -0.1753
0.8356 -10.3838 -0.1760
1.0700 -10.6251 -0.1804
1.2564 -10.3806 -0.1766
1.3861 -9.7995 -0.1672
1.5929 -9.8335 -0.1683
1.8289 -10.0127 -0.1719
2.0411 -10.0309 -0.1729
2.2838 -10.1739 -0.1761
2.4437 -9.9476 -0.1730
2.6360 -9.8709 -0.1726
2.8275 -9.7946 -0.1722
3.0182 -9.7187 -0.1719
3.1661 -9.5163 -0.1694
3.4352 -9.6725 -0.1734
3.8364 -10.1512 -0.1833
4.0668 -10.1405 -0.1846
4.2759 -10.0719 -0.1848
4.3736 -9.7530 -0.1806
5.1953 -10.9891 -0.2053
5.4781 -11.0097 -0.2077
20.6734 -39.5380 -0.7538
21.5061 -39.1940 -0.7552
22.7756 -39.6014 -0.7717
25.4212 -42.2173 -0.8324
16.4756 -20.2693 -0.4412
42.7477 -1.0729 -0.7223
28.4251 14.6815 -0.5404
29.9451 23.1173 -0.6390
29.4016 23.6546 -0.6374
28.8606 24.1895 -0.6361
28.3217 24.7224 -0.6350
27.7843 25.2538 -0.6342
27.2481 25.7840 -0.6337
26.7126 26.3134 -0.6334
21.2646 21.8049 -0.5145
22.9981 24.5496 -0.5682
22.5174 25.0249 -0.5686
22.0358 25.5011 -0.5693
21.5529 25.9786 -0.5702
21.0683 26.4577 -0.5713
20.5816 26.9389 -0.5727
20.0924 27.4226 -0.5742
19.6003 27.9092 -0.5761
19.1048 28.3992 -0.5782
18.6056 28.8928 -0.5805
18.1021 29.3907 -0.5831
17.5938 29.8932 -0.5859
17.0804 30.4008 -0.5890
16.5613 30.9141 -0.5924
16.0360 31.4335 -0.5961
15.5040 31.9596 -0.6000
14.9646 32.4929 -0.6043
14.4173 33.0340 -0.6088
13.8615 33.5836 -0.6137
13.2964 34.1423 -0.6189
12.7215 34.7108 -0.6245
12.1359 35.2898 -0.6304
14.1507 47.2346 -0.8329
12.7220 45.7896 -0.8028
11.3926 44.4451 -0.7750
10.1514 43.1899 -0.7494
8.9892 42.0145 -0.7258
7.8978 40.9107 -0.7038
6.9621 40.4056 -0.6926
6.2383 41.1213 -0.7026
5.4930 41.8582 -0.7131
4.7246 42.6180 -0.7243
3.9314 43.4023 -0.7361
3.1115 44.2129 -0.7487
2.2628 45.0521 -0.7620
1.3832 45.9219 -0.7761
0.4700 46.8248 -0.7910
-0.4794 47.7635 -0.8069
-1.4681 48.7411 -0.8237
-2.4993 49.7607 -0.8416
-3.9360 9.0184 -0.1662
-4.1006 8.9038 -0.1656
-5.7960 10.8192 -0.2073
-6.0156 10.7070 -0.2075
-9.2172 10.2437 -0.2328
-9.3639 9.9956 -0.2314
-9.5255 9.7675 -0.2305
-9.6859 9.5411 -0.2297
-9.8452 9.3162 -0.2290
-10.0250 9.1120 -0.2288
-10.2166 8.9182 -0.2291
-10.4087 8.7240 -0.2294
-10.6013 8.5292 -0.2298
-10.7948 8.3335 -0.2304
-11.0273 8.1650 -0.2318
-11.2852 8.0103 -0.2338
-13.8885 9.4447 -0.2837
-14.1305 9.2000 -0.2848
-14.3745 8.9532 -0.2861
-14.6785 8.7386 -0.2886
-14.9321 8.4883 -0.2901
-8.0499 4.3646 -0.1547
-15.4382 7.9738 -0.2935
-15.6327 7.6808 -0.2942
-15.8937 7.4168 -0.2963
-16.1585 7.1489 -0.2985
-19.9272 8.3422 -0.3649
-20.2587 8.0069 -0.3680
-20.6154 7.6731 -0.3716
-21.1081 7.3776 -0.3777
-24.5279 8.0241 -0.4359
-24.9391 7.6079 -0.4404
-25.2862 7.1623 -0.4439
-25.7146 6.7291 -0.4490
-31.0829 7.4706 -0.5400
-35.0394 7.6810 -0.6059
-35.6462 7.0672 -0.6138
-36.2694 6.4370 -0.6222
-41.4601 6.5027 -0.7089
-45.7486 6.2372 -0.7799
-44.0254 -12.9488 -0.7752
-43.2821 -13.6799 -0.7668
-34.8774 -11.7986 -0.6219
-33.5691 -12.1122 -0.6028
-33.4884 -12.8486 -0.6059
-32.9884 -13.4224 -0.6016
-32.8382 -14.1360 -0.6039
-33.0432 -15.0175 -0.6131
-32.8407 -15.7283 -0.6151
-23.8107 -11.9970 -0.4504
-22.2117 -11.7562 -0.4245
-21.2295 -11.7878 -0.4102
-21.3123 -12.3999 -0.4165
-20.7862 -12.6590 -0.4111
-20.6974 -13.1816 -0.4145
-20.2260 -13.4595 -0.4104
-20.2377 -14.0616 -0.4163
-19.5356 -14.1635 -0.4076
-20.2334 -15.2983 -0.4285
-21.1218 -16.6467 -0.4543
-24.8288 -31.8306 -0.6819
-24.2458 -32.4040 -0.6836
-23.6597 -32.9806 -0.6856
-11.2949 -17.9329 -0.3580
-9.2074 -15.2908 -0.3015
-8.5088 -14.7948 -0.2883
-8.2955 -15.1181 -0.2913
-7.7530 -14.8278 -0.2826
-8.3986 -16.8792 -0.3185
-7.5070 -15.8786 -0.2967
-8.0504 -17.9520 -0.3323
-7.3125 -17.2245 -0.3161
-6.6431 -16.5644 -0.3015
-6.7963 -17.9831 -0.3247
-4.7495 -13.3729 -0.2397
-4.4901 -13.4956 -0.2403
-3.9874 -12.8396 -0.2271
-3.6877 -12.7743 -0.2246
-3.5033 -13.1184 -0.2294
-3.2711 -13.3155 -0.2316
-2.9222 -13.0180 -0.2254
-2.6802 -13.1719 -0.2271
-2.3838 -13.0504 -0.2241
-2.0818 -12.8515 -0.2199
-1.8541 -13.1077 -0.2236
-1.5639 -12.9219 -0.2199
-1.3200 -13.1071 -0.2225
-1.0649 -13.2333 -0.2243
-0.8334 -13.8221 -0.2339
-0.5590 -13.9151 -0.2352
-0.2851 -14.1996 -0.2399
-0.0000 -14.5577 0.0820
0.8634 -43.0039 0.2422
0.4627 -11.5191 0.0649
0.6361 -10.5492 0.0595
0.8600 -10.6873 0.0604
1.2555 -12.4670 0.0705
1.1988 -9.9048 0.0562
1.4029 -9.9182 0.0564
1.5903 -9.8172 0.0560
1.8668 -10.2200 0.0585
2.1406 -10.5197 0.0604
2.2648 -10.0895 0.0582
2.4918 -10.1433 0.0588
2.8692 -10.7441 0.0626
3.0660 -10.6210 0.0622
3.0973 -9.9735 0.0588
3.3383 -10.0338 0.0595
3.5218 -9.9162 0.0592
3.7578 -9.9433 0.0598
3.9411 -9.8271 0.0596
4.0701 -9.5871 0.0586
4.1950 -9.3546 0.0577
4.6256 -9.7839 0.0609
4.8199 -9.6867 0.0609
20.6734 -39.5380 0.2511
23.8871 -43.5332 0.2796
20.3465 -28.3622 0.1965
19.1985 -25.6584 0.1804
19.6545 -25.1972 0.1799
16.4740 -20.2673 0.1471
20.5599 -24.2815 0.1791
21.3640 -24.2278 0.1819
32.0448 -34.9023 0.2668
42.7477 -1.0729 0.2408
32.3997 13.5635 0.1978
28.4219 14.6799 0.1801
29.9445 23.1168 0.2130
29.4010 23.6541 0.2125
28.8601 24.1890 0.2120
28.3211 24.7219 0.2117
27.7838 25.2533 0.2114
27.2476 25.7834 0.2112
26.7121 26.3129 0.2111
21.2626 21.8029 0.1715
22.9981 24.5496 0.1894
22.5174 25.0249 0.1895
22.0358 25.5011 0.1898
21.5529 25.9786 0.1900
21.0683 26.4577 0.1904
20.5816 26.9389 0.1909
20.0924 27.4226 0.1914
19.6003 27.9092 0.1920
19.1048 28.3992 0.1927
18.6056 28.8928 0.1935
18.1021 29.3907 0.1943
17.5938 29.8932 0.1953
17.0804 30.4008 0.1963
16.5613 30.9141 0.1975
16.0360 31.4335 0.1987
15.5040 31.9596 0.2000
14.9646 32.4929 0.2014
14.4173 33.0340 0.2029
13.8615 33.5836 0.2046
13.2964 34.1423 0.2063
12.7215 34.7108 0.2081
12.1359 35.2898 0.2101
14.1499 47.2318 0.2776
12.7212 45.7869 0.2676
11.3919 44.4425 0.2583
10.1508 43.1873 0.2498
8.9887 42.0120 0.2419
7.8973 40.9083 0.2346
6.9621 40.4056 0.2308
6.2383 41.1213 0.2342
5.4930 41.8582 0.2377
4.7246 42.6180 0.2414
3.9314 43.4023 0.2454
3.1115 44.2129 0.2495
2.2628 45.0521 0.2540
1.3832 45.9219 0.2587
0.4700 46.8248 0.2636
-0.4794 47.7635 0.2689
-1.4681 48.7411 0.2745
-2.4993 49.7607 0.2805
-3.9360 9.0184 0.0554
-4.1006 8.9038 0.0552
-5.7954 10.8180 0.0691
-6.0148 10.7056 0.0691
-16.4004 19.7681 0.1446
-21.0263 24.3329 0.1811
-9.2172 10.2436 0.0776
-9.3639 9.9956 0.0771
-9.5254 9.7675 0.0768
-9.6858 9.5411 0.0765
-9.8452 9.3162 0.0763
-10.0250 9.1120 0.0763
-10.2166 8.9182 0.0764
-10.4087 8.7240 0.0765
-10.6013 8.5292 0.0766
-10.7948 8.3335 0.0768
-11.0274 8.1651 0.0773
-11.2852 8.0104 0.0779
-13.8885 9.4447 0.0946
-14.1305 9.2000 0.0949
-14.3745 8.9532 0.0953
-14.6785 8.7386 0.0962
-14.9392 8.4924 0.0968
-8.0492 4.3643 0.0516
-15.4382 7.9738 0.0978
-15.6327 7.6808 0.0981
-15.8937 7.4168 0.0987
-16.1585 7.1489 0.0995
-19.9272 8.3422 0.1216
-20.2587 8.0069 0.1226
-20.6156 7.6732 0.1238
-21.1083 7.3776 0.1259
-24.5406 8.0283 0.1454
-24.9522 7.6119 0.1469
-25.2862 7.1623 0.1480
-25.7146 6.7291 0.1497
-31.0834 7.4707 0.1800
-35.1340 7.7017 0.2025
-35.6462 7.0672 0.2046
-36.2694 6.4370 0.2074
-41.4605 6.5028 0.2363
-45.7486 6.2372 0.2600
-44.0254 -12.9488 0.2584
-43.2821 -13.6799 0.2556
-35.5230 -12.0170 0.2111
-33.7214 -12.1672 0.2018
-33.1817 -12.7309 0.2001
-33.5752 -13.6612 0.2041
-32.3775 -13.9377 0.1985
-33.3429 -15.1537 0.2062
-32.9251 -15.7687 0.2055
-37.1835 -18.7348 0.2345
-23.0595 -12.2049 0.1469
-21.0667 -11.6974 0.1357
-20.6036 -11.9875 0.1342
-20.4534 -12.4563 0.1348
-20.3378 -12.9526 0.1358
-20.6344 -13.7313 0.1395
-19.9930 -13.8915 0.1371
-19.8710 -14.4067 0.1382
-20.3528 -15.3886 0.1437
-20.2981 -15.9976 0.1455
-24.8288 -31.8306 0.2273
-24.2458 -32.4040 0.2279
-23.6597 -32.9806 0.2285
-9.2469 -14.0478 0.0947
-8.4583 -13.4292 0.0894
-8.2830 -13.7556 0.0904
-8.1034 -14.0899 0.0915
-7.9193 -14.4326 0.0927
-8.1916 -15.6665 0.0995
-7.3122 -14.6957 0.0924
-6.7939 -14.3703 0.0895
-6.9011 -15.3892 0.0950
-7.5726 -17.8372 0.1091
-6.8681 -17.1254 0.1039
-6.5059 -17.2146 0.1036
-4.8754 -13.7274 0.0820
-4.5614 -13.7100 0.0813
-4.0846 -13.1525 0.0775
-3.7911 -13.1325 0.0770
-3.5424 -13.2646 0.0773
-3.1136 -12.6745 0.0735
-3.0131 -13.4228 0.0775
-2.8200 -13.8588 0.0796
-2.5644 -14.0396 0.0804
-2.1740 -13.4208 0.0765
-1.8403 -13.0101 0.0740
-1.5998 -13.2185 0.0750
-1.3062 -12.9704 0.0734
-1.0625 -13.2038 0.0746
-0.7995 -13.2593 0.0748
-0.5309 -13.2152 0.0745
-0.2924 -14.5631 0.0820
-0.0000 -15.2731 0.4301
0.8634 -43.0039 1.2111
0.4242 -10.5610 0.2976
0.6681 -11.0812 0.3126
0.8348 -10.3738 0.2930
1.1476 -11.3949 0.3225
1.2534 -10.3561 0.2937
1.4078 -9.9523 0.2830
1.6224 -10.0158 0.2857
1.8934 -10.3658 0.2967
2.1004 -10.3224 0.2966
2.1927 -9.7683 0.2819
2.5382 -10.3323 0.2996
2.7580 -10.3276 0.3010
2.9650 -10.2710 0.3010
3.2180 -10.3621 0.3055
3.3280 -10.0028 0.2968
3.5423 -9.9739 0.2980
3.7781 -9.9969 0.3009
3.7770 -9.4179 0.2857
4.0779 -9.6054 0.2938
4.2029 -9.3722 0.2892
4.5772 -9.6817 0.3015
19.7398 -39.6722 1.2477
20.6733 -39.5380 1.2562
23.8871 -43.5332 1.3982
20.3465 -28.3622 0.9829
19.3954 -25.9215 0.9116
19.8561 -25.4556 0.9090
16.4724 -20.2654 0.7354
20.7707 -24.5305 0.9051
21.3641 -24.2279 0.9096
21.0427 -22.9191 0.8761
19.5683 -19.6667 0.7812
42.7477 -1.0729 1.2041
44.1600 -0.2216 1.2435
32.3954 13.5617 0.9889
28.4187 14.6782 0.9006
29.9445 23.1168 1.0652
29.4010 23.6541 1.0625
28.8601 24.1890 1.0603
28.3211 24.7219 1.0585
27.7838 25.2533 1.0572
27.2476 25.7834 1.0563
26.7121 26.3129 1.0558
21.2606 21.8009 0.8574
22.9981 24.5496 0.9472
22.9649 25.5222 0.9667
22.4737 26.0079 0.9679
21.9812 26.4949 0.9694
21.4870 26.9835 0.9713
20.9907 27.4743 0.9736
20.4917 27.9676 0.9763
19.9898 28.4639 0.9794
19.4845 28.9635 0.9829
18.9753 29.4670 0.9869
18.4618 29.9748 0.9913
17.9435 30.4873 0.9961
17.4199 31.0050 1.0014
16.8905 31.5285 1.0071
16.3547 32.0582 1.0134
15.8121 32.5947 1.0201
14.9646 32.4929 1.0073
14.4173 33.0340 1.0149
14.5205 35.1802 1.0717
13.9286 35.7655 1.0807
13.3263 36.3610 1.0904
12.1817 35.4231 1.0548
14.1498 47.2318 1.3883
12.7212 45.7869 1.3381
11.3919 44.4425 1.2919
10.1508 43.1873 1.2492
8.9887 42.0120 1.2097
7.8973 40.9083 1.1732
6.9621 40.4056 1.1545
6.3361 41.7659 1.1895
5.5791 42.5144 1.2074
4.7546 42.8885 1.2150
3.9314 43.4023 1.2271
3.1603 44.9060 1.2676
2.2983 45.7583 1.2901
1.4049 46.6418 1.3139
0.4774 47.5588 1.3392
-0.4869 48.5123 1.3661
-1.4911 49.5052 1.3946
-3.9360 9.0184 0.2771
-4.1006 8.9038 0.2760
-5.7948 10.8168 0.3455
-6.0140 10.7041 0.3457
-16.0417 19.3357 0.7074
-17.2159 19.9233 0.7414
-9.2171 10.2436 0.3880
-9.3638 9.9956 0.3857
-9.5254 9.7675 0.3842
-9.6858 9.5411 0.3828
-9.8452 9.3161 0.3817
-10.0250 9.1120 0.3815
-10.2166 8.9182 0.3819
-10.4087 8.7240 0.3824
-10.6013 8.5292 0.3831
-10.7948 8.3335 0.3840
-11.0275 8.1652 0.3864
-11.2853 8.0104 0.3897
-13.8885 9.4447 0.4729
-14.1305 9.2000 0.4748
-14.3745 8.9532 0.4768
-14.6809 8.7401 0.4811
-14.9464 8.4965 0.4841
-8.0485 4.3639 0.2578
-15.4382 7.9738 0.4893
-15.6327 7.6808 0.4904
-15.8937 7.4168 0.4939
-16.1585 7.1489 0.4975
-19.9272 8.3422 0.6083
-20.2587 8.0069 0.6134
-20.6159 7.6733 0.6194
-20.7988 7.2695 0.6204
-24.5533 8.0324 0.7274
-24.9652 7.6159 0.7349
-25.2862 7.1623 0.7400
-25.7146 6.7291 0.7484
-30.9240 7.4324 0.8955
-35.1339 7.7017 1.0128
-35.6462 7.0673 1.0233
-36.2694 6.4370 1.0372
-41.2640 6.4719 1.1761
-45.7486 6.2372 1.3001
-40.9714 -11.1621 1.1957
-38.3781 -11.2878 1.1264
-35.4687 -11.2104 1.0474
-33.1827 -11.2253 0.9864
-31.1970 -11.2564 0.9339
-29.3424 -11.2579 0.8849
-27.9502 -11.3725 0.8497
-26.6407 -11.4682 0.8167
-25.5356 -11.6054 0.7898
-23.6529 -11.3280 0.7385
-24.9045 -12.5481 0.7852
-23.7802 -12.5863 0.7576
-21.4063 -11.8860 0.6894
-20.9278 -12.1762 0.6818
-20.9803 -12.7772 0.6917
-20.5938 -13.1156 0.6875
-20.9880 -13.9667 0.7099
-20.6177 -14.3255 0.7069
-20.6390 -14.9634 0.7178
-20.1466 -15.2326 0.7112
-20.7059 -16.3190 0.7423
-25.7412 -25.8706 1.0276
-25.2427 -26.4093 1.0287
-24.7045 -26.9074 1.0286
-24.2260 -27.4733 1.0314
-23.6544 -27.9362 1.0307
-23.1032 -28.4229 1.0314
-22.5667 -28.9306 1.0331
-22.0016 -29.4046 1.0341
-21.5247 -30.0045 1.0398
-20.9968 -30.5451 1.0437
-8.6894 -13.2010 0.4450
-8.5175 -13.5232 0.4500
-8.3416 -13.8530 0.4553
-8.1615 -14.1909 0.4610
-7.9768 -14.5374 0.4669
-8.3089 -15.8909 0.5049
-7.4165 -14.9053 0.4688
-6.8876 -14.5686 0.4538
-6.3915 -14.2528 0.4398
-7.9581 -18.7451 0.5734
-7.1008 -17.7057 0.5371
-5.6724 -15.0094 0.4518
-4.8649 -13.6980 0.4093
-4.5256 -13.6025 0.4037
-4.1866 -13.4811 0.3975
-3.7858 -13.1144 0.3844
-3.5823 -13.4141 0.3909
-3.2083 -13.0598 0.3787
-3.0472 -13.5749 0.3918
-2.7608 -13.5678 0.3899
-2.4762 -13.5567 0.3880
-2.1610 -13.3406 0.3805
-1.7761 -12.5564 0.3571
-1.5705 -12.9762 0.3680
-1.3113 -13.0212 0.3685
-1.0677 -13.2685 0.3748
-0.7831 -12.9880 0.3664
-0.5434 -13.5285 0.3812
-0.3037 -15.1266 0.4260
-0.0000 -16.3527 0.8293
0.3233 -16.1007 0.8167
0.4190 -10.4299 0.5294
0.6201 -10.2842 0.5225
0.8590 -10.6745 0.5431
1.0970 -10.8930 0.5552
1.3111 -10.8325 0.5534
1.4126 -9.9866 0.5115
1.6560 -10.2228 0.5252
1.9945 -10.9194 0.5629
2.0258 -9.9555 0.5152
2.3344 -10.3994 0.5405
2.5379 -10.3310 0.5395
2.7373 -10.2500 0.5380
2.9345 -10.1654 0.5366
3.0917 -9.9555 0.5287
3.4581 -10.3938 0.5555
3.5417 -9.9724 0.5367
3.7991 -10.0526 0.5450
3.9565 -9.8655 0.5391
4.0857 -9.6239 0.5302
4.2108 -9.3900 0.5219
4.5298 -9.5814 0.5375
19.7398 -39.6722 2.2472
20.6733 -39.5380 2.2626
23.8871 -43.5332 2.5183
6.9190 -10.5113 0.6382
19.8845 -28.9269 1.7802
20.3465 -28.3622 1.7702
19.2883 -25.7784 1.6328
19.7464 -25.3150 1.6282
16.4708 -20.2634 1.3243
20.6560 -24.3951 1.6211
21.3640 -24.2278 1.6382
21.0427 -22.9191 1.5779
34.5308 -6.4866 1.7818
34.5681 -5.7778 1.7774
34.6051 -5.0722 1.7737
34.6420 -4.3693 1.7708
34.6788 -3.6684 1.7685
34.7155 -2.9690 1.7670
42.7477 -1.0729 2.1686
43.8451 -0.2201 2.2236
45.1367 7.0793 2.3171
32.3910 13.5599 1.7808
28.4155 14.6766 1.6219
29.9445 23.1168 1.9185
29.4010 23.6541 1.9137
28.8601 24.1890 1.9097
28.3211 24.7219 1.9065
27.7838 25.2533 1.9041
27.2476 25.7834 1.9024
26.7121 26.3129 1.9016
21.2587 21.7989 1.5442
22.9981 24.5496 1.7060
22.9649 25.5222 1.7412
22.4737 26.0079 1.7432
21.9812 26.4949 1.7459
21.4870 26.9835 1.7493
20.9907 27.4743 1.7535
20.4917 27.9676 1.7583
19.9898 28.4639 1.7639
19.4845 28.9635 1.7703
18.9753 29.4670 1.7774
18.4618 29.9748 1.7853
17.9435 30.4873 1.7941
17.4199 31.0050 1.8036
16.8905 31.5285 1.8139
16.3547 32.0582 1.8252
15.8121 32.5947 1.8373
14.9646 32.4929 1.8142
14.4173 33.0340 1.8279
14.5205 35.1802 1.9301
13.9286 35.7655 1.9465
13.3263 36.3610 1.9640
12.1817 35.4230 1.8997
14.3315 44.5639 2.3740
13.3859 44.6818 2.3655
12.4140 44.6812 2.3518
11.3919 44.4425 2.3267
10.1508 43.1873 2.2499
8.9887 42.0120 2.1788
6.9417 35.9579 1.8573
6.9621 40.4056 2.0793
6.3361 41.7659 2.1424
5.5791 42.5144 2.1746
4.7493 42.8411 2.1860
3.8547 42.5554 2.1670
2.9741 42.2610 2.1485
2.1074 41.9583 2.1306
1.2544 41.6475 2.1131
0.4155 41.3917 2.0993
-0.4130 41.1492 2.0870
-1.2319 40.8978 2.0750
-2.0887 41.5857 2.1116
-2.9880 42.4588 2.1586
-3.8280 42.2615 2.1520
-4.6534 41.9762 2.1418
-5.4697 41.6814 2.1320
-6.2771 41.3775 2.1224
-7.0786 41.0818 2.1141
-7.8742 40.7884 2.1067
-8.6619 40.4847 2.0996
-9.4418 40.1711 2.0928
-10.2140 39.8473 2.0862
-10.9782 39.5137 2.0798
-11.7347 39.1703 2.0737
-12.4834 38.8174 2.0679
-13.2243 38.4550 2.0623
-13.9574 38.0831 2.0570
-14.6827 37.7019 2.0519
-15.4002 37.3116 2.0471
-3.9360 9.0184 0.4990
-4.1006 8.9038 0.4971
-17.5192 36.1138 2.0356
-18.2138 35.7023 2.0326
-5.7941 10.8156 0.6223
-6.0132 10.7026 0.6226
-20.2509 34.4078 2.0248
-20.9142 33.9566 2.0225
-21.5696 33.4957 2.0204
-22.2169 33.0252 2.0186
-22.8560 32.5452 2.0169
-23.4871 32.0558 2.0154
-24.1099 31.5571 2.0140
-19.8377 24.9123 1.6150
-15.5046 18.6883 1.2315
-15.8490 18.3414 1.2293
-9.0414 10.0483 0.6855
-9.1959 9.8163 0.6821
-9.3488 9.5864 0.6791
-9.5005 9.3585 0.6763
-9.6509 9.1324 0.6738
-9.8258 8.9309 0.6734
-10.0137 8.7411 0.6741
-10.2021 8.5509 0.6751
-10.3911 8.3600 0.6764
-10.5808 8.1683 0.6779
-10.8007 7.9973 0.6816
-11.0596 7.8502 0.6878
-11.3233 7.7003 0.6945
-14.1305 9.2000 0.8551
-14.3745 8.9532 0.8588
-14.6861 8.7432 0.8668
-14.9495 8.4982 0.8721
-8.0478 4.3635 0.4643
-15.4379 7.9737 0.8812
-15.6327 7.6808 0.8833
-15.8937 7.4168 0.8895
-16.1585 7.1489 0.8961
-19.8079 8.2922 1.0890
-20.1374 7.9590 1.0981
-20.4757 7.6211 1.1080
-20.9433 7.3200 1.1251
-24.5377 8.0273 1.3093
-24.9489 7.6109 1.3228
-25.2862 7.1623 1.3328
-25.7146 6.7291 1.3480
-30.9240 7.4324 1.6129
-34.6678 7.5995 1.7999
-35.2675 6.9922 1.8234
-35.8834 6.3685 1.8482
-41.2621 6.4717 2.1182
-44.0724 6.0087 2.2558
-44.8974 5.2055 2.2922
-46.8877 3.5363 2.3846
-41.0335 -11.1790 2.1568
-35.9281 -10.5672 1.8992
-35.7114 -11.2871 1.8994
-33.0378 -11.1763 1.7688
-31.1102 -11.2251 1.6773
-29.1442 -11.1818 1.5831
-27.4046 -11.1505 1.5004
-25.8518 -11.1286 1.4274
-24.3404 -11.0623 1.3559
-22.9128 -10.9736 1.2884
-21.9884 -11.0789 1.2487
-20.9142 -11.0694 1.2000
-19.6147 -10.8912 1.1378
-18.8571 -10.9714 1.1064
-17.9863 -10.9538 1.0680
-17.2726 -11.0005 1.0385
-16.5869 -11.0379 1.0104
-15.8180 -10.9906 0.9768
-15.0694 -10.9255 0.9440
-14.5082 -10.9695 0.9224
-14.1482 -11.1507 0.9136
-14.2064 -11.6663 0.9323
-25.7000 -25.8292 1.8479
-25.2467 -26.4135 1.8530
-24.6986 -26.9010 1.8521
-24.2395 -27.4887 1.8587
-23.6565 -27.9387 1.8566
-23.1174 -28.4404 1.8587
-22.5593 -28.9210 1.8601
-22.0577 -29.4795 1.8672
-21.5616 -30.0559 1.8759
-10.5700 -15.3768 0.9463
-8.7501 -13.2931 0.8071
-8.5776 -13.6187 0.8162
-8.4012 -13.9519 0.8259
-8.2205 -14.2935 0.8362
-8.0352 -14.6438 0.8471
-8.4299 -16.1222 0.9226
-7.5239 -15.1212 0.8565
-6.9842 -14.7728 0.8287
-6.4783 -14.4464 0.8029
-7.8385 -18.4634 1.0172
-7.3639 -18.3617 1.0033
-5.7508 -15.2166 0.8250
-4.8045 -13.5280 0.7280
-4.6314 -13.9204 0.7440
-4.4505 -14.3309 0.7610
-3.8283 -13.2615 0.7000
-3.6232 -13.5672 0.7122
-3.3090 -13.4699 0.7034
-3.0171 -13.4408 0.6986
-2.7115 -13.3258 0.6897
-2.4135 -13.2132 0.6812
-2.1388 -13.2036 0.6783
-1.9334 -13.6685 0.7001
-1.5453 -12.7678 0.6522
-1.3034 -12.9419 0.6597
-1.0701 -13.2980 0.6766
-0.7674 -12.7273 0.6466
-0.5603 -13.9492 0.7080
-0.2812 -14.0060 0.7104
-0.0000 -10.3311 0.7575
0.2114 -10.5339 0.7725
0.4096 -10.1978 0.7483
0.6489 -10.7631 0.7906
0.8505 -10.5695 0.7775
1.0487 -10.4135 0.7674
1.2504 -10.3316 0.7631
1.4173 -10.0200 0.7420
1.6910 -10.4390 0.7754
1.8953 -10.3761 0.7734
2.1298 -10.4670 0.7832
2.2762 -10.1402 0.7620
2.4718 -10.0620 0.7597
2.6662 -9.9838 0.7577
2.8901 -10.0115 0.7640
3.1003 -9.9832 0.7665
3.2828 -9.8670 0.7625
3.5811 -10.0833 0.7846
3.7577 -9.9429 0.7794
3.9643 -9.8849 0.7809
4.0936 -9.6425 0.7681
4.2188 -9.4078 0.7560
4.9009 -10.3663 0.8407
5.1828 -10.4162 0.8531
5.4326 -10.3900 0.8597
5.7073 -10.4014 0.8699
5.9407 -10.3295 0.8737
6.1464 -10.2075 0.8736
6.5403 -10.3841 0.8998
6.8454 -10.3995 0.9129
19.8086 -28.8166 2.5639
20.3465 -28.3622 2.5593
14.1928 -18.9684 1.7370
14.3404 -18.3844 1.7096
14.4834 -17.8184 1.6836
14.6222 -17.2691 1.6591
14.7571 -16.7353 1.6360
14.8883 -16.2160 1.6141
15.0161 -15.7101 1.5935
15.1408 -15.2169 1.5739
15.6459 -15.1057 1.5946
16.5276 -15.3280 1.6528
28.4060 -25.3028 2.7893
28.4898 -24.3697 2.7489
28.9628 -23.7844 2.7479
29.4213 -23.1879 2.7467
31.8694 -24.0962 2.9295
32.3269 -23.4373 2.9277
32.7680 -22.7679 2.9257
33.1926 -22.0883 2.9234
33.6004 -21.3992 2.9209
33.9911 -20.7009 2.9181
34.3757 -20.0005 2.9161
34.7503 -19.2953 2.9144
35.1082 -18.5821 2.9125
35.4493 -17.8611 2.9105
35.7733 -17.1329 2.9083
36.0802 -16.3978 2.9059
36.3699 -15.6564 2.9033
36.6420 -14.9091 2.9006
36.8967 -14.1562 2.8976
37.1337 -13.3984 2.8945
37.3530 -12.6361 2.8913
37.5545 -11.8697 2.8878
37.7381 -11.0996 2.8842
37.8928 -10.3234 2.8796
38.0267 -9.5442 2.8747
38.1426 -8.7634 2.8696
38.2405 -7.9813 2.8643
34.5011 -6.4810 2.5739
34.5384 -5.7728 2.5676
34.5755 -5.0679 2.5622
34.6124 -4.3655 2.5580
34.6492 -3.6652 2.5547
34.4021 -2.9422 2.5316
38.4517 -2.5122 2.8254
38.4407 -1.7374 2.8214
38.4117 -0.9641 2.8173
38.3625 -0.1926 2.8129
38.2922 0.5766 2.8080
38.2481 1.3442 2.8062
38.1589 2.1086 2.8022
37.9999 2.8659 2.7941
37.8364 3.6187 2.7869
37.6754 4.3682 2.7809
37.5255 5.1161 2.7769
37.3958 5.8652 2.7755
37.2685 6.6143 2.7753
37.1282 7.3610 2.7753
36.9730 8.1048 2.7753
36.8028 8.8453 2.7753
36.6178 9.5823 2.7753
36.4181 10.3154 2.7753
36.2037 11.0443 2.7753
35.9748 11.7688 2.7753
33.7692 11.8028 2.6229
33.5449 12.4854 2.6244
33.3093 13.1649 2.6261
32.1961 13.4783 2.5592
32.7802 14.5028 2.6282
32.4825 15.1578 2.6282
32.1717 15.8068 2.6282
28.3097 14.6219 2.3363
31.4947 17.0763 2.6269
31.1330 17.6980 2.6258
30.7591 18.3119 2.6247
30.3730 18.9179 2.6237
29.9862 19.5232 2.6236
29.5885 20.1213 2.6236
29.1789 20.7114 2.6236
28.7568 21.2925 2.6236
28.3237 21.8656 2.6236
27.8709 22.4231 2.6228
27.4013 22.9663 2.6215
26.9210 23.4997 2.6202
26.4304 24.0231 2.6188
25.9296 24.5363 2.6175
25.4162 25.0364 2.6159
21.1631 21.7009 2.2225
22.9981 24.5496 2.4665
22.9649 25.5222 2.5174
22.4737 26.0079 2.5203
21.9812 26.4949 2.5242
21.4870 26.9835 2.5291
20.9907 27.4743 2.5351
20.4917 27.9676 2.5422
19.9898 28.4639 2.5503
19.4845 28.9635 2.5595
18.9132 29.3705 2.5614
18.2654 29.6560 2.5538
17.6144 29.9281 2.5463
16.9757 30.2145 2.5411
16.3038 30.4334 2.5315
15.6296 30.6367 2.5218
14.9545 30.8268 2.5122
14.2788 31.0037 2.5028
13.6028 31.1676 2.4934
12.9266 31.3186 2.4843
12.2505 31.4566 2.4752
11.5720 31.5743 2.4657
10.8843 31.6503 2.4541
10.2035 31.7278 2.4437
9.5247 31.7932 2.4335
8.8482 31.8468 2.4235
8.1740 31.8887 2.4137
7.5311 32.0418 2.4134
6.9710 32.5814 2.4430
6.3974 33.1385 2.4746
5.7956 33.6357 2.5026
5.0969 33.5975 2.4916
4.4025 33.5483 2.4809
3.7125 33.4882 2.4705
3.0270 33.4174 2.4603
2.3460 33.3361 2.4503
1.6692 33.2327 2.4398
0.9974 33.1127 2.4290
0.3311 32.9832 2.4185
-0.3297 32.8443 2.4083
-0.9848 32.6961 2.3984
-1.6343 32.5389 2.3888
-2.2782 32.3726 2.3795
-2.9164 32.1975 2.3705
-3.5490 32.0136 2.3617
-4.1758 31.8212 2.3532
-4.7969 31.6203 2.3450
-5.4122 31.4109 2.3371
-6.0214 31.1911 2.3292
-6.6240 30.9599 2.3214
-7.2206 30.7208 2.3139
-7.8114 30.4741 2.3067
-8.3961 30.2199 2.2997
-8.9749 29.9581 2.2930
-9.5478 29.6889 2.2867
-10.1147 29.4124 2.2805
-10.6756 29.1287 2.2747
-11.2306 28.8378 2.2691
-11.7797 28.5398 2.2638
-3.9360 9.0184 0.7215
-4.1006 8.9038 0.7188
-13.3911 27.6041 2.2496
-13.9163 27.2785 2.2454
-5.7935 10.8144 0.8995
-6.0123 10.7011 0.9000
-15.4563 26.2613 2.2343
-15.9576 25.9091 2.2311
-16.4531 25.5502 2.2282
-16.9425 25.1849 2.2256
-17.4259 24.8132 2.2232
-17.0245 23.2355 2.1120
-17.4728 22.8699 2.1103
-17.9153 22.4982 2.1087
-15.1635 18.2773 1.7413
-15.5004 17.9380 1.7383
-9.1080 10.1222 0.9984
-9.2720 9.8976 0.9944
-9.4348 9.6746 0.9908
-9.5966 9.4532 0.9877
-9.7573 9.2330 0.9850
-9.9362 9.0312 0.9845
-10.1261 8.8392 0.9855
-10.3164 8.6467 0.9870
-10.5074 8.4536 0.9888
-10.6991 8.2596 0.9911
-10.9216 8.0868 0.9964
-11.1687 7.9276 1.0042
-11.4197 7.7659 1.0126
-14.1305 9.2000 1.2363
-14.3745 8.9532 1.2417
-14.6855 8.7428 1.2531
-14.9391 8.4923 1.2600
-8.0471 4.3631 0.6712
-15.4358 7.9726 1.2738
-15.6327 7.6808 1.2771
-15.8937 7.4168 1.2860
-16.1585 7.1489 1.2956
-19.8079 8.2922 1.5745
-20.1374 7.9590 1.5877
-20.4757 7.6211 1.6019
-20.9434 7.3200 1.6267
-24.1164 7.8895 1.8605
-24.5204 7.4802 1.8797
-24.9330 7.0623 1.9001
-25.3548 6.6349 1.9217
-25.7864 6.1976 1.9446
-31.7122 6.9516 2.3804
-34.0766 6.7561 2.5472
-34.7231 6.1626 2.5858
-35.0503 5.4974 2.6014
-27.7979 3.7899 2.0571
-35.5973 4.1272 2.6276
-35.6469 3.4094 2.6256
-35.6821 2.6912 2.6237
-37.7934 2.0885 2.7753
-37.8275 1.3294 2.7753
-21.8890 0.3296 1.6051
-21.8914 -0.1098 1.6051
-21.8938 -0.5495 1.6058
-21.8962 -0.9896 1.6071
-37.7704 -2.4676 2.7753
-37.7132 -3.2253 2.7753
-37.6409 -3.9817 2.7753
-37.5534 -4.7364 2.7753
-37.4507 -5.4893 2.7753
-37.3329 -6.2399 2.7753
-35.7325 -6.7123 2.6658
-35.0330 -7.3118 2.6240
-34.9043 -8.0193 2.6259
-34.7612 -8.7246 2.6278
-34.5846 -9.4221 2.6282
-34.3886 -10.1144 2.6282
-33.1478 -10.4768 2.5490
-33.1607 -11.2179 2.5668
-31.1801 -11.2503 2.4305
-29.2990 -11.2412 2.3010
-27.2881 -11.1031 2.1601
-25.8412 -11.1240 2.0628
-24.5611 -11.1626 1.9781
-23.2441 -11.1323 1.8897
-21.9641 -11.0666 1.8033
-20.8907 -11.0570 1.7331
-19.8953 -11.0470 1.6686
-18.9033 -10.9983 1.6036
-17.9535 -10.9339 1.5413
-17.1862 -10.9454 1.4940
-14.8114 -9.8564 1.3045
-14.5934 -10.1397 1.3029
-15.1110 -10.9556 1.3685
-14.4074 -10.8933 1.3244
-13.9979 -11.0322 1.3068
-14.0034 -11.4996 1.3286
-26.6448 -22.7915 2.5709
-26.1820 -23.3218 2.5709
-26.2822 -24.3746 2.6282
-25.7876 -24.8972 2.6282
-25.2827 -25.4098 2.6282
-24.7675 -25.9122 2.6282
-21.2367 -23.1304 2.3024
-19.6360 -22.2681 2.1769
-23.1631 -27.3559 2.6282
-22.6093 -27.8153 2.6282
-22.0464 -28.2636 2.6282
-21.4747 -28.7004 2.6282
-10.9325 -15.2395 1.3752
-10.2753 -14.9480 1.3300
-8.8117 -13.3867 1.1751
-8.6387 -13.7157 1.1885
-8.4617 -14.0525 1.2027
-8.2805 -14.3978 1.2178
-5.6952 -10.3792 0.8681
-5.4131 -10.3525 0.8566
-5.1291 -10.3082 0.8442
-4.9264 -10.4201 0.8451
-4.7219 -10.5294 0.8461
-4.4114 -10.3909 0.8277
-4.1523 -10.3536 0.8179
-3.9274 -10.3920 0.8146
-3.6892 -10.3875 0.8082
-3.4964 -10.5088 0.8121
-3.2203 -10.3695 0.7961
-3.0429 -10.5407 0.8044
-2.7867 -10.4347 0.7919
-2.5657 -10.4441 0.7886
-2.3213 -10.3406 0.7771
-2.1568 -10.5991 0.7931
-1.9428 -10.6359 0.7928
-1.7130 -10.5747 0.7855
-1.4718 -10.4048 0.7705
-1.2510 -10.3355 0.7634
-1.0623 -10.5473 0.7773
-0.8543 -10.6158 0.7809
-0.6490 -10.7631 0.7906
-0.4250 -10.5786 0.7763
-0.2091 -10.4127 0.7636
-0.0000 -10.3088 0.9897
0.2092 -10.4223 1.0008
0.4161 -10.3588 0.9953
0.6228 -10.3296 0.9935
0.8299 -10.3131 0.9933
1.0349 -10.2764 0.9916
1.2482 -10.3132 0.9973
1.4708 -10.3977 1.0082
1.6770 -10.3528 1.0069
1.8843 -10.3162 1.0068
2.0997 -10.3191 1.0110
2.3170 -10.3219 1.0156
2.5203 -10.2593 1.0142
2.6884 -10.0668 1.0003
2.8980 -10.0389 1.0031
3.0162 -9.7122 0.9763
3.4369 -10.3303 1.0452
3.6074 -10.1572 1.0348
3.8267 -10.1255 1.0392
3.9721 -9.9044 1.0245
4.1016 -9.6612 1.0076
4.2269 -9.4258 0.9917
4.8711 -10.3033 1.0941
5.1534 -10.3571 1.1106
5.4035 -10.3343 1.1196
5.6763 -10.3449 1.1328
5.9021 -10.2623 1.1366
6.1648 -10.2380 1.1473
6.5714 -10.4335 1.1838
6.8642 -10.4281 1.1986
15.5043 -22.5549 2.6276
15.9556 -22.2414 2.6279
14.1928 -18.9684 2.2744
14.2734 -18.2986 2.2280
14.4834 -17.8184 2.2045
14.6222 -17.2691 2.1724
14.7571 -16.7353 2.1421
14.8883 -16.2160 2.1135
15.0161 -15.7101 2.0864
15.1408 -15.2169 2.0609
15.6405 -15.1004 2.0872
16.5216 -15.3225 2.1633
20.5052 -18.2651 2.6363
20.9299 -17.9031 2.6442
21.3371 -17.5221 2.6507
21.7192 -17.1177 2.6549
22.0773 -16.6925 2.6572
23.0754 -16.7299 2.7363
24.1638 -16.7895 2.8249
24.4884 -16.2961 2.8240
24.8017 -15.7955 2.8230
25.1021 -15.2874 2.8217
25.4068 -14.7822 2.8220
25.7007 -14.2705 2.8222
25.9835 -13.7525 2.8224
26.2551 -13.2286 2.8225
26.5154 -12.6990 2.8225
26.7598 -12.1618 2.8220
26.9916 -11.6192 2.8212
27.2120 -11.0721 2.8205
27.4209 -10.5207 2.8197
27.6184 -9.9652 2.8188
27.8042 -9.4059 2.8179
27.9784 -8.8430 2.8170
28.1408 -8.2768 2.8161
28.2914 -7.7076 2.8151
28.4301 -7.1356 2.8141
28.5569 -6.5610 2.8130
28.6718 -5.9842 2.8120
28.7747 -5.4053 2.8108
28.8656 -4.8246 2.8097
28.9445 -4.2425 2.8085
29.0112 -3.6590 2.8073
29.0654 -3.0746 2.8060
29.1078 -2.4894 2.8047
29.1382 -1.9037 2.8034
29.1567 -1.3178 2.8020
29.1632 -0.7320 2.8007
29.1579 -0.1463 2.7993
29.1406 0.4388 2.7980
29.1109 1.0231 2.7965
29.0692 1.6063 2.7950
29.0156 2.1884 2.7936
28.9500 2.7688 2.7920
28.8727 3.3475 2.7905
28.7835 3.9242 2.7889
28.6804 4.4983 2.7871
28.5612 5.0689 2.7849
28.4301 5.6365 2.7826
28.2871 6.2008 2.7802
28.1491 6.7654 2.7794
27.9957 7.3260 2.7782
27.8310 7.8831 2.7770
27.6550 8.4365 2.7758
27.4751 8.9882 2.7753
27.2892 9.5379 2.7753
27.0922 10.0838 2.7753
26.8843 10.6256 2.7753
26.6656 11.1630 2.7753
26.4362 11.6961 2.7753
26.1961 12.2243 2.7753
25.9455 12.7477 2.7753
25.6843 13.2659 2.7753
25.4129 13.7788 2.7753
25.1312 14.2861 2.7753
24.8394 14.7877 2.7753
24.4212 15.2109 2.7622
24.0043 15.6285 2.7499
23.5907 16.0426 2.7389
23.1801 16.4534 2.7290
22.7721 16.8613 2.7203
22.3664 17.2666 2.7127
21.9625 17.6696 2.7062
21.5602 18.0706 2.7008
21.1592 18.4702 2.6965
20.7592 18.8684 2.6932
20.3598 19.2658 2.6910
19.9608 19.6625 2.6899
19.5617 20.0588 2.6899
19.1622 20.4549 2.6909
18.7621 20.8514 2.6929
18.3611 21.2485 2.6961
17.9589 21.6465 2.7003
17.5549 22.0456 2.7055
17.1491 22.4462 2.7119
16.7411 22.8487 2.7194
16.3306 23.2534 2.7280
15.8869 23.6157 2.7325
15.3849 23.8915 2.7281
14.8696 24.1424 2.7221
14.3496 24.3810 2.7160
13.8264 24.6090 2.7099
13.3000 24.8264 2.7039
12.7709 25.0332 2.6980
12.2390 25.2293 2.6921
11.7032 25.4113 2.6859
11.1593 25.5690 2.6784
10.6142 25.7161 2.6709
10.0681 25.8527 2.6636
9.5212 25.9787 2.6563
8.9703 26.0846 2.6482
8.4142 26.1639 2.6386
7.8589 26.2326 2.6291
7.3085 26.3052 2.6211
6.7419 26.3016 2.6067
6.1953 26.3584 2.5995
5.6613 26.4604 2.5978
5.1172 26.5074 2.5918
4.5718 26.5331 2.5848
4.0276 26.5490 2.5780
3.4848 26.5552 2.5713
2.9435 26.5517 2.5647
2.4039 26.5386 2.5583
1.8661 26.5161 2.5520
1.3302 26.4841 2.5458
0.7960 26.4292 2.5385
0.2646 26.3600 2.5308
-0.2638 26.2821 2.5233
-0.7890 26.1957 2.5161
-1.3110 26.1008 2.5090
-1.8296 25.9975 2.5021
-2.3447 25.8860 2.4954
-2.8564 25.7663 2.4888
-3.3645 25.6385 2.4825
-3.8689 25.5027 2.4764
-4.3695 25.3590 2.4705
-4.8663 25.2075 2.4647
-5.3592 25.0483 2.4592
-5.8481 24.8813 2.4538
-6.3330 24.7068 2.4487
-6.8126 24.5205 2.4433
-7.2872 24.3245 2.4378
-7.7573 24.1214 2.4326
-8.2230 23.9116 2.4276
-8.6841 23.6949 2.4228
-9.1407 23.4714 2.4182
-9.5927 23.2413 2.4139
-3.9360 9.0184 0.9447
-4.1006 8.9038 0.9411
-10.9207 22.5118 2.4021
-11.3539 22.2557 2.3986
-5.7928 10.8132 1.1777
-6.0115 10.6997 1.1782
-12.6245 21.4499 2.3895
-13.0382 21.1690 2.3869
-13.4469 20.8819 2.3845
-13.8506 20.5889 2.3823
-13.5375 19.2764 2.2614
-13.9114 18.9867 2.2597
-14.2805 18.6915 2.2583
-14.6445 18.3907 2.2570
-15.0246 18.1098 2.2591
-15.4329 17.8599 2.2661
-9.1080 10.1222 1.3073
-9.2720 9.8976 1.3020
-9.4348 9.6746 1.2974
-9.5966 9.4532 1.2932
-9.7573 9.2330 1.2897
-9.9362 9.0312 1.2891
-10.1261 8.8392 1.2904
-10.3164 8.6467 1.2923
-10.5074 8.4536 1.2947
-10.6991 8.2596 1.2976
-10.9217 8.0868 1.3047
-11.1688 7.9277 1.3149
-11.4198 7.7660 1.3259
-14.1305 9.2000 1.6188
-14.3745 8.9532 1.6258
-14.6791 8.7390 1.6401
-14.9286 8.4863 1.6486
-8.0465 4.3628 0.8787
-15.4060 7.9572 1.6647
-15.5844 7.6571 1.6670
-15.7697 7.3589 1.6707
-15.9493 7.0564 1.6744
-16.1254 6.7506 1.6783
-20.1371 7.9588 2.0788
-20.4743 7.6206 2.0974
-20.9418 7.3195 2.1298
-23.4133 7.6595 2.3650
-23.8053 7.2621 2.3894
-24.2055 6.8562 2.4153
-24.6148 6.4413 2.4427
-24.7834 5.9566 2.4471
-25.0458 5.4903 2.4616
-26.6184 5.2774 2.6052
-26.8425 4.7639 2.6173
-27.0415 4.2413 2.6279
-27.1062 3.6955 2.6264
-27.1598 3.1490 2.6249
-27.2024 2.6017 2.6235
-28.8262 2.1741 2.7753
-28.8640 1.5950 2.7753
-28.8902 1.0153 2.7753
-21.8852 0.3295 2.1013
-21.8876 -0.1098 2.1013
-21.8900 -0.5494 2.1022
-21.8924 -0.9895 2.1039
-28.8465 -1.8846 2.7753
-28.8028 -2.4633 2.7753
-28.7476 -3.0409 2.7753
-28.6808 -3.6174 2.7753
-28.6024 -4.1923 2.7753
-28.5125 -4.7656 2.7753
-28.4110 -5.3370 2.7753
-28.2982 -5.9062 2.7753
-28.1741 -6.4730 2.7753
-26.7565 -6.7155 2.6484
-26.3678 -7.1836 2.6237
-26.2325 -7.7155 2.6251
-26.0864 -8.2450 2.6265
-25.9295 -8.7716 2.6279
-25.7511 -9.2914 2.6282
-25.5595 -9.8064 2.6282
-25.3575 -10.3175 2.6282
-25.1453 -10.8244 2.6282
-24.5173 -11.1426 2.5855
-23.2657 -11.1426 2.4766
-22.0729 -11.1214 2.3729
-20.8658 -11.0438 2.2665
-17.7210 -9.8397 1.9460
-17.7190 -10.3092 1.9681
-17.0621 -10.3910 1.9179
-15.9268 -10.1434 1.8128
-14.7883 -9.8410 1.7054
-14.6931 -10.2090 1.7177
-15.1027 -10.9496 1.7909
-14.4201 -10.9030 1.7356
-14.1044 -11.1162 1.7241
-14.0408 -11.5304 1.7443
-20.8036 -17.7950 2.6282
-20.3232 -18.1030 2.6129
-20.0462 -18.5912 2.6248
-19.2650 -18.5998 2.5709
-18.8877 -18.9828 2.5709
-18.5029 -19.3581 2.5709
-18.5147 -20.1657 2.6282
-18.1062 -20.5333 2.6282
-17.6904 -20.8926 2.6282
-17.2675 -21.2435 2.6282
-13.8058 -17.6991 2.1550
-13.4838 -18.0208 2.1608
-10.8572 -15.1345 1.7882
-10.2345 -14.8887 1.7345
-8.8744 -13.4820 1.5496
-8.7009 -13.8144 1.5674
-8.5234 -14.1549 1.5863
-5.9284 -10.3080 1.1416
-5.6869 -10.3641 1.1350
-5.3691 -10.2684 1.1124
-5.1096 -10.2689 1.1012
-4.9005 -10.3653 1.1007
-4.6519 -10.3735 1.0915
-4.3633 -10.2775 1.0719
-4.1432 -10.3308 1.0686
-3.8859 -10.2821 1.0553
-3.6855 -10.3770 1.0572
-3.4516 -10.3742 1.0497
-3.1914 -10.2763 1.0331
-2.9877 -10.3493 1.0342
-2.7512 -10.3017 1.0237
-2.5219 -10.2656 1.0149
-2.3411 -10.4288 1.0261
-2.1043 -10.3414 1.0132
-1.8841 -10.3145 1.0066
-1.6711 -10.3159 1.0033
-1.4592 -10.3158 1.0002
-1.2468 -10.3008 0.9961
-1.0499 -10.4251 1.0059
-0.8332 -10.3533 0.9972
-0.6230 -10.3318 0.9937
-0.4144 -10.3161 0.9912
-0.2064 -10.2758 0.9867
-0.0000 -10.2586 1.2186
0.2085 -10.3856 1.2339
0.4128 -10.2785 1.2219
0.6164 -10.2233 1.2166
0.8305 -10.3208 1.2299
1.0374 -10.3018 1.2299
1.2578 -10.3924 1.2435
1.4392 -10.1747 1.2206
1.6688 -10.3020 1.2397
1.8702 -10.2393 1.2364
2.0963 -10.3024 1.2489
2.3186 -10.3292 1.2575
2.4863 -10.1211 1.2380
2.6937 -10.0868 1.2402
2.8762 -9.9633 1.2318
3.1711 -10.2112 1.2701
3.3820 -10.1651 1.2725
3.6609 -10.3079 1.2994
3.8433 -10.1693 1.2914
4.1519 -10.3529 1.3250
4.3701 -10.2937 1.3284
4.2688 -9.5193 1.2393
4.8937 -10.3511 1.3601
5.1096 -10.2691 1.3625
5.4075 -10.3420 1.3863
5.6423 -10.2829 1.3933
5.9444 -10.3360 1.4163
6.2127 -10.3176 1.4306
6.5005 -10.3209 1.4489
6.8642 -10.4281 1.4830
13.2351 -19.2537 2.7753
13.6189 -18.9842 2.7753
13.9972 -18.7070 2.7753
14.3699 -18.4223 2.7753
14.7368 -18.1301 2.7753
15.0977 -17.8306 2.7753
15.4526 -17.5240 2.7753
15.8012 -17.2103 2.7753
14.8355 -15.5212 2.5504
16.4793 -16.5622 2.7753
16.4334 -15.8660 2.7134
17.1308 -15.8874 2.7753
17.4462 -15.5404 2.7753
17.7547 -15.1870 2.7753
18.0611 -14.8319 2.7761
18.3751 -14.4820 2.7791
18.7026 -14.1409 2.7851
19.0401 -13.8043 2.7936
19.3335 -13.4333 2.7965
19.5981 -13.0417 2.7963
19.8546 -12.6449 2.7961
20.1029 -12.2429 2.7959
20.3429 -11.8359 2.7957
20.5745 -11.4241 2.7954
20.7976 -11.0077 2.7952
21.0121 -10.5869 2.7949
21.2179 -10.1619 2.7945
21.4150 -9.7327 2.7942
21.6032 -9.2997 2.7938
21.7825 -8.8629 2.7934
21.9527 -8.4227 2.7930
22.1140 -7.9791 2.7926
22.2660 -7.5324 2.7921
22.4089 -7.0827 2.7917
22.5426 -6.6303 2.7912
22.6669 -6.1753 2.7906
22.7819 -5.7180 2.7901
22.8875 -5.2585 2.7896
22.9837 -4.7970 2.7890
23.0704 -4.3338 2.7884
23.1477 -3.8690 2.7878
23.2153 -3.4028 2.7871
23.2735 -2.9354 2.7865
23.3221 -2.4670 2.7858
23.3611 -1.9979 2.7851
23.3905 -1.5282 2.7844
23.4104 -1.0581 2.7837
23.4206 -0.5878 2.7829
23.4213 -0.1176 2.7822
23.4124 0.3525 2.7814
23.3939 0.8221 2.7806
23.3659 1.2912 2.7798
23.3283 1.7594 2.7789
23.2812 2.2267 2.7781
23.2247 2.6927 2.7772
23.1587 3.1573 2.7764
23.0833 3.6204 2.7755
23.0045 4.0828 2.7753
22.9179 4.5437 2.7753
22.8221 5.0028 2.7753
22.7170 5.4599 2.7753
22.6029 5.9148 2.7753
22.4796 6.3673 2.7753
22.3472 6.8172 2.7753
22.2059 7.2644 2.7753
22.0556 7.7087 2.7753
21.8964 8.1499 2.7753
21.7284 8.5878 2.7753
21.5517 9.0222 2.7753
21.3600 9.4502 2.7745
21.1593 9.8739 2.7736
20.9501 10.2933 2.7727
20.7325 10.7083 2.7718
20.5066 11.1186 2.7709
20.2726 11.5242 2.7700
20.0305 11.9248 2.7691
19.7804 12.3203 2.7681
19.5218 12.7101 2.7671
19.2220 13.0717 2.7612
18.9239 13.4323 2.7566
18.6320 13.7958 2.7539
18.3356 14.1549 2.7515
18.0322 14.5075 2.7491
17.7221 14.8538 2.7468
17.4053 15.1934 2.7444
17.0821 15.5263 2.7420
16.7525 15.8523 2.7397
16.4168 16.1714 2.7373
16.0750 16.4835 2.7349
15.7273 16.7883 2.7326
15.3739 17.0859 2.7302
15.0149 17.3761 2.7279
14.6505 17.6589 2.7255
14.2809 17.9340 2.7232
13.9062 18.2016 2.7209
13.5265 18.4613 2.7186
13.1421 18.7133 2.7163
12.7531 18.9573 2.7140
12.3596 19.1934 2.7117
11.9619 19.4214 2.7095
11.5600 19.6413 2.7072
11.1542 19.8530 2.7050
10.7447 20.0564 2.7028
10.3315 20.2516 2.7006
9.9149 20.4384 2.6984
9.4950 20.6167 2.6962
9.0721 20.7866 2.6941
8.6462 20.9480 2.6919
8.2175 21.1008 2.6898
7.7863 21.2451 2.6878
7.3418 21.3491 2.6817
6.8949 21.4396 2.6752
6.4475 21.5215 2.6687
5.9998 21.5950 2.6623
5.5521 21.6600 2.6561
5.1043 21.7165 2.6499
4.6567 21.7647 2.6439
4.2094 21.8046 2.6379
3.7625 21.8362 2.6321
3.3162 21.8595 2.6263
2.8706 21.8747 2.6207
2.4258 21.8816 2.6152
1.9820 21.8805 2.6097
1.5392 21.8714 2.6044
1.0977 21.8542 2.5992
0.6575 21.8291 2.5942
0.2188 21.7961 2.5892
-0.2184 21.7553 2.5844
-0.6538 21.7067 2.5796
-1.0874 21.6504 2.5750
-1.5191 21.5864 2.5705
-1.9488 21.5148 2.5661
-2.3763 21.4357 2.5619
-2.8016 21.3490 2.5577
-3.2245 21.2550 2.5537
-3.6449 21.1536 2.5498
-4.0627 21.0448 2.5460
-4.4769 20.9246 2.5418
-4.8871 20.7926 2.5372
-5.2942 20.6539 2.5327
-5.6980 20.5086 2.5284
-6.0985 20.3567 2.5243
-6.4957 20.1984 2.5203
-6.8894 20.0336 2.5165
-7.2795 19.8624 2.5128
-7.6661 19.6849 2.5094
-8.0490 19.5012 2.5060
-3.9360 9.0184 1.1688
-4.1006 8.9038 1.1644
-9.1751 18.9134 2.4970
-9.5427 18.7054 2.4944
-5.7922 10.8119 1.4570
-6.0107 10.6982 1.4576
-10.6212 18.0463 2.4874
