ply
format ascii 1.0
element vertex 2176
property float32 x
property float32 y
property float32 z
end_header
7.4044 1.6231 2.9049
7.3703 1.7714 2.9049
7.3333 1.9190 2.9049
7.2933 2.0658 2.9049
7.2503 2.2118 2.9049
7.2045 2.3569 2.9049
7.1557 2.5010 2.9049
7.1041 2.6442 2.9049
7.0496 2.7862 2.9049
6.9922 2.9272 2.9049
6.9321 3.0669 2.9049
6.8691 3.2055 2.9049
6.8034 3.3427 2.9049
6.7349 3.4786 2.9049
6.6637 3.6131 2.9049
6.5899 3.7461 2.9049
6.5133 3.8776 2.9049
6.4342 4.0076 2.9049
6.3525 4.1359 2.9049
6.2682 4.2626 2.9049
6.1813 4.3876 2.9049
6.0920 4.5108 2.9049
6.0003 4.6321 2.9049
5.9061 4.7516 2.9049
5.8095 4.8692 2.9049
5.7106 4.9849 2.9049
5.6094 5.0985 2.9049
5.5059 5.2101 2.9049
5.4002 5.3195 2.9049
5.2923 5.4269 2.9049
5.1824 5.5320 2.9049
5.0703 5.6349 2.9049
4.9561 5.7355 2.9049
4.8400 5.8339 2.9049
4.7219 5.9299 2.9049
4.6020 6.0234 2.9049
4.4801 6.1146 2.9049
4.3565 6.2033 2.9049
4.2311 6.2895 2.9049
4.1040 6.3732 2.9049
3.9752 6.4542 2.9049
3.8449 6.5327 2.9049
3.7130 6.6086 2.9049
3.5796 6.6818 2.9049
3.4447 6.7523 2.9049
3.3085 6.8201 2.9049
3.1709 6.8851 2.9049
3.0321 6.9474 2.9049
2.8920 7.0068 2.9049
2.7508 7.0635 2.9049
2.6085 7.1173 2.9049
2.4651 7.1682 2.9049
2.3207 7.2162 2.9049
2.1754 7.2614 2.9049
2.0292 7.3036 2.9049
1.8822 7.3428 2.9049
1.7344 7.3791 2.9049
1.5859 7.4125 2.9049
1.4368 7.4428 2.9049
1.2871 7.4701 2.9049
1.1369 7.4945 2.9049
0.9863 7.5158 2.9049
0.8352 7.5341 2.9049
0.6838 7.5493 2.9049
0.5321 7.5615 2.9049
0.3803 7.5707 2.9049
0.2282 7.5768 2.9049
0.0761 7.5798 2.9049
-0.0761 7.5798 2.9049
-0.2282 7.5768 2.9049
-0.3803 7.5707 2.9049
-0.5321 7.5615 2.9049
-0.6838 7.5493 2.9049
-0.8352 7.5341 2.9049
-0.9863 7.5158 2.9049
-1.1369 7.4945 2.9049
-1.2871 7.4702 2.9049
-1.4368 7.4428 2.9049
-1.5859 7.4125 2.9049
-1.7344 7.3791 2.9049
-1.8822 7.3428 2.9049
-2.0292 7.3036 2.9049
-2.1754 7.2614 2.9049
-2.3207 7.2162 2.9049
-2.4651 7.1682 2.9049
-2.6085 7.1173 2.9049
-2.7508 7.0635 2.9049
-2.8920 7.0069 2.9049
-3.0321 6.9474 2.9049
-3.1709 6.8851 2.9049
-3.3085 6.8201 2.9049
-3.4447 6.7523 2.9049
-3.5796 6.6818 2.9049
-3.7130 6.6086 2.9049
-3.8449 6.5327 2.9049
-3.9752 6.4542 2.9049
-4.1040 6.3732 2.9049
-4.2311 6.2895 2.9049
-4.3565 6.2033 2.9049
-4.4801 6.1146 2.9049
-4.6020 6.0234 2.9049
-4.7219 5.9299 2.9049
-4.8400 5.8339 2.9049
-4.9561 5.7355 2.9049
-5.0703 5.6349 2.9049
-5.1824 5.5320 2.9049
-5.2923 5.4269 2.9049
-5.4002 5.3195 2.9049
-5.5059 5.2101 2.9049
-5.6094 5.0985 2.9049
-5.7106 4.9849 2.9049
-5.8095 4.8692 2.9049
-5.9061 4.7516 2.9049
-6.0003 4.6321 2.9049
-6.0920 4.5108 2.9049
-6.1813 4.3876 2.9049
-6.2682 4.2626 2.9049
-6.3525 4.1359 2.9049
-6.4342 4.0076 2.9049
-6.5133 3.8776 2.9049
-6.5899 3.7461 2.9049
-6.6637 3.6131 2.9049
-6.7349 3.4786 2.9049
-6.8034 3.3427 2.9049
-6.8691 3.2055 2.9049
-6.9321 3.0669 2.9049
-6.9922 2.9272 2.9049
-7.0496 2.7862 2.9049
-7.1041 2.6442 2.9049
-7.1557 2.5010 2.9049
-7.2045 2.3569 2.9049
-7.2504 2.2118 2.9049
-7.2933 2.0658 2.9049
-7.3333 1.9190 2.9049
-7.3703 1.7714 2.9049
-7.4044 1.6231 2.9049
-7.4355 1.4742 2.9049
-7.4636 1.3246 2.9049
-7.4887 1.1746 2.9049
-7.5107 1.0240 2.9049
-7.5298 0.8730 2.9049
-7.5458 0.7217 2.9049
-7.5587 0.5701 2.9049
-7.5687 0.4183 2.9049
-7.5755 0.2662 2.9049
-7.5794 0.1141 2.9049
-7.5801 -0.0380 2.9049
-7.5778 -0.1902 2.9049
-7.5725 -0.3422 2.9049
-7.5641 -0.4942 2.9049
-7.5526 -0.6459 2.9049
-7.5382 -0.7974 2.9049
-7.5206 -0.9485 2.9049
-7.5001 -1.0993 2.9049
-7.4765 -1.2496 2.9049
-7.4499 -1.3994 2.9049
-7.4203 -1.5487 2.9049
-7.3877 -1.6973 2.9049
-7.3522 -1.8453 2.9049
-7.3137 -1.9925 2.9049
-7.2722 -2.1389 2.9049
-7.2278 -2.2845 2.9049
-7.1805 -2.4291 2.9049
-7.1303 -2.5727 2.9049
-7.0772 -2.7153 2.9049
-7.0213 -2.8568 2.9049
-6.9625 -2.9972 2.9049
-6.9009 -3.1363 2.9049
-6.8366 -3.2742 2.9049
-6.7695 -3.4108 2.9049
-6.6997 -3.5460 2.9049
-6.6271 -3.6797 2.9049
-6.5519 -3.8120 2.9049
-6.4741 -3.9428 2.9049
-6.3936 -4.0719 2.9049
-6.3106 -4.1995 2.9049
-6.2251 -4.3253 2.9049
-6.1370 -4.4494 2.9049
-6.0464 -4.5716 2.9049
-5.9535 -4.6921 2.9049
-5.8581 -4.8106 2.9049
-5.7603 -4.9273 2.9049
-5.6603 -5.0419 2.9049
-5.5579 -5.1545 2.9049
-5.4533 -5.2650 2.9049
-5.3465 -5.3734 2.9049
-5.2376 -5.4797 2.9049
-5.1266 -5.5837 2.9049
-5.0135 -5.6855 2.9049
-4.8983 -5.7850 2.9049
-4.7812 -5.8821 2.9049
-4.6622 -5.9769 2.9049
-4.5413 -6.0693 2.9049
-4.4185 -6.1592 2.9049
-4.2594 -6.1963 2.8814
-4.0830 -6.2029 2.8458
-3.9108 -6.2091 2.8121
-3.7424 -6.2150 2.7802
-3.5831 -6.2306 2.7544
-3.4552 -6.2968 2.7525
-3.3281 -6.3649 2.7525
-3.1998 -6.4307 2.7526
-3.0702 -6.4941 2.7528
-2.9394 -6.5548 2.7529
-2.8074 -6.6128 2.7531
-2.6743 -6.6682 2.7532
-2.5400 -6.7209 2.7534
-2.4047 -6.7708 2.7535
-2.2684 -6.8181 2.7536
-2.1312 -6.8625 2.7537
-1.9931 -6.9042 2.7538
-1.8542 -6.9430 2.7539
-1.7144 -6.9789 2.7540
-1.5740 -7.0120 2.7540
-1.4330 -7.0422 2.7540
-1.2913 -7.0695 2.7540
-1.1491 -7.0939 2.7540
-1.0065 -7.1154 2.7539
-0.8634 -7.1340 2.7538
-0.7200 -7.1496 2.7537
-0.5763 -7.1623 2.7536
-0.4324 -7.1720 2.7535
-0.2884 -7.1788 2.7533
-0.1442 -7.1827 2.7531
-0.0000 -6.7969 2.7818
0.1380 -6.8748 2.8142
0.2796 -6.9605 2.8511
0.4254 -7.0554 2.8928
0.5693 -7.0747 2.9049
0.7112 -7.0619 2.9049
0.8528 -7.0462 2.9049
0.9941 -7.0276 2.9049
1.1349 -7.0063 2.9049
1.2753 -6.9821 2.9049
1.4152 -6.9551 2.9049
1.5546 -6.9253 2.9049
1.6933 -6.8927 2.9049
1.8313 -6.8573 2.9049
1.9685 -6.8191 2.9049
2.1050 -6.7782 2.9049
2.2406 -6.7346 2.9049
2.3754 -6.6883 2.9049
2.5092 -6.6393 2.9049
2.6419 -6.5876 2.9049
2.7736 -6.5332 2.9049
2.9042 -6.4762 2.9049
3.0336 -6.4166 2.9049
3.1618 -6.3544 2.9049
3.2887 -6.2897 2.9049
3.4143 -6.2224 2.9049
3.5385 -6.1526 2.9049
3.6613 -6.0804 2.9049
3.7826 -6.0056 2.9049
3.9024 -5.9285 2.9049
4.0206 -5.8490 2.9049
4.1372 -5.7671 2.9049
4.2521 -5.6829 2.9049
4.3654 -5.5964 2.9049
4.4768 -5.5076 2.9049
4.5865 -5.4167 2.9049
4.6943 -5.3235 2.9049
4.8002 -5.2282 2.9049
4.9041 -5.1308 2.9049
5.0062 -5.0313 2.9049
5.1061 -4.9298 2.9049
5.2041 -4.8263 2.9049
5.2999 -4.7209 2.9049
5.3937 -4.6136 2.9049
5.4851 -4.5044 2.9049
5.5744 -4.3934 2.9049
5.6615 -4.2806 2.9049
5.7463 -4.1661 2.9049
5.8287 -4.0499 2.9049
5.9089 -3.9321 2.9049
5.9866 -3.8127 2.9049
6.0619 -3.6918 2.9049
6.1348 -3.5693 2.9049
6.2052 -3.4455 2.9049
6.2731 -3.3202 2.9049
6.3385 -3.1936 2.9049
6.4013 -3.0658 2.9049
6.4616 -2.9366 2.9049
6.5192 -2.8063 2.9049
6.5742 -2.6749 2.9049
6.6266 -2.5424 2.9049
6.6763 -2.4089 2.9049
6.7233 -2.2744 2.9049
6.7676 -2.1390 2.9049
6.8092 -2.0027 2.9049
6.8480 -1.8656 2.9049
6.8841 -1.7278 2.9049
6.9174 -1.5893 2.9049
6.9479 -1.4501 2.9049
6.9756 -1.3104 2.9049
7.0005 -1.1701 2.9049
7.0226 -1.0293 2.9049
7.0418 -0.8881 2.9049
7.0582 -0.7466 2.9049
7.0718 -0.6048 2.9049
7.0825 -0.4627 2.9049
7.0904 -0.3205 2.9049
7.0954 -0.1781 2.9049
7.0975 -0.0356 2.9049
7.0968 0.1069 2.9049
7.0932 0.2493 2.9049
7.0868 0.3916 2.9049
7.0775 0.5338 2.9049
7.0654 0.6758 2.9049
7.0504 0.8174 2.9049
7.0325 0.9588 2.9049
7.0119 1.0998 2.9049
6.9884 1.2403 2.9049
6.9621 1.3803 2.9049
6.9330 1.5198 2.9049
6.9011 1.6586 2.9049
6.8664 1.7968 2.9049
6.8290 1.9343 2.9049
6.7887 2.0710 2.9049
6.7456 2.2066 2.9049
6.7000 2.3416 2.9049
6.6518 2.4758 2.9049
6.6007 2.6088 2.9049
6.5471 2.7408 2.9049
6.4907 2.8717 2.9049
6.4318 3.0014 2.9049
6.3702 3.1299 2.9049
6.3061 3.2571 2.9049
6.2395 3.3830 2.9049
6.1703 3.5076 2.9049
6.0987 3.6308 2.9049
6.0246 3.7525 2.9049
5.9480 3.8726 2.9049
5.8691 3.9912 2.9049
5.7878 4.1082 2.9049
5.7042 4.2236 2.9049
5.6182 4.3372 2.9049
5.5300 4.4491 2.9049
5.4396 4.5592 2.9049
5.3470 4.6675 2.9049
5.2522 4.7739 2.9049
5.1554 4.8784 2.9049
5.0564 4.9809 2.9049
4.9554 5.0813 2.9049
4.8524 5.1798 2.9049
4.7475 5.2761 2.9049
4.6406 5.3704 2.9049
4.5319 5.4625 2.9049
4.4213 5.5523 2.9049
4.3090 5.6400 2.9049
4.1949 5.7253 2.9049
4.0791 5.8084 2.9049
3.9617 5.8891 2.9049
3.8427 5.9674 2.9049
3.7221 6.0433 2.9049
3.6001 6.1168 2.9049
3.4766 6.1879 2.9049
3.3517 6.2564 2.9049
3.2254 6.3224 2.9049
3.0979 6.3859 2.9049
2.9691 6.4468 2.9049
2.8390 6.5051 2.9049
2.7079 6.5608 2.9049
2.5757 6.6138 2.9049
2.4424 6.6642 2.9049
2.3081 6.7118 2.9049
2.1729 6.7568 2.9049
2.0369 6.7991 2.9049
1.9000 6.8386 2.9049
1.7623 6.8753 2.9049
1.6240 6.9093 2.9049
1.4850 6.9405 2.9049
1.3454 6.9689 2.9049
1.2052 6.9945 2.9049
1.0646 7.0173 2.9049
0.9235 7.0373 2.9049
0.7820 7.0544 2.9049
0.6403 7.0687 2.9049
0.4983 7.0801 2.9049
0.3560 7.0887 2.9049
0.2137 7.0944 2.9049
0.0712 7.0973 2.9049
-0.0712 7.0973 2.9049
-0.2137 7.0944 2.9049
-0.3560 7.0887 2.9049
-0.4983 7.0801 2.9049
-0.6403 7.0687 2.9049
-0.7820 7.0544 2.9049
-0.9235 7.0373 2.9049
-1.0646 7.0173 2.9049
-1.2052 6.9945 2.9049
-1.3454 6.9689 2.9049
-1.4850 6.9405 2.9049
-1.6240 6.9093 2.9049
-1.7623 6.8753 2.9049
-1.9000 6.8386 2.9049
-2.0369 6.7991 2.9049
-2.1729 6.7568 2.9049
-2.3081 6.7118 2.9049
-2.4424 6.6642 2.9049
-2.5757 6.6138 2.9049
-2.7079 6.5608 2.9049
-2.8391 6.5051 2.9049
-2.9691 6.4468 2.9049
-3.0979 6.3859 2.9049
-3.2254 6.3224 2.9049
-3.3517 6.2564 2.9049
-3.4766 6.1879 2.9049
-3.6001 6.1168 2.9049
-3.7222 6.0433 2.9049
-3.8427 5.9674 2.9049
-3.9617 5.8891 2.9049
-4.0791 5.8084 2.9049
-4.1949 5.7253 2.9049
-4.3090 5.6399 2.9049
-4.4213 5.5523 2.9049
-4.5319 5.4624 2.9049
-4.6406 5.3704 2.9049
-4.7475 5.2761 2.9049
-4.8524 5.1798 2.9049
-4.9554 5.0813 2.9049
-5.0564 4.9809 2.9049
-5.1554 4.8784 2.9049
-5.2522 4.7739 2.9049
-5.3470 4.6675 2.9049
-5.4396 4.5592 2.9049
-5.5300 4.4491 2.9049
-5.6182 4.3372 2.9049
-5.7042 4.2236 2.9049
-5.7878 4.1082 2.9049
-5.8691 3.9912 2.9049
-5.9480 3.8726 2.9049
-6.0246 3.7524 2.9049
-6.0987 3.6308 2.9049
-6.1703 3.5076 2.9049
-6.2395 3.3830 2.9049
-6.3061 3.2571 2.9049
-6.3702 3.1299 2.9049
-6.4318 3.0014 2.9049
-6.4907 2.8717 2.9049
-6.5471 2.7408 2.9049
-6.6008 2.6088 2.9049
-6.6518 2.4758 2.9049
-6.7002 2.3418 2.9049
-6.7458 2.2069 2.9049
-6.7887 2.0710 2.9049
-6.8290 1.9343 2.9049
-6.8664 1.7968 2.9049
-6.9011 1.6587 2.9049
-6.9330 1.5198 2.9049
-6.9621 1.3803 2.9049
-6.9884 1.2403 2.9049
-7.0119 1.0998 2.9049
-7.0326 0.9588 2.9049
-7.0504 0.8174 2.9049
-7.0654 0.6758 2.9049
-7.0775 0.5338 2.9049
-7.0868 0.3916 2.9049
-7.0932 0.2493 2.9049
-7.0968 0.1069 2.9049
-7.0975 -0.0356 2.9049
-7.0954 -0.1781 2.9049
-7.0904 -0.3204 2.9049
-7.0825 -0.4627 2.9049
-7.0718 -0.6048 2.9049
-7.0582 -0.7466 2.9049
-7.0418 -0.8881 2.9049
-7.0226 -1.0293 2.9049
-7.0005 -1.1701 2.9049
-6.9756 -1.3103 2.9049
-6.9479 -1.4501 2.9049
-6.9174 -1.5893 2.9049
-6.8841 -1.7278 2.9049
-6.8480 -1.8656 2.9049
-6.8092 -2.0027 2.9049
-6.7676 -2.1390 2.9049
-6.7233 -2.2744 2.9049
-6.6763 -2.4089 2.9049
-6.6266 -2.5424 2.9049
-6.5743 -2.6749 2.9049
-6.5192 -2.8064 2.9049
-6.4616 -2.9366 2.9049
-6.4013 -3.0658 2.9049
-6.3385 -3.1936 2.9049
-6.2731 -3.3202 2.9049
-6.2052 -3.4455 2.9049
-6.1348 -3.5693 2.9049
-6.0619 -3.6917 2.9049
-5.9866 -3.8127 2.9049
-5.9089 -3.9321 2.9049
-5.8287 -4.0499 2.9049
-5.7463 -4.1661 2.9049
-5.6615 -4.2806 2.9049
-5.5744 -4.3934 2.9049
-5.4851 -4.5044 2.9049
-5.3936 -4.6136 2.9049
-5.2999 -4.7209 2.9049
-5.2041 -4.8263 2.9049
-5.1061 -4.9298 2.9049
-5.0062 -5.0313 2.9049
-4.9042 -5.1308 2.9049
-4.8002 -5.2282 2.9049
-4.6943 -5.3235 2.9049
-4.5865 -5.4167 2.9049
-4.4768 -5.5076 2.9049
-4.3654 -5.5964 2.9049
-4.2521 -5.6829 2.9049
-4.1372 -5.7671 2.9049
-4.0206 -5.8490 2.9049
-3.9024 -5.9285 2.9049
-3.7826 -6.0056 2.9049
-3.6613 -6.0804 2.9049
-3.5385 -6.1526 2.9049
-3.3989 -6.1944 2.8918
-3.2416 -6.1997 2.8633
-3.0873 -6.2046 2.8364
-2.9356 -6.2093 2.8110
-2.7865 -6.2137 2.7871
-2.6401 -6.2196 2.7654
-2.5033 -6.2420 2.7525
-2.3775 -6.2909 2.7525
-2.2508 -6.3374 2.7525
-2.1243 -6.3849 2.7540
-1.9946 -6.4228 2.7526
-1.8654 -6.4618 2.7526
-1.7353 -6.4981 2.7527
-1.6046 -6.5317 2.7527
-1.4732 -6.5627 2.7528
-1.3411 -6.5909 2.7528
-1.2086 -6.6165 2.7528
-1.0755 -6.6394 2.7528
-0.9420 -6.6595 2.7527
-0.8081 -6.6769 2.7526
-0.6739 -6.6916 2.7525
-0.5402 -6.7128 2.7563
-0.4048 -6.7130 2.7525
-0.2699 -6.7198 2.7525
-0.1353 -6.7369 2.7578
-0.0000 -6.6653 2.9049
0.1338 -6.6640 2.9049
0.2675 -6.6600 2.9049
0.4012 -6.6532 2.9049
0.5346 -6.6439 2.9049
0.6679 -6.6318 2.9049
0.8009 -6.6170 2.9049
0.9335 -6.5996 2.9049
1.0658 -6.5796 2.9049
1.1977 -6.5569 2.9049
1.3290 -6.5315 2.9049
1.4599 -6.5035 2.9049
1.5901 -6.4729 2.9049
1.7197 -6.4396 2.9049
1.8486 -6.4038 2.9049
1.9768 -6.3655 2.9049
2.1042 -6.3245 2.9049
2.2307 -6.2810 2.9049
2.3563 -6.2349 2.9049
2.4810 -6.1864 2.9049
2.6047 -6.1353 2.9049
2.7273 -6.0818 2.9049
2.8489 -6.0258 2.9049
2.9692 -5.9674 2.9049
3.0884 -5.9066 2.9049
3.2064 -5.8434 2.9049
3.3230 -5.7779 2.9049
3.4383 -5.7101 2.9049
3.5523 -5.6399 2.9049
3.6647 -5.5674 2.9049
3.7758 -5.4927 2.9049
3.8853 -5.4159 2.9049
3.9932 -5.3368 2.9049
4.0995 -5.2556 2.9049
4.2042 -5.1722 2.9049
4.3071 -5.0868 2.9049
4.4084 -4.9993 2.9049
4.5078 -4.9098 2.9049
4.6055 -4.8183 2.9049
4.7013 -4.7249 2.9049
4.7952 -4.6296 2.9049
4.8871 -4.5324 2.9049
4.9771 -4.4334 2.9049
5.0651 -4.3326 2.9049
5.1511 -4.2301 2.9049
5.2349 -4.1258 2.9049
5.3167 -4.0199 2.9049
5.3963 -3.9124 2.9049
5.4738 -3.8033 2.9049
5.5490 -3.6926 2.9049
5.6220 -3.5805 2.9049
5.6927 -3.4669 2.9049
5.7612 -3.3520 2.9049
5.8273 -3.2356 2.9049
5.8911 -3.1180 2.9049
5.9525 -2.9991 2.9049
6.0115 -2.8790 2.9049
6.0681 -2.7578 2.9049
6.1222 -2.6354 2.9049
6.1739 -2.5120 2.9049
6.2230 -2.3876 2.9049
6.2697 -2.2622 2.9049
6.3139 -2.1359 2.9049
6.3555 -2.0087 2.9049
6.3945 -1.8808 2.9049
6.4310 -1.7520 2.9049
6.4648 -1.6226 2.9049
6.4961 -1.4925 2.9049
6.5248 -1.3618 2.9049
6.5508 -1.2305 2.9049
6.5742 -1.0988 2.9049
6.5949 -0.9666 2.9049
6.6130 -0.8340 2.9049
6.6284 -0.7011 2.9049
6.6411 -0.5680 2.9049
6.6512 -0.4345 2.9049
6.6586 -0.3009 2.9049
6.6633 -0.1672 2.9049
6.6653 -0.0334 2.9049
6.6646 0.1004 2.9049
6.6612 0.2341 2.9049
6.6552 0.3678 2.9049
6.6465 0.5013 2.9049
6.6351 0.6346 2.9049
6.6210 0.7677 2.9049
6.6043 0.9004 2.9049
6.5849 1.0328 2.9049
6.5628 1.1648 2.9049
6.5381 1.2962 2.9049
6.5107 1.4272 2.9049
6.4808 1.5576 2.9049
6.4482 1.6874 2.9049
6.4131 1.8165 2.9049
6.3753 1.9449 2.9049
6.3350 2.0724 2.9049
6.2921 2.1992 2.9049
6.2467 2.3250 2.9049
6.1988 2.4500 2.9049
6.1483 2.5739 2.9049
6.0954 2.6968 2.9049
6.0401 2.8186 2.9049
5.9823 2.9393 2.9049
5.9221 3.0588 2.9049
5.8595 3.1770 2.9049
5.7945 3.2940 2.9049
5.7272 3.4096 2.9049
5.6577 3.5239 2.9049
5.5858 3.6368 2.9049
5.5117 3.7481 2.9049
5.4353 3.8580 2.9049
5.3568 3.9664 2.9049
5.2761 4.0731 2.9049
5.1933 4.1782 2.9049
5.1083 4.2816 2.9049
5.0214 4.3832 2.9049
4.9324 4.4832 2.9049
4.8414 4.5813 2.9049
4.7485 4.6775 2.9049
4.6536 4.7719 2.9049
4.5569 4.8643 2.9049
4.4583 4.9548 2.9049
4.3580 5.0433 2.9049
4.2559 5.1298 2.9049
4.1520 5.2142 2.9049
4.0465 5.2965 2.9049
3.9394 5.3766 2.9049
3.8307 5.4546 2.9049
3.7204 5.5304 2.9049
3.6087 5.6040 2.9049
3.4955 5.6753 2.9049
3.3808 5.7443 2.9049
3.2649 5.8110 2.9049
3.1476 5.8754 2.9049
3.0290 5.9374 2.9049
2.9092 5.9970 2.9049
2.7882 6.0542 2.9049
2.6661 6.1089 2.9049
2.5430 6.1612 2.9049
2.4188 6.2110 2.9049
2.2937 6.2583 2.9049
2.1676 6.3031 2.9049
2.0406 6.3453 2.9049
1.9128 6.3850 2.9049
1.7843 6.4221 2.9049
1.6550 6.4566 2.9049
1.5251 6.4886 2.9049
1.3945 6.5179 2.9049
1.2634 6.5445 2.9049
1.1318 6.5686 2.9049
0.9997 6.5900 2.9049
0.8672 6.6087 2.9049
0.7344 6.6248 2.9049
0.6013 6.6382 2.9049
0.4679 6.6489 2.9049
0.3344 6.6570 2.9049
0.2007 6.6623 2.9049
0.0669 6.6650 2.9049
-0.0669 6.6650 2.9049
-0.2007 6.6623 2.9049
-0.3344 6.6570 2.9049
-0.4679 6.6489 2.9049
-0.6013 6.6382 2.9049
-0.7344 6.6248 2.9049
-0.8672 6.6087 2.9049
-0.9997 6.5900 2.9049
-1.1318 6.5686 2.9049
-1.2634 6.5445 2.9049
-1.3945 6.5179 2.9049
-1.5251 6.4885 2.9049
-1.6550 6.4566 2.9049
-1.7843 6.4221 2.9049
-1.9128 6.3850 2.9049
-2.0406 6.3453 2.9049
-2.1676 6.3031 2.9049
-2.2937 6.2583 2.9049
-2.4188 6.2110 2.9049
-2.5430 6.1612 2.9049
-2.6661 6.1089 2.9049
-2.7882 6.0542 2.9049
-2.9092 5.9970 2.9049
-3.0290 5.9374 2.9049
-3.1476 5.8754 2.9049
-3.2649 5.8110 2.9049
-3.3808 5.7443 2.9049
-3.4955 5.6753 2.9049
-3.6087 5.6040 2.9049
-3.7204 5.5304 2.9049
-3.8307 5.4546 2.9049
-3.9394 5.3766 2.9049
-4.0465 5.2965 2.9049
-4.1520 5.2142 2.9049
-4.2559 5.1298 2.9049
-4.3580 5.0433 2.9049
-4.4583 4.9548 2.9049
-4.5569 4.8643 2.9049
-4.6536 4.7719 2.9049
-4.7485 4.6775 2.9049
-4.8414 4.5813 2.9049
-4.9324 4.4832 2.9049
-5.0214 4.3832 2.9049
-5.1083 4.2816 2.9049
-5.1933 4.1782 2.9049
-5.2761 4.0731 2.9049
-5.3568 3.9664 2.9049
-5.4353 3.8580 2.9049
-5.5117 3.7482 2.9049
-5.5858 3.6368 2.9049
-5.6577 3.5239 2.9049
-5.7273 3.4096 2.9049
-5.7945 3.2940 2.9049
-5.8595 3.1770 2.9049
-5.9221 3.0588 2.9049
-5.9823 2.9393 2.9049
-6.0401 2.8186 2.9049
-6.0954 2.6968 2.9049
-6.1483 2.5739 2.9049
-6.1988 2.4500 2.9049
-6.2467 2.3250 2.9049
-6.2921 2.1992 2.9049
-6.3350 2.0724 2.9049
-6.3753 1.9449 2.9049
-6.4131 1.8165 2.9049
-6.4482 1.6874 2.9049
-6.4808 1.5576 2.9049
-6.5108 1.4272 2.9049
-6.5381 1.2963 2.9049
-6.5628 1.1648 2.9049
-6.5849 1.0328 2.9049
-6.6043 0.9004 2.9049
-6.6210 0.7677 2.9049
-6.6351 0.6346 2.9049
-6.6465 0.5013 2.9049
-6.6552 0.3678 2.9049
-6.6612 0.2341 2.9049
-6.6646 0.1004 2.9049
-6.6653 -0.0334 2.9049
-6.6633 -0.1672 2.9049
-6.6586 -0.3009 2.9049
-6.6512 -0.4345 2.9049
-6.6411 -0.5679 2.9049
-6.6284 -0.7011 2.9049
-6.6130 -0.8340 2.9049
-6.5949 -0.9666 2.9049
-6.5742 -1.0988 2.9049
-6.5508 -1.2305 2.9049
-6.5248 -1.3618 2.9049
-6.4961 -1.4925 2.9049
-6.4648 -1.6226 2.9049
-6.4310 -1.7520 2.9049
-6.3945 -1.8807 2.9049
-6.3555 -2.0087 2.9049
-6.3139 -2.1359 2.9049
-6.2697 -2.2622 2.9049
-6.2230 -2.3876 2.9049
-6.1739 -2.5120 2.9049
-6.1222 -2.6354 2.9049
-6.0681 -2.7578 2.9049
-6.0115 -2.8790 2.9049
-5.9525 -2.9991 2.9049
-5.8911 -3.1180 2.9049
-5.8273 -3.2356 2.9049
-5.7612 -3.3520 2.9049
-5.6927 -3.4669 2.9049
-5.6220 -3.5805 2.9049
-5.5490 -3.6926 2.9049
-5.4738 -3.8033 2.9049
-5.3963 -3.9124 2.9049
-5.3167 -4.0199 2.9049
-5.2349 -4.1258 2.9049
-5.1511 -4.2301 2.9049
-5.0651 -4.3326 2.9049
-4.9771 -4.4334 2.9049
-4.8871 -4.5324 2.9049
-4.7952 -4.6296 2.9049
-4.7013 -4.7249 2.9049
-4.6055 -4.8183 2.9049
-4.5078 -4.9098 2.9049
-4.4084 -4.9993 2.9049
-4.3071 -5.0868 2.9049
-4.2042 -5.1722 2.9049
-4.0995 -5.2556 2.9049
-3.9932 -5.3368 2.9049
-3.8852 -5.4159 2.9049
-3.7758 -5.4928 2.9049
-3.6647 -5.5674 2.9049
-3.5522 -5.6399 2.9049
-3.4383 -5.7100 2.9049
-3.3230 -5.7779 2.9049
-3.2064 -5.8435 2.9049
-3.0884 -5.9066 2.9049
-2.9692 -5.9674 2.9049
-2.8489 -6.0259 2.9049
-2.7273 -6.0818 2.9049
-2.6047 -6.1353 2.9049
-2.4810 -6.1864 2.9049
-2.3414 -6.1954 2.8864
-2.2016 -6.1990 2.8670
-2.0649 -6.2063 2.8506
-1.9302 -6.2152 2.8363
-1.7967 -6.2238 2.8232
-1.6664 -6.2400 2.8148
-1.5376 -6.2592 2.8090
-1.4093 -6.2781 2.8042
-1.2827 -6.3037 2.8036
-1.1568 -6.3331 2.8057
-1.0306 -6.3623 2.8090
-0.9050 -6.3978 2.8160
-0.7792 -6.4382 2.8264
-0.6525 -6.4787 2.8378
-0.5250 -6.5245 2.8527
-0.3964 -6.5749 2.8707
-0.2664 -6.6325 2.8929
-0.1338 -6.6640 2.9049
0.0000 -6.2756 2.9049
0.1260 -6.2743 2.9049
0.2519 -6.2705 2.9049
0.3777 -6.2642 2.9049
0.5034 -6.2553 2.9049
0.6288 -6.2440 2.9049
0.7540 -6.2301 2.9049
0.8789 -6.2137 2.9049
1.0035 -6.1948 2.9049
1.1276 -6.1734 2.9049
1.2513 -6.1495 2.9049
1.3745 -6.1232 2.9049
1.4971 -6.0944 2.9049
1.6192 -6.0631 2.9049
1.7406 -6.0294 2.9049
1.8612 -5.9932 2.9049
1.9812 -5.9547 2.9049
2.1003 -5.9137 2.9049
2.2186 -5.8703 2.9049
2.3360 -5.8246 2.9049
2.4524 -5.7766 2.9049
2.5678 -5.7262 2.9049
2.6823 -5.6735 2.9049
2.7956 -5.6185 2.9049
2.9078 -5.5612 2.9049
3.0189 -5.5017 2.9049
3.1287 -5.4400 2.9049
3.2373 -5.3761 2.9049
3.3445 -5.3101 2.9049
3.4504 -5.2419 2.9049
3.5550 -5.1716 2.9049
3.6582 -5.0991 2.9049
3.7597 -5.0247 2.9049
3.8598 -4.9482 2.9049
3.9583 -4.8698 2.9049
4.0554 -4.7893 2.9049
4.1506 -4.7070 2.9049
4.2442 -4.6227 2.9049
4.3362 -4.5366 2.9049
4.4264 -4.4486 2.9049
4.5148 -4.3589 2.9049
4.6013 -4.2674 2.9049
4.6861 -4.1741 2.9049
4.7689 -4.0792 2.9049
4.8498 -3.9827 2.9049
4.9288 -3.8845 2.9049
5.0058 -3.7848 2.9049
5.0808 -3.6836 2.9049
5.1537 -3.5809 2.9049
5.2245 -3.4767 2.9049
5.2932 -3.3711 2.9049
5.3598 -3.2642 2.9049
5.4243 -3.1559 2.9049
5.4865 -3.0464 2.9049
5.5466 -2.9357 2.9049
5.6044 -2.8237 2.9049
5.6599 -2.7107 2.9049
5.7132 -2.5965 2.9049
5.7642 -2.4813 2.9049
5.8128 -2.3651 2.9049
5.8591 -2.2480 2.9049
5.9031 -2.1299 2.9049
5.9446 -2.0110 2.9049
5.9838 -1.8913 2.9049
6.0206 -1.7708 2.9049
6.0549 -1.6496 2.9049
6.0868 -1.5277 2.9049
6.1162 -1.4052 2.9049
6.1432 -1.2822 2.9049
6.1677 -1.1586 2.9049
6.1897 -1.0345 2.9049
6.2092 -0.9101 2.9049
6.2263 -0.7853 2.9049
6.2408 -0.6601 2.9049
6.2528 -0.5347 2.9049
6.2622 -0.4091 2.9049
6.2692 -0.2833 2.9049
6.2736 -0.1574 2.9049
6.2755 -0.0315 2.9049
6.2749 0.0945 2.9049
6.2717 0.2204 2.9049
6.2660 0.3463 2.9049
6.2578 0.4720 2.9049
6.2471 0.5975 2.9049
6.2338 0.7228 2.9049
6.2181 0.8478 2.9049
6.1998 0.9724 2.9049
6.1790 1.0966 2.9049
6.1558 1.2204 2.9049
6.1300 1.3438 2.9049
6.1018 1.4665 2.9049
6.0712 1.5888 2.9049
6.0380 1.7102 2.9049
6.0025 1.8311 2.9049
5.9645 1.9513 2.9049
5.9242 2.0706 2.9049
5.8814 2.1891 2.9049
5.8363 2.3067 2.9049
5.7888 2.4234 2.9049
5.7390 2.5391 2.9049
5.6869 2.6538 2.9049
5.6325 2.7674 2.9049
5.5758 2.8799 2.9049
5.5168 2.9912 2.9049
5.4557 3.1014 2.9049
5.3923 3.2103 2.9049
5.3268 3.3179 2.9049
5.2591 3.4241 2.9049
5.1893 3.5290 2.9049
5.1175 3.6324 2.9049
5.0435 3.7344 2.9049
4.9676 3.8349 2.9049
4.8896 3.9338 2.9049
4.8096 4.0312 2.9049
4.7277 4.1269 2.9049
4.6439 4.2210 2.9049
4.5583 4.3134 2.9049
4.4708 4.4040 2.9049
4.3815 4.4929 2.9049
4.2904 4.5799 2.9049
4.1976 4.6651 2.9049
4.1031 4.7484 2.9049
4.0070 4.8298 2.9049
3.9092 4.9093 2.9049
3.8099 4.9867 2.9049
3.7090 5.0622 2.9049
3.6067 5.1357 2.9049
3.5029 5.2070 2.9049
3.3977 5.2763 2.9049
3.2911 5.3434 2.9049
3.1831 5.4084 2.9049
3.0739 5.4712 2.9049
2.9635 5.5318 2.9049
2.8519 5.5902 2.9049
2.7391 5.6463 2.9049
2.6252 5.7001 2.9049
2.5102 5.7517 2.9049
2.3943 5.8009 2.9049
2.2774 5.8478 2.9049
2.1595 5.8923 2.9049
2.0408 5.9345 2.9049
1.9213 5.9743 2.9049
1.8010 6.0116 2.9049
1.6799 6.0466 2.9049
1.5582 6.0791 2.9049
1.4359 6.1091 2.9049
1.3130 6.1367 2.9049
1.1895 6.1618 2.9049
1.0656 6.1845 2.9049
0.9413 6.2046 2.9049
0.8165 6.2223 2.9049
0.6915 6.2374 2.9049
0.5661 6.2500 2.9049
0.4406 6.2601 2.9049
0.3148 6.2677 2.9049
0.1889 6.2728 2.9049
0.0630 6.2753 2.9049
-0.0630 6.2753 2.9049
-0.1889 6.2728 2.9049
-0.3148 6.2677 2.9049
-0.4406 6.2601 2.9049
-0.5661 6.2500 2.9049
-0.6915 6.2374 2.9049
-0.8165 6.2223 2.9049
-0.9413 6.2046 2.9049
-1.0656 6.1845 2.9049
-1.1895 6.1618 2.9049
-1.3130 6.1367 2.9049
-1.4359 6.1091 2.9049
-1.5582 6.0791 2.9049
-1.6799 6.0466 2.9049
-1.8010 6.0116 2.9049
-1.9213 5.9743 2.9049
-2.0408 5.9345 2.9049
-2.1595 5.8923 2.9049
-2.2774 5.8478 2.9049
-2.3943 5.8009 2.9049
-2.5102 5.7517 2.9049
-2.6252 5.7001 2.9049
-2.7391 5.6463 2.9049
-2.8519 5.5902 2.9049
-2.9635 5.5318 2.9049
-3.0739 5.4712 2.9049
-3.1831 5.4084 2.9049
-3.2911 5.3434 2.9049
-3.3977 5.2763 2.9049
-3.5029 5.2070 2.9049
-3.6067 5.1356 2.9049
-3.7091 5.0622 2.9049
-3.8099 4.9868 2.9049
-3.9092 4.9093 2.9049
-4.0070 4.8298 2.9049
-4.1031 4.7484 2.9049
-4.1976 4.6651 2.9049
-4.2904 4.5799 2.9049
-4.3815 4.4928 2.9049
-4.4708 4.4040 2.9049
-4.5583 4.3134 2.9049
-4.6439 4.2210 2.9049
-4.7277 4.1269 2.9049
-4.8096 4.0312 2.9049
-4.8896 3.9338 2.9049
-4.9676 3.8349 2.9049
-5.0435 3.7344 2.9049
-5.1175 3.6324 2.9049
-5.1894 3.5290 2.9049
-5.2591 3.4241 2.9049
-5.3268 3.3178 2.9049
-5.3923 3.2103 2.9049
-5.4557 3.1014 2.9049
-5.5168 2.9912 2.9049
-5.5758 2.8799 2.9049
-5.6325 2.7674 2.9049
-5.6869 2.6538 2.9049
-5.7390 2.5391 2.9049
-5.7888 2.4234 2.9049
-5.8363 2.3067 2.9049
-5.8814 2.1891 2.9049
-5.9242 2.0706 2.9049
-5.9645 1.9512 2.9049
-6.0025 1.8311 2.9049
-6.0380 1.7103 2.9049
-6.0712 1.5887 2.9049
-6.1018 1.4666 2.9049
-6.1300 1.3438 2.9049
-6.1558 1.2205 2.9049
-6.1790 1.0967 2.9049
-6.1998 0.9724 2.9049
-6.2181 0.8478 2.9049
-6.2338 0.7228 2.9049
-6.2471 0.5975 2.9049
-6.2578 0.4720 2.9049
-6.2660 0.3463 2.9049
-6.2717 0.2204 2.9049
-6.2749 0.0945 2.9049
-6.2755 -0.0315 2.9049
-6.2736 -0.1574 2.9049
-6.2692 -0.2833 2.9049
-6.2622 -0.4091 2.9049
-6.2528 -0.5347 2.9049
-6.2408 -0.6601 2.9049
-6.2263 -0.7853 2.9049
-6.2092 -0.9101 2.9049
-6.1897 -1.0345 2.9049
-6.1677 -1.1586 2.9049
-6.1432 -1.2822 2.9049
-6.1162 -1.4052 2.9049
-6.0868 -1.5277 2.9049
-6.0549 -1.6496 2.9049
-6.0206 -1.7708 2.9049
-5.9838 -1.8913 2.9049
-5.9446 -2.0110 2.9049
-5.9031 -2.1299 2.9049
-5.8591 -2.2480 2.9049
-5.8128 -2.3651 2.9049
-5.7642 -2.4813 2.9049
-5.7132 -2.5965 2.9049
-5.6600 -2.7107 2.9049
-5.6044 -2.8238 2.9049
-5.5466 -2.9357 2.9049
-5.4865 -3.0464 2.9049
-5.4243 -3.1559 2.9049
-5.3598 -3.2642 2.9049
-5.2932 -3.3711 2.9049
-5.2245 -3.4767 2.9049
-5.1537 -3.5809 2.9049
-5.0808 -3.6836 2.9049
-5.0058 -3.7848 2.9049
-4.9288 -3.8846 2.9049
-4.8498 -3.9827 2.9049
-4.7689 -4.0792 2.9049
-4.6861 -4.1742 2.9049
-4.6013 -4.2674 2.9049
-4.5148 -4.3589 2.9049
-4.4264 -4.4486 2.9049
-4.3362 -4.5366 2.9049
-4.2442 -4.6227 2.9049
-4.1506 -4.7070 2.9049
-4.0553 -4.7893 2.9049
-3.9583 -4.8698 2.9049
-3.8598 -4.9482 2.9049
-3.7597 -5.0247 2.9049
-3.6581 -5.0992 2.9049
-3.5550 -5.1715 2.9049
-3.4504 -5.2419 2.9049
-3.3445 -5.3101 2.9049
-3.2373 -5.3761 2.9049
-3.1287 -5.4401 2.9049
-3.0189 -5.5017 2.9049
-2.9078 -5.5612 2.9049
-2.7956 -5.6185 2.9049
-2.6823 -5.6735 2.9049
-2.5678 -5.7262 2.9049
-2.4524 -5.7765 2.9049
-2.3359 -5.8246 2.9049
-2.2186 -5.8703 2.9049
-2.1003 -5.9137 2.9049
-1.9811 -5.9547 2.9049
-1.8612 -5.9932 2.9049
-1.7406 -6.0294 2.9049
-1.6192 -6.0631 2.9049
-1.4971 -6.0944 2.9049
-1.3745 -6.1232 2.9049
-1.2513 -6.1496 2.9049
-1.1276 -6.1734 2.9049
-1.0035 -6.1948 2.9049
-0.8789 -6.2137 2.9049
-0.7540 -6.2301 2.9049
-0.6288 -6.2440 2.9049
-0.5034 -6.2553 2.9049
-0.3777 -6.2642 2.9049
-0.2519 -6.2705 2.9049
-0.1260 -6.2743 2.9049
-0.0000 -5.9220 2.9049
0.1189 -5.9208 2.9049
0.2377 -5.9172 2.9049
0.3564 -5.9112 2.9049
0.4750 -5.9029 2.9049
0.5934 -5.8922 2.9049
0.7115 -5.8791 2.9049
0.8294 -5.8636 2.9049
0.9469 -5.8458 2.9049
1.0641 -5.8256 2.9049
1.1808 -5.8030 2.9049
1.2971 -5.7782 2.9049
1.4128 -5.7510 2.9049
1.5279 -5.7215 2.9049
1.6425 -5.6896 2.9049
1.7564 -5.6555 2.9049
1.8695 -5.6191 2.9049
1.9819 -5.5805 2.9049
2.0936 -5.5396 2.9049
2.2043 -5.4964 2.9049
2.3142 -5.4511 2.9049
2.4232 -5.4035 2.9049
2.5311 -5.3538 2.9049
2.6381 -5.3019 2.9049
2.7440 -5.2479 2.9049
2.8488 -5.1917 2.9049
2.9524 -5.1335 2.9049
3.0549 -5.0732 2.9049
3.1561 -5.0109 2.9049
3.2560 -4.9465 2.9049
3.3547 -4.8802 2.9049
3.4519 -4.8119 2.9049
3.5478 -4.7416 2.9049
3.6423 -4.6694 2.9049
3.7353 -4.5954 2.9049
3.8268 -4.5195 2.9049
3.9167 -4.4417 2.9049
4.0051 -4.3622 2.9049
4.0918 -4.2810 2.9049
4.1770 -4.1980 2.9049
4.2604 -4.1133 2.9049
4.3421 -4.0269 2.9049
4.4220 -3.9389 2.9049
4.5002 -3.8494 2.9049
4.5766 -3.7583 2.9049
4.6511 -3.6657 2.9049
4.7237 -3.5716 2.9049
4.7945 -3.4760 2.9049
4.8633 -3.3791 2.9049
4.9301 -3.2808 2.9049
4.9950 -3.1812 2.9049
5.0578 -3.0803 2.9049
5.1187 -2.9781 2.9049
5.1774 -2.8748 2.9049
5.2341 -2.7703 2.9049
5.2886 -2.6647 2.9049
5.3410 -2.5580 2.9049
5.3913 -2.4502 2.9049
5.4394 -2.3415 2.9049
5.4853 -2.2319 2.9049
5.5290 -2.1213 2.9049
5.5705 -2.0099 2.9049
5.6097 -1.8977 2.9049
5.6467 -1.7847 2.9049
5.6813 -1.6710 2.9049
5.7137 -1.5566 2.9049
5.7438 -1.4416 2.9049
5.7716 -1.3260 2.9049
5.7971 -1.2099 2.9049
5.8202 -1.0933 2.9049
5.8410 -0.9762 2.9049
5.8594 -0.8588 2.9049
5.8754 -0.7410 2.9049
5.8891 -0.6229 2.9049
5.9004 -0.5046 2.9049
5.9094 -0.3861 2.9049
5.9159 -0.2674 2.9049
5.9201 -0.1486 2.9049
5.9219 -0.0297 2.9049
5.9213 0.0892 2.9049
5.9183 0.2080 2.9049
5.9130 0.3268 2.9049
5.9052 0.4454 2.9049
5.8951 0.5638 2.9049
5.8826 0.6821 2.9049
5.8679 0.8002 2.9049
5.8505 0.9176 2.9049
5.8311 1.0351 2.9049
5.8089 1.1517 2.9049
5.7846 1.2681 2.9049
5.7580 1.3839 2.9049
5.7291 1.4992 2.9049
5.6978 1.6139 2.9049
5.6643 1.7280 2.9049
5.6285 1.8413 2.9049
5.5904 1.9539 2.9049
5.5500 2.0657 2.9049
5.5074 2.1767 2.9049
5.4626 2.2868 2.9049
5.4156 2.3960 2.9049
5.3664 2.5043 2.9049
5.3151 2.6115 2.9049
5.2616 2.7176 2.9049
5.2060 2.8227 2.9049
5.1483 2.9266 2.9049
5.0885 3.0294 2.9049
5.0267 3.1309 2.9049
4.9628 3.2312 2.9049
4.8970 3.3301 2.9049
4.8291 3.4278 2.9049
4.7594 3.5240 2.9049
4.6877 3.6188 2.9049
4.6141 3.7122 2.9049
4.5386 3.8041 2.9049
4.4614 3.8944 2.9049
4.3823 3.9832 2.9049
4.3014 4.0703 2.9049
4.2189 4.1559 2.9049
4.1346 4.2397 2.9049
4.0487 4.3218 2.9049
3.9611 4.4022 2.9049
3.8719 4.4809 2.9049
3.7812 4.5577 2.9049
3.6890 4.6327 2.9049
3.5952 4.7058 2.9049
3.5001 4.7770 2.9049
3.4035 4.8463 2.9049
3.3055 4.9136 2.9049
3.2062 4.9790 2.9049
3.1056 5.0423 2.9049
3.0038 5.1037 2.9049
2.9007 5.1629 2.9049
2.7965 5.2201 2.9049
2.6912 5.2752 2.9049
2.5847 5.3281 2.9049
2.4773 5.3789 2.9049
2.3688 5.4276 2.9049
2.2594 5.4740 2.9049
2.1490 5.5183 2.9049
2.0378 5.5603 2.9049
1.9258 5.6001 2.9049
1.8130 5.6377 2.9049
1.6995 5.6729 2.9049
1.5853 5.7059 2.9049
1.4704 5.7365 2.9049
1.3550 5.7649 2.9049
1.2390 5.7909 2.9049
1.1225 5.8146 2.9049
1.0056 5.8360 2.9049
0.8882 5.8550 2.9049
0.7705 5.8717 2.9049
0.6525 5.8859 2.9049
0.5342 5.8979 2.9049
0.4157 5.9074 2.9049
0.2971 5.9145 2.9049
0.1783 5.9193 2.9049
0.0594 5.9217 2.9049
-0.0594 5.9217 2.9049
-0.1783 5.9193 2.9049
-0.2971 5.9145 2.9049
-0.4157 5.9074 2.9049
-0.5342 5.8979 2.9049
-0.6525 5.8859 2.9049
-0.7705 5.8717 2.9049
-0.8882 5.8550 2.9049
-1.0056 5.8360 2.9049
-1.1225 5.8146 2.9049
-1.2390 5.7909 2.9049
-1.3550 5.7649 2.9049
-1.4704 5.7365 2.9049
-1.5853 5.7059 2.9049
-1.6995 5.6729 2.9049
-1.8130 5.6376 2.9049
-1.9258 5.6001 2.9049
-2.0378 5.5603 2.9049
-2.1490 5.5183 2.9049
-2.2594 5.4741 2.9049
-2.3688 5.4276 2.9049
-2.4773 5.3790 2.9049
-2.5847 5.3282 2.9049
-2.6912 5.2752 2.9049
-2.7965 5.2201 2.9049
-2.9007 5.1629 2.9049
-3.0038 5.1037 2.9049
-3.1056 5.0423 2.9049
-3.2062 4.9790 2.9049
-3.3055 4.9136 2.9049
-3.4035 4.8463 2.9049
-3.5001 4.7770 2.9049
-3.5952 4.7058 2.9049
-3.6890 4.6327 2.9049
-3.7812 4.5577 2.9049
-3.8720 4.4809 2.9049
-3.9611 4.4022 2.9049
-4.0487 4.3218 2.9049
-4.1346 4.2397 2.9049
-4.2189 4.1558 2.9049
-4.3015 4.0703 2.9049
-4.3823 3.9832 2.9049
-4.4613 3.8944 2.9049
-4.5386 3.8041 2.9049
-4.6141 3.7122 2.9049
-4.6877 3.6188 2.9049
-4.7594 3.5240 2.9049
-4.8291 3.4278 2.9049
-4.8970 3.3301 2.9049
-4.9628 3.2312 2.9049
-5.0267 3.1309 2.9049
-5.0885 3.0294 2.9049
-5.1483 2.9266 2.9049
-5.2060 2.8227 2.9049
-5.2616 2.7176 2.9049
-5.3151 2.6115 2.9049
-5.3664 2.5042 2.9049
-5.4156 2.3960 2.9049
-5.4626 2.2868 2.9049
-5.5074 2.1767 2.9049
-5.5500 2.0657 2.9049
-5.5904 1.9539 2.9049
-5.6285 1.8413 2.9049
-5.6643 1.7280 2.9049
-5.6978 1.6139 2.9049
-5.7291 1.4992 2.9049
-5.7580 1.3839 2.9049
-5.7846 1.2681 2.9049
-5.8089 1.1517 2.9049
-5.8309 1.0349 2.9049
-5.8505 0.9176 2.9049
-5.8677 0.8000 2.9049
-5.8826 0.6820 2.9049
-5.8951 0.5638 2.9049
-5.9052 0.4454 2.9049
-5.9130 0.3268 2.9049
-5.9183 0.2080 2.9049
-5.9213 0.0892 2.9049
-5.9219 -0.0297 2.9049
-5.9201 -0.1486 2.9049
-5.9159 -0.2674 2.9049
-5.9094 -0.3861 2.9049
-5.9004 -0.5046 2.9049
-5.8891 -0.6229 2.9049
-5.8754 -0.7410 2.9049
-5.8594 -0.8588 2.9049
-5.8410 -0.9763 2.9049
-5.8202 -1.0933 2.9049
-5.7971 -1.2099 2.9049
-5.7716 -1.3260 2.9049
-5.7438 -1.4416 2.9049
-5.7137 -1.5566 2.9049
-5.6813 -1.6710 2.9049
-5.6467 -1.7847 2.9049
-5.6097 -1.8977 2.9049
-5.5705 -2.0099 2.9049
-5.5290 -2.1213 2.9049
-5.4853 -2.2319 2.9049
-5.4394 -2.3415 2.9049
-5.3913 -2.4502 2.9049
-5.3410 -2.5579 2.9049
-5.2886 -2.6646 2.9049
-5.2341 -2.7703 2.9049
-5.1774 -2.8748 2.9049
-5.1187 -2.9781 2.9049
-5.0578 -3.0803 2.9049
-4.9950 -3.1812 2.9049
-4.9301 -3.2808 2.9049
-4.8633 -3.3791 2.9049
-4.7945 -3.4760 2.9049
-4.7237 -3.5716 2.9049
-4.6511 -3.6657 2.9049
-4.5766 -3.7583 2.9049
-4.5002 -3.8494 2.9049
-4.4220 -3.9389 2.9049
-4.3421 -4.0269 2.9049
-4.2604 -4.1133 2.9049
-4.1770 -4.1979 2.9049
-4.0919 -4.2810 2.9049
-4.0051 -4.3622 2.9049
-3.9167 -4.4417 2.9049
-3.8268 -4.5195 2.9049
-3.7353 -4.5954 2.9049
-3.6423 -4.6694 2.9049
-3.5478 -4.7416 2.9049
-3.4519 -4.8118 2.9049
-3.3547 -4.8802 2.9049
-3.2560 -4.9465 2.9049
-3.1561 -5.0109 2.9049
-3.0549 -5.0732 2.9049
-2.9524 -5.1335 2.9049
-2.8488 -5.1917 2.9049
-2.7440 -5.2479 2.9049
-2.6381 -5.3019 2.9049
-2.5311 -5.3538 2.9049
-2.4232 -5.4035 2.9049
-2.3142 -5.4511 2.9049
-2.2043 -5.4964 2.9049
-2.0936 -5.5396 2.9049
-1.9819 -5.5805 2.9049
-1.8695 -5.6191 2.9049
-1.7564 -5.6555 2.9049
-1.6425 -5.6896 2.9049
-1.5279 -5.7215 2.9049
-1.4128 -5.7510 2.9049
-1.2971 -5.7782 2.9049
-1.1808 -5.8030 2.9049
-1.0641 -5.8256 2.9049
-0.9469 -5.8458 2.9049
-0.8294 -5.8636 2.9049
-0.7115 -5.8791 2.9049
-0.5934 -5.8922 2.9049
-0.4750 -5.9029 2.9049
-0.3564 -5.9112 2.9049
-0.2377 -5.9172 2.9049
-0.1189 -5.9208 2.9049
0.0000 -5.5994 2.9049
0.1124 -5.5983 2.9049
0.2247 -5.5949 2.9049
0.3370 -5.5893 2.9049
0.4491 -5.5814 2.9049
0.5611 -5.5712 2.9049
0.6728 -5.5589 2.9049
0.7842 -5.5442 2.9049
0.8954 -5.5274 2.9049
1.0061 -5.5083 2.9049
1.1165 -5.4870 2.9049
1.2264 -5.4635 2.9049
1.3358 -5.4377 2.9049
1.4447 -5.4098 2.9049
1.5530 -5.3797 2.9049
1.6607 -5.3475 2.9049
1.7677 -5.3131 2.9049
1.8740 -5.2765 2.9049
1.9795 -5.2378 2.9049
2.0843 -5.1971 2.9049
2.1882 -5.1542 2.9049
2.2912 -5.1092 2.9049
2.3933 -5.0622 2.9049
2.4944 -5.0131 2.9049
2.5945 -4.9621 2.9049
2.6936 -4.9090 2.9049
2.7916 -4.8539 2.9049
2.8885 -4.7969 2.9049
2.9842 -4.7380 2.9049
3.0787 -4.6771 2.9049
3.1719 -4.6144 2.9049
3.2639 -4.5498 2.9049
3.3546 -4.4833 2.9049
3.4439 -4.4151 2.9049
3.5318 -4.3451 2.9049
3.6183 -4.2733 2.9049
3.7034 -4.1998 2.9049
3.7870 -4.1246 2.9049
3.8690 -4.0478 2.9049
3.9495 -3.9693 2.9049
4.0283 -3.8892 2.9049
4.1056 -3.8076 2.9049
4.1812 -3.7244 2.9049
4.2551 -3.6397 2.9049
4.3273 -3.5536 2.9049
4.3978 -3.4660 2.9049
4.4665 -3.3770 2.9049
4.5333 -3.2867 2.9049
4.5984 -3.1951 2.9049
4.6616 -3.1021 2.9049
4.7229 -3.0079 2.9049
4.7824 -2.9125 2.9049
4.8399 -2.8159 2.9049
4.8954 -2.7182 2.9049
4.9490 -2.6194 2.9049
5.0006 -2.5195 2.9049
5.0501 -2.4186 2.9049
5.0977 -2.3168 2.9049
5.1431 -2.2140 2.9049
5.1865 -2.1103 2.9049
5.2279 -2.0058 2.9049
5.2671 -1.9004 2.9049
5.3042 -1.7943 2.9049
5.3391 -1.6875 2.9049
5.3719 -1.5800 2.9049
5.4025 -1.4718 2.9049
5.4310 -1.3631 2.9049
5.4573 -1.2538 2.9049
5.4813 -1.1440 2.9049
5.5032 -1.0338 2.9049
5.5228 -0.9231 2.9049
5.5402 -0.8120 2.9049
5.5554 -0.7007 2.9049
5.5684 -0.5890 2.9049
5.5791 -0.4771 2.9049
5.5875 -0.3650 2.9049
5.5937 -0.2528 2.9049
5.5977 -0.1405 2.9049
5.5994 -0.0281 2.9049
5.5988 0.0843 2.9049
5.5960 0.1967 2.9049
5.5909 0.3090 2.9049
5.5836 0.4211 2.9049
5.5740 0.5331 2.9049
5.5622 0.6449 2.9049
5.5481 0.7564 2.9049
5.5319 0.8677 2.9049
5.5133 0.9785 2.9049
5.4925 1.0890 2.9049
5.4696 1.1990 2.9049
5.4444 1.3085 2.9049
5.4170 1.4176 2.9049
5.3875 1.5260 2.9049
5.3558 1.6339 2.9049
5.3219 1.7410 2.9049
5.2859 1.8475 2.9049
5.2477 1.9532 2.9049
5.2075 2.0582 2.9049
5.1651 2.1623 2.9049
5.1207 2.2655 2.9049
5.0742 2.3679 2.9049
5.0256 2.4692 2.9049
4.9750 2.5696 2.9049
4.9224 2.6690 2.9049
4.8679 2.7672 2.9049
4.8114 2.8644 2.9049
4.7529 2.9604 2.9049
4.6925 3.0552 2.9049
4.6302 3.1488 2.9049
4.5661 3.2411 2.9049
4.5001 3.3321 2.9049
4.4323 3.4217 2.9049
4.3628 3.5100 2.9049
4.2914 3.5969 2.9049
4.2184 3.6823 2.9049
4.1436 3.7662 2.9049
4.0672 3.8486 2.9049
3.9891 3.9295 2.9049
3.9094 4.0088 2.9049
3.8282 4.0864 2.9049
3.7454 4.1625 2.9049
3.6611 4.2368 2.9049
3.5753 4.3094 2.9049
3.4881 4.3803 2.9049
3.3994 4.4495 2.9049
3.3094 4.5168 2.9049
3.2181 4.5823 2.9049
3.1255 4.6460 2.9049
3.0316 4.7078 2.9049
2.9365 4.7677 2.9049
2.8402 4.8257 2.9049
2.7427 4.8817 2.9049
2.6442 4.9358 2.9049
2.5446 4.9879 2.9049
2.4440 5.0379 2.9049
2.3423 5.0860 2.9049
2.2398 5.1320 2.9049
2.1363 5.1759 2.9049
2.0320 5.2177 2.9049
1.9269 5.2575 2.9049
1.8209 5.2951 2.9049
1.7143 5.3306 2.9049
1.6069 5.3639 2.9049
1.4989 5.3951 2.9049
1.3903 5.4241 2.9049
1.2812 5.4509 2.9049
1.1715 5.4755 2.9049
1.0614 5.4979 2.9049
0.9508 5.5181 2.9049
0.8398 5.5361 2.9049
0.7286 5.5519 2.9049
0.6170 5.5654 2.9049
0.5051 5.5766 2.9049
0.3931 5.5856 2.9049
0.2809 5.5924 2.9049
0.1686 5.5969 2.9049
0.0562 5.5992 2.9049
-0.0562 5.5992 2.9049
-0.1686 5.5969 2.9049
-0.2809 5.5924 2.9049
-0.3931 5.5857 2.9049
-0.5051 5.5766 2.9049
-0.6170 5.5654 2.9049
-0.7286 5.5519 2.9049
-0.8398 5.5361 2.9049
-0.9508 5.5181 2.9049
-1.0614 5.4979 2.9049
-1.1715 5.4755 2.9049
-1.2812 5.4509 2.9049
-1.3903 5.4241 2.9049
-1.4989 5.3951 2.9049
-1.6069 5.3639 2.9049
-1.7143 5.3306 2.9049
-1.8209 5.2951 2.9049
-1.9268 5.2575 2.9049
-2.0320 5.2177 2.9049
-2.1363 5.1759 2.9049
-2.2398 5.1320 2.9049
-2.3423 5.0860 2.9049
-2.4440 5.0380 2.9049
-2.5446 4.9879 2.9049
-2.6442 4.9358 2.9049
-2.7427 4.8817 2.9049
-2.8402 4.8257 2.9049
-2.9365 4.7677 2.9049
-3.0316 4.7078 2.9049
-3.1255 4.6460 2.9049
-3.2181 4.5823 2.9049
-3.3094 4.5168 2.9049
-3.3994 4.4495 2.9049
-3.4881 4.3803 2.9049
-3.5753 4.3094 2.9049
-3.6611 4.2368 2.9049
-3.7454 4.1625 2.9049
-3.8282 4.0865 2.9049
-3.9094 4.0088 2.9049
-3.9891 3.9295 2.9049
-4.0672 3.8486 2.9049
-4.1436 3.7662 2.9049
-4.2184 3.6823 2.9049
-4.2914 3.5969 2.9049
-4.3628 3.5100 2.9049
-4.4323 3.4217 2.9049
-4.5001 3.3321 2.9049
-4.5661 3.2411 2.9049
-4.6302 3.1488 2.9049
-4.6925 3.0552 2.9049
-4.7529 2.9604 2.9049
-4.8114 2.8644 2.9049
-4.8679 2.7672 2.9049
-4.9224 2.6690 2.9049
-4.9750 2.5696 2.9049
-5.0256 2.4692 2.9049
-5.0742 2.3679 2.9049
-5.1207 2.2655 2.9049
-5.1651 2.1623 2.9049
-5.2075 2.0582 2.9049
-5.2477 1.9532 2.9049
-5.2859 1.8475 2.9049
-5.3219 1.7410 2.9049
-5.3558 1.6339 2.9049
-5.3875 1.5260 2.9049
-5.4170 1.4176 2.9049
-5.4444 1.3086 2.9049
-5.4696 1.1990 2.9049
-5.4925 1.0890 2.9049
-5.5133 0.9785 2.9049
-5.5318 0.8676 2.9049
-5.5481 0.7564 2.9049
-5.5622 0.6449 2.9049
-5.5740 0.5331 2.9049
-5.5836 0.4211 2.9049
-5.5909 0.3090 2.9049
-5.5960 0.1967 2.9049
-5.5988 0.0843 2.9049
-5.5994 -0.0281 2.9049
-5.5977 -0.1405 2.9049
-5.5937 -0.2528 2.9049
-5.5875 -0.3650 2.9049
-5.5791 -0.4771 2.9049
-5.5684 -0.5890 2.9049
-5.5554 -0.7007 2.9049
-5.5402 -0.8120 2.9049
-5.5228 -0.9231 2.9049
-5.5032 -1.0338 2.9049
-5.4813 -1.1440 2.9049
-5.4573 -1.2538 2.9049
-5.4310 -1.3631 2.9049
-5.4025 -1.4718 2.9049
-5.3719 -1.5800 2.9049
-5.3391 -1.6875 2.9049
-5.3042 -1.7943 2.9049
-5.2671 -1.9004 2.9049
-5.2279 -2.0058 2.9049
-5.1865 -2.1103 2.9049
-5.1431 -2.2140 2.9049
-5.0977 -2.3168 2.9049
-5.0501 -2.4186 2.9049
-5.0006 -2.5195 2.9049
-4.9490 -2.6194 2.9049
-4.8954 -2.7182 2.9049
-4.8399 -2.8159 2.9049
-4.7824 -2.9125 2.9049
-4.7229 -3.0079 2.9049
-4.6616 -3.1021 2.9049
-4.5984 -3.1950 2.9049
-4.5333 -3.2867 2.9049
-4.4665 -3.3770 2.9049
-4.3978 -3.4660 2.9049
-4.3273 -3.5536 2.9049
-4.2551 -3.6397 2.9049
-4.1812 -3.7244 2.9049
-4.1056 -3.8076 2.9049
-4.0283 -3.8892 2.9049
-3.9495 -3.9693 2.9049
-3.8690 -4.0478 2.9049
-3.7870 -4.1246 2.9049
-3.7034 -4.1998 2.9049
-3.6183 -4.2733 2.9049
-3.5318 -4.3451 2.9049
-3.4439 -4.4151 2.9049
-3.3546 -4.4833 2.9049
-3.2639 -4.5498 2.9049
-3.1719 -4.6144 2.9049
-3.0787 -4.6771 2.9049
-2.9842 -4.7380 2.9049
-2.8885 -4.7969 2.9049
-2.7916 -4.8539 2.9049
-2.6936 -4.9090 2.9049
-2.5945 -4.9620 2.9049
-2.4944 -5.0131 2.9049
-2.3933 -5.0622 2.9049
-2.2912 -5.1092 2.9049
-2.1882 -5.1542 2.9049
-2.0843 -5.1970 2.9049
-1.9795 -5.2378 2.9049
-1.8740 -5.2765 2.9049
-1.7677 -5.3131 2.9049
-1.6607 -5.3475 2.9049
-1.5530 -5.3797 2.9049
-1.4447 -5.4098 2.9049
-1.3358 -5.4377 2.9049
-1.2264 -5.4635 2.9049
-1.1165 -5.4870 2.9049
-1.0061 -5.5083 2.9049
-0.8954 -5.5274 2.9049
-0.7842 -5.5442 2.9049
-0.6728 -5.5588 2.9049
-0.5611 -5.5712 2.9049
-0.4491 -5.5814 2.9049
-0.3370 -5.5893 2.9049
-0.2247 -5.5949 2.9049
-0.1124 -5.5983 2.9049
0.0000 -5.3037 2.9049
0.1065 -5.3027 2.9049
0.2129 -5.2994 2.9049
0.3192 -5.2941 2.9049
0.4254 -5.2866 2.9049
0.5314 -5.2770 2.9049
0.6373 -5.2653 2.9049
0.7428 -5.2514 2.9049
0.8481 -5.2355 2.9049
0.9530 -5.2174 2.9049
1.0575 -5.1972 2.9049
1.1617 -5.1749 2.9049
1.2653 -5.1506 2.9049
1.3684 -5.1242 2.9049
1.4710 -5.0956 2.9049
1.5730 -5.0651 2.9049
1.6743 -5.0325 2.9049
1.7750 -4.9979 2.9049
1.8750 -4.9612 2.9049
1.9742 -4.9226 2.9049
2.0726 -4.8820 2.9049
2.1702 -4.8394 2.9049
2.2669 -4.7949 2.9049
2.3627 -4.7484 2.9049
2.4575 -4.7000 2.9049
2.5514 -4.6497 2.9049
2.6442 -4.5976 2.9049
2.7359 -4.5436 2.9049
2.8266 -4.4878 2.9049
2.9161 -4.4301 2.9049
3.0044 -4.3707 2.9049
3.0916 -4.3095 2.9049
3.1774 -4.2466 2.9049
3.2620 -4.1819 2.9049
3.3453 -4.1156 2.9049
3.4273 -4.0476 2.9049
3.5078 -3.9780 2.9049
3.5870 -3.9068 2.9049
3.6647 -3.8340 2.9049
3.7409 -3.7597 2.9049
3.8156 -3.6839 2.9049
3.8888 -3.6065 2.9049
3.9604 -3.5277 2.9049
4.0304 -3.4475 2.9049
4.0988 -3.3659 2.9049
4.1655 -3.2830 2.9049
4.2306 -3.1987 2.9049
4.2939 -3.1131 2.9049
4.3556 -3.0263 2.9049
4.4154 -2.9383 2.9049
4.4735 -2.8490 2.9049
4.5298 -2.7587 2.9049
4.5843 -2.6672 2.9049
4.6369 -2.5746 2.9049
4.6876 -2.4810 2.9049
4.7365 -2.3865 2.9049
4.7834 -2.2909 2.9049
4.8285 -2.1944 2.9049
4.8715 -2.0971 2.9049
4.9126 -1.9989 2.9049
4.9518 -1.8998 2.9049
4.9889 -1.8001 2.9049
5.0240 -1.6995 2.9049
5.0571 -1.5984 2.9049
5.0882 -1.4965 2.9049
5.1172 -1.3941 2.9049
5.1442 -1.2911 2.9049
5.1691 -1.1876 2.9049
5.1919 -1.0836 2.9049
5.2126 -0.9792 2.9049
5.2312 -0.8743 2.9049
5.2477 -0.7692 2.9049
5.2620 -0.6637 2.9049
5.2743 -0.5579 2.9049
5.2844 -0.4519 2.9049
5.2924 -0.3458 2.9049
5.2983 -0.2395 2.9049
5.3021 -0.1331 2.9049
5.3037 -0.0266 2.9049
5.3031 0.0798 2.9049
5.3005 0.1863 2.9049
5.2956 0.2926 2.9049
5.2887 0.3989 2.9049
5.2796 0.5050 2.9049
5.2684 0.6108 2.9049
5.2551 0.7165 2.9049
5.2397 0.8218 2.9049
5.2221 0.9268 2.9049
5.2025 1.0315 2.9049
5.1807 1.1357 2.9049
5.1569 1.2394 2.9049
5.1310 1.3427 2.9049
5.1030 1.4454 2.9049
5.0729 1.5476 2.9049
5.0408 1.6491 2.9049
5.0067 1.7499 2.9049
4.9706 1.8501 2.9049
4.9325 1.9495 2.9049
4.8923 2.0481 2.9049
4.8502 2.1459 2.9049
4.8062 2.2428 2.9049
4.7602 2.3388 2.9049
4.7123 2.4339 2.9049
4.6625 2.5280 2.9049
4.6108 2.6211 2.9049
4.5573 2.7131 2.9049
4.5019 2.8041 2.9049
4.4447 2.8938 2.9049
4.3857 2.9825 2.9049
4.3250 3.0699 2.9049
4.2625 3.1561 2.9049
4.1983 3.2410 2.9049
4.1324 3.3247 2.9049
4.0648 3.4069 2.9049
3.9956 3.4878 2.9049
3.9248 3.5673 2.9049
3.8524 3.6454 2.9049
3.7784 3.7220 2.9049
3.7030 3.7971 2.9049
3.6260 3.8706 2.9049
3.5476 3.9426 2.9049
3.4677 4.0130 2.9049
3.3865 4.0819 2.9049
3.3038 4.1490 2.9049
3.2199 4.2145 2.9049
3.1347 4.2783 2.9049
3.0482 4.3403 2.9049
2.9604 4.4006 2.9049
2.8715 4.4592 2.9049
2.7814 4.5159 2.9049
2.6902 4.5708 2.9049
2.5979 4.6239 2.9049
2.5046 4.6751 2.9049
2.4102 4.7245 2.9049
2.3149 4.7719 2.9049
2.2186 4.8174 2.9049
2.1215 4.8610 2.9049
2.0235 4.9026 2.9049
1.9247 4.9422 2.9049
1.8251 4.9798 2.9049
1.7248 5.0155 2.9049
1.6237 5.0491 2.9049
1.5221 5.0807 2.9049
1.4198 5.1102 2.9049
1.3169 5.1377 2.9049
1.2135 5.1631 2.9049
1.1097 5.1864 2.9049
1.0053 5.2076 2.9049
0.9006 5.2267 2.9049
0.7955 5.2438 2.9049
0.6901 5.2587 2.9049
0.5844 5.2715 2.9049
0.4785 5.2821 2.9049
0.3723 5.2907 2.9049
0.2661 5.2971 2.9049
0.1597 5.3013 2.9049
0.0532 5.3035 2.9049
-0.0532 5.3035 2.9049
-0.1597 5.3013 2.9049
-0.2661 5.2971 2.9049
-0.3723 5.2907 2.9049
-0.4785 5.2821 2.9049
-0.5844 5.2714 2.9049
-0.6901 5.2587 2.9049
-0.7955 5.2437 2.9049
-0.9006 5.2267 2.9049
-1.0053 5.2076 2.9049
-1.1097 5.1864 2.9049
-1.2135 5.1630 2.9049
-1.3169 5.1377 2.9049
-1.4198 5.1102 2.9049
-1.5221 5.0806 2.9049
-1.6237 5.0491 2.9049
-1.7248 5.0155 2.9049
-1.8251 4.9798 2.9049
-1.9247 4.9422 2.9049
-2.0235 4.9026 2.9049
-2.1215 4.8610 2.9049
-2.2186 4.8174 2.9049
-2.3149 4.7719 2.9049
-2.4102 4.7245 2.9049
-2.5046 4.6751 2.9049
-2.5979 4.6239 2.9049
-2.6902 4.5708 2.9049
-2.7814 4.5159 2.9049
-2.8715 4.4592 2.9049
-2.9604 4.4006 2.9049
-3.0481 4.3403 2.9049
-3.1347 4.2783 2.9049
-3.2199 4.2145 2.9049
-3.3038 4.1490 2.9049
-3.3865 4.0819 2.9049
-3.4677 4.0131 2.9049
-3.5476 3.9426 2.9049
-3.6260 3.8706 2.9049
-3.7030 3.7971 2.9049
-3.7784 3.7220 2.9049
-3.8524 3.6454 2.9049
-3.9248 3.5673 2.9049
-3.9956 3.4878 2.9049
-4.0648 3.4069 2.9049
-4.1324 3.3247 2.9049
-4.1983 3.2410 2.9049
-4.2625 3.1561 2.9049
-4.3250 3.0699 2.9049
-4.3857 2.9825 2.9049
-4.4447 2.8938 2.9049
-4.5019 2.8040 2.9049
-4.5573 2.7131 2.9049
-4.6108 2.6211 2.9049
-4.6625 2.5280 2.9049
-4.7123 2.4339 2.9049
-4.7602 2.3388 2.9049
-4.8062 2.2428 2.9049
-4.8502 2.1459 2.9049
-4.8923 2.0481 2.9049
-4.9325 1.9495 2.9049
-4.9706 1.8501 2.9049
-5.0067 1.7499 2.9049
-5.0409 1.6491 2.9049
-5.0729 1.5476 2.9049
-5.1030 1.4454 2.9049
-5.1310 1.3427 2.9049
-5.1569 1.2394 2.9049
-5.1807 1.1357 2.9049
-5.2025 1.0315 2.9049
-5.2221 0.9268 2.9049
-5.2397 0.8218 2.9049
-5.2551 0.7165 2.9049
-5.2684 0.6108 2.9049
-5.2796 0.5050 2.9049
-5.2887 0.3989 2.9049
-5.2957 0.2926 2.9049
-5.3005 0.1863 2.9049
-5.3031 0.0799 2.9049
-5.3037 -0.0266 2.9049
-5.3021 -0.1330 2.9049
-5.2983 -0.2395 2.9049
-5.2924 -0.3458 2.9049
-5.2844 -0.4519 2.9049
-5.2743 -0.5579 2.9049
-5.2620 -0.6637 2.9049
-5.2477 -0.7692 2.9049
-5.2312 -0.8743 2.9049
-5.2126 -0.9792 2.9049
-5.1919 -1.0836 2.9049
-5.1691 -1.1876 2.9049
-5.1442 -1.2911 2.9049
-5.1172 -1.3941 2.9049
-5.0882 -1.4965 2.9049
-5.0571 -1.5984 2.9049
-5.0240 -1.6996 2.9049
-4.9889 -1.8001 2.9049
-4.9518 -1.8998 2.9049
-4.9127 -1.9988 2.9049
-4.8715 -2.0971 2.9049
-4.8284 -2.1944 2.9049
-4.7835 -2.2909 2.9049
-4.7365 -2.3865 2.9049
-4.6876 -2.4811 2.9049
-4.6369 -2.5746 2.9049
-4.5843 -2.6672 2.9049
-4.5298 -2.7587 2.9049
-4.4735 -2.8491 2.9049
-4.4154 -2.9383 2.9049
-4.3556 -3.0263 2.9049
-4.2939 -3.1131 2.9049
-4.2306 -3.1987 2.9049
-4.1655 -3.2830 2.9049
-4.0988 -3.3659 2.9049
-4.0304 -3.4475 2.9049
-3.9604 -3.5277 2.9049
-3.8888 -3.6065 2.9049
-3.8156 -3.6838 2.9049
-3.7409 -3.7597 2.9049
-3.6647 -3.8340 2.9049
-3.5870 -3.9068 2.9049
-3.5078 -3.9780 2.9049
-3.4273 -4.0476 2.9049
-3.3453 -4.1156 2.9049
-3.2620 -4.1819 2.9049
-3.1774 -4.2466 2.9049
-3.0916 -4.3095 2.9049
-3.0044 -4.3707 2.9049
-2.9161 -4.4301 2.9049
-2.8266 -4.4877 2.9049
-2.7359 -4.5436 2.9049
-2.6442 -4.5976 2.9049
-2.5514 -4.6497 2.9049
-2.4575 -4.7000 2.9049
-2.3627 -4.7484 2.9049
-2.2669 -4.7948 2.9049
-2.1702 -4.8394 2.9049
-2.0726 -4.8820 2.9049
-1.9742 -4.9226 2.9049
-1.8750 -4.9612 2.9049
-1.7750 -4.9979 2.9049
-1.6743 -5.0325 2.9049
-1.5730 -5.0651 2.9049
-1.4710 -5.0956 2.9049
-1.3684 -5.1241 2.9049
-1.2653 -5.1506 2.9049
-1.1617 -5.1749 2.9049
-1.0575 -5.1972 2.9049
-0.9530 -5.2174 2.9049
-0.8481 -5.2355 2.9049
-0.7428 -5.2514 2.9049
-0.6373 -5.2653 2.9049
-0.5314 -5.2770 2.9049
-0.4254 -5.2866 2.9049
-0.3192 -5.2941 2.9049
-0.2129 -5.2994 2.9049
-0.1065 -5.3026 2.9049
0.0000 -5.0314 2.9049
0.1010 -5.0304 2.9049
0.2019 -5.0273 2.9049
0.3028 -5.0222 2.9049
0.4036 -5.0152 2.9049
0.5042 -5.0060 2.9049
0.6045 -4.9949 2.9049
0.7047 -4.9818 2.9049
0.8045 -4.9666 2.9049
0.9041 -4.9495 2.9049
1.0032 -4.9303 2.9049
1.1020 -4.9092 2.9049
1.2003 -4.8861 2.9049
1.2982 -4.8610 2.9049
1.3955 -4.8340 2.9049
1.4922 -4.8050 2.9049
1.5884 -4.7741 2.9049
1.6839 -4.7412 2.9049
1.7787 -4.7065 2.9049
1.8728 -4.6698 2.9049
1.9662 -4.6313 2.9049
2.0587 -4.5909 2.9049
2.1505 -4.5486 2.9049
2.2414 -4.5046 2.9049
2.3313 -4.4587 2.9049
2.4203 -4.4110 2.9049
2.5084 -4.3615 2.9049
2.5954 -4.3103 2.9049
2.6814 -4.2573 2.9049
2.7664 -4.2026 2.9049
2.8502 -4.1462 2.9049
2.9328 -4.0882 2.9049
3.0143 -4.0285 2.9049
3.0945 -3.9672 2.9049
3.1735 -3.9043 2.9049
3.2513 -3.8398 2.9049
3.3277 -3.7738 2.9049
3.4028 -3.7062 2.9049
3.4765 -3.6371 2.9049
3.5488 -3.5666 2.9049
3.6197 -3.4947 2.9049
3.6891 -3.4213 2.9049
3.7570 -3.3466 2.9049
3.8234 -3.2705 2.9049
3.8883 -3.1931 2.9049
3.9516 -3.1144 2.9049
4.0133 -3.0344 2.9049
4.0734 -2.9533 2.9049
4.1319 -2.8709 2.9049
4.1887 -2.7874 2.9049
4.2438 -2.7028 2.9049
4.2972 -2.6170 2.9049
4.3489 -2.5302 2.9049
4.3988 -2.4424 2.9049
4.4469 -2.3536 2.9049
4.4933 -2.2639 2.9049
4.5378 -2.1733 2.9049
4.5805 -2.0817 2.9049
4.6214 -1.9894 2.9049
2.0639 -0.8398 1.2865
2.0802 -0.7981 1.2863
2.0956 -0.7561 1.2862
4.7661 -1.6123 2.9049
4.7975 -1.5163 2.9049
4.8269 -1.4197 2.9049
4.8545 -1.3225 2.9049
4.8800 -1.2248 2.9049
4.9036 -1.1266 2.9049
4.9253 -1.0279 2.9049
4.9449 -0.9289 2.9049
4.9625 -0.8294 2.9049
4.9782 -0.7297 2.9049
4.9918 -0.6296 2.9049
5.0035 -0.5293 2.9049
