ply
format ascii 1.0
element vertex 2179
property float32 x
property float32 y
property float32 z
end_header
6.0157 -6.4060 2.2753
6.2417 -6.1859 2.2753
6.4598 -5.9579 2.2753
6.6695 -5.7222 2.2753
6.8706 -5.4791 2.2753
7.0628 -5.2289 2.2753
7.2459 -4.9720 2.2753
7.4198 -4.7087 2.2753
7.5840 -4.4393 2.2753
7.7385 -4.1642 2.2753
7.8830 -3.8838 2.2753
8.0173 -3.5983 2.2753
8.1413 -3.3082 2.2753
8.1950 -2.9920 2.2588
8.1999 -2.6643 2.2324
8.2042 -2.3437 2.2092
8.2079 -2.0291 2.1891
8.2111 -1.7197 2.1721
8.2137 -1.4145 2.1580
8.2158 -1.1129 2.1466
8.2174 -0.8140 2.1380
8.2224 -0.5173 2.1331
8.2251 -0.2216 2.1304
8.2257 0.0738 2.1298
8.2240 0.3693 2.1315
8.2202 0.6655 2.1353
8.2167 0.9631 2.1420
8.2148 1.2633 2.1520
8.2125 1.5666 2.1647
8.2095 1.8738 2.1803
8.2061 2.1857 2.1988
8.2021 2.5032 2.2204
8.1975 2.8272 2.2452
8.1923 3.1588 2.2733
8.0806 3.4538 2.2753
7.9514 3.7416 2.2753
7.8120 4.0247 2.2753
7.6625 4.3025 2.2753
7.5031 4.5748 2.2753
7.3341 4.8412 2.2753
7.1556 5.1013 2.2753
6.9679 5.3549 2.2753
6.7711 5.6015 2.2753
6.5657 5.8410 2.2753
6.3518 6.0729 2.2753
6.1297 6.2970 2.2753
5.8997 6.5130 2.2753
5.6621 6.7205 2.2753
5.4172 6.9195 2.2753
5.1654 7.1094 2.2753
4.9068 7.2903 2.2753
4.6419 7.4617 2.2753
4.3711 7.6235 2.2753
4.0947 7.7755 2.2753
3.8129 7.9175 2.2753
3.5262 8.0493 2.2753
3.2350 8.1707 2.2753
2.9397 8.2815 2.2753
2.6405 8.3817 2.2753
2.3379 8.4711 2.2753
2.0323 8.5495 2.2753
1.7241 8.6170 2.2753
1.4137 8.6733 2.2753
1.1014 8.7185 2.2753
0.7878 8.7524 2.2753
0.4731 8.7750 2.2753
0.1578 8.7863 2.2753
-0.1577 8.7863 2.2753
-0.4730 8.7750 2.2753
-0.7877 8.7524 2.2753
-1.1014 8.7185 2.2753
-1.4136 8.6733 2.2753
-1.7241 8.6170 2.2753
-2.0322 8.5495 2.2753
-2.3378 8.4711 2.2753
-2.6404 8.3817 2.2753
-2.9396 8.2815 2.2753
-3.2349 8.1707 2.2753
-3.5262 8.0493 2.2753
-3.8128 7.9175 2.2753
-4.0946 7.7755 2.2753
-4.3711 7.6235 2.2753
-4.6419 7.4617 2.2753
-4.9067 7.2903 2.2753
-5.1653 7.1094 2.2753
-5.4172 6.9195 2.2753
-5.6621 6.7205 2.2753
-5.8996 6.5130 2.2753
-6.1296 6.2970 2.2753
-6.3517 6.0729 2.2753
-6.5656 5.8410 2.2753
-6.7710 5.6015 2.2753
-6.9678 5.3549 2.2753
-7.1555 5.1013 2.2753
-7.3340 4.8412 2.2753
-7.5031 4.5748 2.2753
-7.6624 4.3025 2.2753
-7.8119 4.0247 2.2753
-7.9514 3.7416 2.2753
-8.0806 3.4538 2.2753
-8.1993 3.1615 2.2753
-8.3075 2.8652 2.2753
-8.4050 2.5651 2.2753
-8.4917 2.2617 2.2753
-8.5674 1.9555 2.2753
-8.6320 1.6467 2.2753
-8.6856 1.3357 2.2753
-8.7280 1.0231 2.2753
-8.7591 0.7091 2.2753
-8.7789 0.3943 2.2753
-8.7874 0.0789 2.2753
-8.7846 -0.2366 2.2753
-8.7704 -0.5518 2.2753
-8.7449 -0.8663 2.2753
-8.7082 -1.1796 2.2753
-8.6602 -1.4914 2.2753
-8.6011 -1.8014 2.2753
-8.5309 -2.1089 2.2753
-8.4497 -2.4138 2.2753
-8.3576 -2.7156 2.2753
-8.2548 -3.0138 2.2753
-8.1413 -3.3082 2.2753
-8.0173 -3.5983 2.2753
-7.8829 -3.8838 2.2753
-7.7384 -4.1642 2.2753
-7.5839 -4.4393 2.2753
-7.4197 -4.7087 2.2753
-7.2459 -4.9720 2.2753
-7.0628 -5.2289 2.2753
-6.8705 -5.4791 2.2753
-6.6694 -5.7222 2.2753
-6.4597 -5.9579 2.2753
-6.2417 -6.1859 2.2753
-6.0156 -6.4060 2.2753
-5.7818 -6.6178 2.2753
-5.5405 -6.8211 2.2753
-5.2921 -7.0156 2.2753
-5.0368 -7.2010 2.2753
-4.7751 -7.3772 2.2753
-4.5072 -7.5438 2.2753
-4.2335 -7.7008 2.2753
-3.9543 -7.8478 2.2753
-3.6701 -7.9847 2.2753
-3.3811 -8.1113 2.2753
-3.0878 -8.2274 2.2753
-2.7904 -8.3329 2.2753
-2.4895 -8.4277 2.2753
-2.1854 -8.5117 2.2753
-1.8784 -8.5846 2.2753
-1.5691 -8.6465 2.2753
-1.2577 -8.6973 2.2753
-0.9447 -8.7368 2.2753
-0.6305 -8.7651 2.2753
-0.3154 -8.7821 2.2753
0.0000 -8.0373 2.2753
0.2885 -8.0321 2.2753
0.5767 -8.0166 2.2753
0.8641 -7.9907 2.2753
1.1504 -7.9546 2.2753
1.4351 -7.9082 2.2753
1.7181 -7.8515 2.2753
1.9989 -7.7848 2.2753
2.2770 -7.7080 2.2753
2.5522 -7.6213 2.2753
2.8242 -7.5248 2.2753
3.0924 -7.4186 2.2753
3.3567 -7.3028 2.2753
3.6167 -7.1776 2.2753
3.8721 -7.0432 2.2753
4.1224 -6.8996 2.2753
4.3674 -6.7472 2.2753
4.6067 -6.5861 2.2753
4.8402 -6.4165 2.2753
5.0674 -6.2386 2.2753
5.2881 -6.0527 2.2753
5.5019 -5.8590 2.2753
5.7087 -5.6577 2.2753
5.9081 -5.4491 2.2753
6.0999 -5.2335 2.2753
6.2839 -5.0112 2.2753
6.4597 -4.7824 2.2753
6.6272 -4.5474 2.2753
6.7862 -4.3066 2.2753
6.9364 -4.0602 2.2753
7.0777 -3.8086 2.2753
7.2098 -3.5521 2.2753
7.3327 -3.2910 2.2753
7.4461 -3.0257 2.2753
7.5499 -2.7565 2.2753
7.6440 -2.4837 2.2753
7.7282 -2.2077 2.2753
7.8025 -1.9288 2.2753
7.8667 -1.6475 2.2753
7.9208 -1.3641 2.2753
7.9646 -1.0789 2.2753
7.9982 -0.7923 2.2753
8.0215 -0.5047 2.2753
8.0345 -0.2164 2.2753
8.0370 0.0721 2.2753
8.0292 0.3606 2.2753
8.0111 0.6486 2.2753
7.9827 0.9357 2.2753
7.9439 1.2217 2.2753
7.8950 1.5060 2.2753
7.8358 1.7885 2.2753
7.7666 2.0686 2.2753
7.6873 2.3461 2.2753
7.5982 2.6205 2.2753
7.4992 2.8915 2.2753
7.3905 3.1589 2.2753
7.2724 3.4221 2.2753
7.1449 3.6810 2.2753
7.0081 3.9351 2.2753
6.8624 4.1841 2.2753
6.7077 4.4277 2.2753
6.5445 4.6657 2.2753
6.3728 4.8976 2.2753
6.1929 5.1232 2.2753
6.0050 5.3422 2.2753
5.8093 5.5543 2.2753
5.6062 5.7592 2.2753
5.3959 5.9568 2.2753
5.1786 6.1466 2.2753
4.9546 6.3286 2.2753
4.7243 6.5023 2.2753
4.4878 6.6677 2.2753
4.2456 6.8245 2.2753
3.9979 6.9725 2.2753
3.7450 7.1115 2.2753
3.4873 7.2414 2.2753
3.2251 7.3619 2.2753
2.9587 7.4729 2.2753
2.6886 7.5743 2.2753
2.4150 7.6659 2.2753
2.1383 7.7477 2.2753
1.8588 7.8194 2.2753
1.5769 7.8811 2.2753
1.2930 7.9326 2.2753
1.0074 7.9739 2.2753
0.7205 8.0050 2.2753
0.4327 8.0257 2.2753
0.1443 8.0360 2.2753
-0.1443 8.0360 2.2753
-0.4326 8.0257 2.2753
-0.7204 8.0050 2.2753
-1.0073 7.9739 2.2753
-1.2929 7.9326 2.2753
-1.5769 7.8811 2.2753
-1.8587 7.8194 2.2753
-2.1382 7.7477 2.2753
-2.4149 7.6659 2.2753
-2.6885 7.5743 2.2753
-2.9587 7.4729 2.2753
-3.2250 7.3619 2.2753
-3.4872 7.2414 2.2753
-3.7449 7.1115 2.2753
-3.9978 6.9725 2.2753
-4.2455 6.8245 2.2753
-4.4877 6.6677 2.2753
-4.7242 6.5023 2.2753
-4.9546 6.3286 2.2753
-5.1785 6.1466 2.2753
-5.3958 5.9568 2.2753
-5.6062 5.7592 2.2753
-5.8093 5.5543 2.2753
-6.0050 5.3422 2.2753
-6.1928 5.1232 2.2753
-6.3727 4.8976 2.2753
-6.5444 4.6657 2.2753
-6.7077 4.4277 2.2753
-6.8623 4.1841 2.2753
-7.0081 3.9351 2.2753
-7.1448 3.6810 2.2753
-7.2724 3.4221 2.2753
-7.3905 3.1589 2.2753
-7.4992 2.8915 2.2753
-7.5981 2.6205 2.2753
-7.6873 2.3461 2.2753
-7.7665 2.0686 2.2753
-7.8358 1.7885 2.2753
-7.8949 1.5060 2.2753
-7.9438 1.2215 2.2753
-7.9826 0.9357 2.2753
-8.0111 0.6486 2.2753
-8.0292 0.3606 2.2753
-8.0370 0.0721 2.2753
-8.0344 -0.2164 2.2753
-8.0214 -0.5047 2.2753
-7.9981 -0.7923 2.2753
-7.9645 -1.0789 2.2753
-7.9207 -1.3641 2.2753
-7.8666 -1.6475 2.2753
-7.8024 -1.9289 2.2753
-7.7281 -2.2077 2.2753
-7.6439 -2.4837 2.2753
-7.5498 -2.7565 2.2753
-7.4460 -3.0257 2.2753
-7.3326 -3.2910 2.2753
-7.2097 -3.5521 2.2753
-7.0776 -3.8086 2.2753
-6.9363 -4.0602 2.2753
-6.7861 -4.3066 2.2753
-6.6271 -4.5474 2.2753
-6.4596 -4.7824 2.2753
-6.2838 -5.0112 2.2753
-6.0999 -5.2335 2.2753
-5.9081 -5.4491 2.2753
-5.7087 -5.6577 2.2753
-5.5019 -5.8590 2.2753
-5.2881 -6.0527 2.2753
-5.0674 -6.2386 2.2753
-4.8401 -6.4165 2.2753
-4.6067 -6.5861 2.2753
-4.3673 -6.7472 2.2753
-4.1223 -6.8996 2.2753
-3.8720 -7.0432 2.2753
-3.6167 -7.1776 2.2753
-3.3567 -7.3028 2.2753
-3.0924 -7.4186 2.2753
-2.8241 -7.5248 2.2753
-2.5521 -7.6213 2.2753
-2.2769 -7.7080 2.2753
-1.9988 -7.7848 2.2753
-1.7181 -7.8515 2.2753
-1.4351 -7.9082 2.2753
-1.1503 -7.9546 2.2753
-0.8640 -7.9907 2.2753
-0.5766 -8.0166 2.2753
-0.2885 -8.0321 2.2753
0.0000 -7.3975 2.2753
0.2656 -7.3927 2.2753
0.5308 -7.3784 2.2753
0.7953 -7.3546 2.2753
1.0588 -7.3213 2.2753
1.3209 -7.2786 2.2753
1.5813 -7.2265 2.2753
1.8397 -7.1651 2.2753
2.0957 -7.0944 2.2753
2.3490 -7.0146 2.2753
2.5993 -6.9258 2.2753
2.8463 -6.8280 2.2753
3.0895 -6.7214 2.2753
3.3288 -6.6062 2.2753
3.5638 -6.4825 2.2753
3.7942 -6.3504 2.2753
4.0197 -6.2101 2.2753
4.2400 -6.0618 2.2753
4.4549 -5.9057 2.2753
4.6640 -5.7420 2.2753
4.8671 -5.5708 2.2753
5.0640 -5.3925 2.2753
5.2543 -5.2073 2.2753
5.4378 -5.0153 2.2753
5.6143 -4.8169 2.2753
5.7836 -4.6123 2.2753
5.9455 -4.4017 2.2753
6.0996 -4.1854 2.2753
6.2459 -3.9638 2.2753
6.3842 -3.7370 2.2753
6.5142 -3.5054 2.2753
6.6358 -3.2693 2.2753
6.7489 -3.0290 2.2753
6.8533 -2.7848 2.2753
6.9489 -2.5370 2.2753
7.0355 -2.2859 2.2753
7.1130 -2.0319 2.2753
7.1813 -1.7753 2.2753
7.2404 -1.5164 2.2753
7.2902 -1.2555 2.2753
7.3306 -0.9930 2.2753
7.3615 -0.7292 2.2753
7.3829 -0.4645 2.2753
7.3948 -0.1992 2.2753
7.3972 0.0664 2.2753
7.3901 0.3319 2.2753
7.3734 0.5969 2.2753
7.3472 0.8612 2.2753
7.3116 1.1244 2.2753
7.2665 1.3861 2.2753
7.2120 1.6461 2.2753
7.1483 1.9039 2.2753
7.0753 2.1593 2.2753
6.9933 2.4119 2.2753
6.9022 2.6613 2.2753
6.8022 2.9074 2.2753
6.6935 3.1497 2.2753
6.5761 3.3879 2.2753
6.4503 3.6218 2.2753
6.3161 3.8510 2.2753
6.1738 4.0753 2.2753
6.0235 4.2942 2.2753
5.8655 4.5077 2.2753
5.6999 4.7153 2.2753
5.5270 4.9169 2.2753
5.3469 5.1121 2.2753
5.1599 5.3008 2.2753
4.9663 5.4826 2.2753
4.7663 5.6573 2.2753
4.5602 5.8248 2.2753
4.3482 5.9847 2.2753
4.1305 6.1369 2.2753
3.9076 6.2812 2.2753
3.6796 6.4174 2.2753
3.4469 6.5454 2.2753
3.2097 6.6649 2.2753
2.9684 6.7758 2.2753
2.7232 6.8780 2.2753
2.4746 6.9713 2.2753
2.2227 7.0557 2.2753
1.9681 7.1309 2.2753
1.7108 7.1969 2.2753
1.4513 7.2537 2.2753
1.1900 7.3011 2.2753
0.9272 7.3392 2.2753
0.6631 7.3677 2.2753
0.3982 7.3868 2.2753
0.1328 7.3963 2.2753
-0.1328 7.3963 2.2753
-0.3982 7.3868 2.2753
-0.6631 7.3677 2.2753
-0.9271 7.3392 2.2753
-1.1900 7.3011 2.2753
-1.4513 7.2537 2.2753
-1.7107 7.1969 2.2753
-1.9680 7.1309 2.2753
-2.2227 7.0557 2.2753
-2.4745 6.9713 2.2753
-2.7232 6.8780 2.2753
-2.9683 6.7758 2.2753
-3.2096 6.6649 2.2753
-3.4468 6.5454 2.2753
-3.6795 6.4174 2.2753
-3.9075 6.2812 2.2753
-4.1305 6.1369 2.2753
-4.3481 5.9847 2.2753
-4.5601 5.8248 2.2753
-4.7663 5.6573 2.2753
-4.9663 5.4826 2.2753
-5.1599 5.3008 2.2753
-5.3468 5.1121 2.2753
-5.5269 4.9169 2.2753
-5.6998 4.7153 2.2753
-5.8654 4.5077 2.2753
-6.0235 4.2942 2.2753
-6.1737 4.0753 2.2753
-6.3160 3.8510 2.2753
-6.4502 3.6218 2.2753
-6.5761 3.3879 2.2753
-6.6934 3.1497 2.2753
-6.8022 2.9074 2.2753
-6.9022 2.6613 2.2753
-6.9932 2.4119 2.2753
-7.0753 2.1593 2.2753
-7.1483 1.9039 2.2753
-7.2120 1.6461 2.2753
-7.2664 1.3862 2.2753
-7.3115 1.1244 2.2753
-7.3472 0.8612 2.2753
-7.3733 0.5969 2.2753
-7.3900 0.3319 2.2753
-7.3972 0.0665 2.2753
-7.3948 -0.1992 2.2753
-7.3828 -0.4645 2.2753
-7.3614 -0.7292 2.2753
-7.3305 -0.9930 2.2753
-7.2901 -1.2555 2.2753
-7.2404 -1.5164 2.2753
-7.1813 -1.7753 2.2753
-7.1129 -2.0319 2.2753
-7.0354 -2.2860 2.2753
-6.9488 -2.5370 2.2753
-6.8532 -2.7848 2.2753
-6.7488 -3.0290 2.2753
-6.6358 -3.2693 2.2753
-6.5141 -3.5054 2.2753
-6.3841 -3.7370 2.2753
-6.2459 -3.9638 2.2753
-6.0996 -4.1854 2.2753
-5.9454 -4.4017 2.2753
-5.7835 -4.6123 2.2753
-5.6143 -4.8169 2.2753
-5.4377 -5.0153 2.2753
-5.2542 -5.2073 2.2753
-5.0639 -5.3925 2.2753
-4.8671 -5.5708 2.2753
-4.6639 -5.7420 2.2753
-4.4548 -5.9057 2.2753
-4.2400 -6.0618 2.2753
-4.0197 -6.2101 2.2753
-3.7941 -6.3504 2.2753
-3.5637 -6.4825 2.2753
-3.3287 -6.6062 2.2753
-3.0894 -6.7214 2.2753
-2.8462 -6.8280 2.2753
-2.5993 -6.9258 2.2753
-2.3490 -7.0146 2.2753
-2.0957 -7.0944 2.2753
-1.8396 -7.1651 2.2753
-1.5813 -7.2265 2.2753
-1.3209 -7.2786 2.2753
-1.0587 -7.3213 2.2753
-0.7952 -7.3546 2.2753
-0.5307 -7.3784 2.2753
-0.2655 -7.3927 2.2753
0.0000 -6.8450 2.2753
0.2457 -6.8406 2.2753
0.4911 -6.8273 2.2753
0.7359 -6.8053 2.2753
0.9797 -6.7745 2.2753
1.2222 -6.7350 2.2753
1.4632 -6.6868 2.2753
1.7023 -6.6299 2.2753
1.9392 -6.5645 2.2753
2.1736 -6.4907 2.2753
2.4052 -6.4085 2.2753
2.6337 -6.3180 2.2753
2.8588 -6.2194 2.2753
3.0802 -6.1128 2.2753
3.2976 -5.9983 2.2753
3.5108 -5.8761 2.2753
3.7195 -5.7462 2.2753
3.9234 -5.6090 2.2753
4.1222 -5.4646 2.2753
4.3157 -5.3131 2.2753
4.5036 -5.1548 2.2753
4.6857 -4.9898 2.2753
4.8618 -4.8184 2.2753
5.0317 -4.6407 2.2753
5.1950 -4.4571 2.2753
5.3516 -4.2678 2.2753
5.5014 -4.0729 2.2753
5.6441 -3.8728 2.2753
5.7794 -3.6677 2.2753
5.9074 -3.4579 2.2753
6.0277 -3.2436 2.2753
6.1402 -3.0252 2.2753
6.2448 -2.8028 2.2753
6.3414 -2.5768 2.2753
6.4299 -2.3475 2.2753
6.5100 -2.1152 2.2753
6.5817 -1.8802 2.2753
6.6450 -1.6427 2.2753
6.6996 -1.4031 2.2753
6.7457 -1.1617 2.2753
6.7831 -0.9188 2.2753
6.8116 -0.6747 2.2753
6.8315 -0.4298 2.2753
6.8425 -0.1843 2.2753
6.8447 0.0614 2.2753
6.8381 0.3071 2.2753
6.8227 0.5524 2.2753
6.7984 0.7969 2.2753
6.7655 1.0404 2.2753
6.7238 1.2826 2.2753
6.6734 1.5231 2.2753
6.6144 1.7617 2.2753
6.5469 1.9980 2.2753
6.4709 2.2317 2.2753
6.3867 2.4626 2.2753
6.2942 2.6902 2.2753
6.1935 2.9144 2.2753
6.0850 3.1349 2.2753
5.9685 3.3513 2.2753
5.8443 3.5634 2.2753
5.7126 3.7709 2.2753
5.5736 3.9735 2.2753
5.4274 4.1710 2.2753
5.2742 4.3631 2.2753
5.1141 4.5497 2.2753
4.9475 4.7303 2.2753
4.7745 4.9049 2.2753
4.5954 5.0731 2.2753
4.4104 5.2348 2.2753
4.2196 5.3897 2.2753
4.0234 5.5377 2.2753
3.8220 5.6785 2.2753
3.6157 5.8121 2.2753
3.4048 5.9381 2.2753
3.1894 6.0565 2.2753
2.9700 6.1671 2.2753
2.7467 6.2697 2.2753
2.5198 6.3643 2.2753
2.2898 6.4506 2.2753
2.0567 6.5287 2.2753
1.8211 6.5983 2.2753
1.5830 6.6594 2.2753
1.3430 6.7119 2.2753
1.1012 6.7558 2.2753
0.8579 6.7910 2.2753
0.6136 6.8174 2.2753
0.3685 6.8350 2.2753
0.1229 6.8439 2.2753
-0.1229 6.8439 2.2753
-0.3685 6.8350 2.2753
-0.6136 6.8174 2.2753
-0.8579 6.7910 2.2753
-1.1011 6.7558 2.2753
-1.3429 6.7119 2.2753
-1.5830 6.6594 2.2753
-1.8210 6.5983 2.2753
-2.0567 6.5287 2.2753
-2.2897 6.4506 2.2753
-2.5198 6.3643 2.2753
-2.7466 6.2697 2.2753
-2.9699 6.1671 2.2753
-3.1893 6.0565 2.2753
-3.4047 5.9381 2.2753
-3.6157 5.8121 2.2753
-3.8220 5.6786 2.2753
-4.0233 5.5377 2.2753
-4.2196 5.3897 2.2753
-4.4103 5.2348 2.2753
-4.5954 5.0731 2.2753
-4.7745 4.9049 2.2753
-4.9475 4.7303 2.2753
-5.1141 4.5497 2.2753
-5.2741 4.3631 2.2753
-5.4273 4.1710 2.2753
-5.5735 3.9735 2.2753
-5.7126 3.7709 2.2753
-5.8443 3.5634 2.2753
-5.9684 3.3513 2.2753
-6.0849 3.1349 2.2753
-6.1935 2.9144 2.2753
-6.2941 2.6902 2.2753
-6.3866 2.4626 2.2753
-6.4709 2.2317 2.2753
-6.5468 1.9980 2.2753
-6.6143 1.7617 2.2753
-6.6734 1.5231 2.2753
-6.7237 1.2826 2.2753
-6.7654 1.0404 2.2753
-6.7984 0.7969 2.2753
-6.8226 0.5524 2.2753
-6.8381 0.3071 2.2753
-6.8446 0.0614 2.2753
-6.8425 -0.1843 2.2753
-6.8314 -0.4298 2.2753
-6.8116 -0.6748 2.2753
-6.7830 -0.9188 2.2753
-6.7456 -1.1617 2.2753
-6.6996 -1.4031 2.2753
-6.6449 -1.6427 2.2753
-6.5816 -1.8803 2.2753
-6.5099 -2.1152 2.2753
-6.4298 -2.3475 2.2753
-6.3414 -2.5768 2.2753
-6.2448 -2.8028 2.2753
-6.1402 -3.0252 2.2753
-6.0276 -3.2436 2.2753
-5.9073 -3.4579 2.2753
-5.7794 -3.6677 2.2753
-5.6440 -3.8728 2.2753
-5.5013 -4.0729 2.2753
-5.3516 -4.2678 2.2753
-5.1949 -4.4571 2.2753
-5.0316 -4.6407 2.2753
-4.8618 -4.8184 2.2753
-4.6856 -4.9898 2.2753
-4.5035 -5.1548 2.2753
-4.3156 -5.3131 2.2753
-4.1221 -5.4646 2.2753
-3.9233 -5.6090 2.2753
-3.7194 -5.7462 2.2753
-3.5108 -5.8761 2.2753
-3.2975 -5.9983 2.2753
-3.0801 -6.1128 2.2753
-2.8587 -6.2194 2.2753
-2.6336 -6.3180 2.2753
-2.4051 -6.4085 2.2753
-2.1736 -6.4907 2.2753
-1.9391 -6.5645 2.2753
-1.7023 -6.6299 2.2753
-1.4631 -6.6868 2.2753
-1.2222 -6.7350 2.2753
-0.9796 -6.7745 2.2753
-0.7358 -6.8053 2.2753
-0.4911 -6.8273 2.2753
-0.2456 -6.8406 2.2753
0.0000 -6.3626 2.2753
0.2284 -6.3585 2.2753
0.4565 -6.3462 2.2753
0.6840 -6.3257 2.2753
0.9107 -6.2971 2.2753
1.1361 -6.2603 2.2753
1.3601 -6.2155 2.2753
1.5823 -6.1627 2.2753
1.8025 -6.1019 2.2753
2.0204 -6.0333 2.2753
2.2357 -5.9569 2.2753
2.4481 -5.8728 2.2753
2.6573 -5.7811 2.2753
2.8631 -5.6820 2.2753
3.0652 -5.5756 2.2753
3.2634 -5.4620 2.2753
3.4573 -5.3413 2.2753
3.6469 -5.2137 2.2753
3.8317 -5.0795 2.2753
4.0115 -4.9387 2.2753
4.1862 -4.7915 2.2753
4.3555 -4.6381 2.2753
4.5192 -4.4788 2.2753
4.6771 -4.3137 2.2753
4.8289 -4.1430 2.2753
4.9745 -3.9670 2.2753
5.1137 -3.7859 2.2753
5.2463 -3.5999 2.2753
5.3721 -3.4093 2.2753
5.4911 -3.2142 2.2753
5.6029 -3.0150 2.2753
5.7075 -2.8120 2.2753
5.8048 -2.6053 2.2753
5.8946 -2.3952 2.2753
5.9767 -2.1821 2.2753
6.0512 -1.9662 2.2753
6.1179 -1.7477 2.2753
6.1767 -1.5269 2.2753
6.2275 -1.3042 2.2753
6.2703 -1.0798 2.2753
6.3050 -0.8541 2.2753
6.3316 -0.6272 2.2753
6.3501 -0.3995 2.2753
6.3603 -0.1713 2.2753
6.3624 0.0571 2.2753
6.3562 0.2855 2.2753
6.3419 0.5134 2.2753
6.3194 0.7408 2.2753
6.2887 0.9671 2.2753
6.2499 1.1922 2.2753
6.2031 1.4158 2.2753
6.1483 1.6376 2.2753
6.0855 1.8572 2.2753
6.0149 2.0745 2.2753
5.9366 2.2890 2.2753
5.8506 2.5007 2.2753
5.7571 2.7091 2.2753
5.6561 2.9140 2.2753
5.5479 3.1151 2.2753
5.4325 3.3123 2.2753
5.3101 3.5051 2.2753
5.1809 3.6935 2.2753
5.0449 3.8771 2.2753
4.9025 4.0557 2.2753
4.7537 4.2290 2.2753
4.5988 4.3969 2.2753
4.4381 4.5592 2.2753
4.2716 4.7156 2.2753
4.0996 4.8659 2.2753
3.9222 5.0099 2.2753
3.7399 5.1474 2.2753
3.5527 5.2784 2.2753
3.3609 5.4025 2.2753
3.1648 5.5197 2.2753
2.9647 5.6297 2.2753
2.7606 5.7325 2.2753
2.5531 5.8279 2.2753
0.8097 2.0452 0.7866
0.7356 2.0724 0.7864
0.6606 2.0970 0.7862
1.6927 6.1333 2.2753
1.4715 6.1901 2.2753
1.2483 6.2389 2.2753
1.0236 6.2797 2.2753
0.7975 6.3124 2.2753
0.5704 6.3370 2.2753
0.3425 6.3534 2.2753
0.1142 6.3616 2.2753
-0.1142 6.3616 2.2753
-0.3425 6.3534 2.2753
-0.5703 6.3370 2.2753
-0.7974 6.3124 2.2753
-1.0235 6.2797 2.2753
-1.2483 6.2389 2.2753
-1.4714 6.1901 2.2753
-1.6927 6.1333 2.2753
-0.6606 2.0971 0.7863
-0.7357 2.0725 0.7865
-0.8098 2.0453 0.7867
-2.5530 5.8279 2.2753
-2.7606 5.7325 2.2753
-2.9646 5.6297 2.2753
-3.1647 5.5197 2.2753
-3.3609 5.4025 2.2753
-3.5526 5.2784 2.2753
-3.7398 5.1474 2.2753
-3.9222 5.0099 2.2753
-4.0995 4.8659 2.2753
-4.2715 4.7156 2.2753
-4.4380 4.5592 2.2753
-4.5988 4.3969 2.2753
-4.7537 4.2290 2.2753
-4.9024 4.0557 2.2753
-5.0449 3.8771 2.2753
-5.1808 3.6935 2.2753
-5.3100 3.5051 2.2753
-5.4324 3.3123 2.2753
-5.5478 3.1151 2.2753
-5.6561 2.9140 2.2753
-5.7570 2.7091 2.2753
-5.8506 2.5007 2.2753
-5.9366 2.2890 2.2753
-6.0149 2.0745 2.2753
-6.0855 1.8572 2.2753
-6.1482 1.6376 2.2753
-6.2030 1.4158 2.2753
-6.2498 1.1922 2.2753
-6.2886 0.9671 2.2753
-6.3193 0.7407 2.2753
-6.3418 0.5134 2.2753
-6.3562 0.2855 2.2753
-6.3623 0.0571 2.2753
-6.3603 -0.1713 2.2753
-6.3500 -0.3995 2.2753
-6.3316 -0.6272 2.2753
-6.3050 -0.8541 2.2753
-6.2703 -1.0799 2.2753
-6.2274 -1.3042 2.2753
-6.1766 -1.5269 2.2753
-6.1178 -1.7477 2.2753
-6.0511 -1.9662 2.2753
-5.9767 -2.1821 2.2753
-5.8945 -2.3952 2.2753
-5.8047 -2.6053 2.2753
-5.7075 -2.8120 2.2753
-5.6028 -3.0150 2.2753
-5.4910 -3.2142 2.2753
-5.3721 -3.4092 2.2753
-5.2462 -3.5999 2.2753
-5.1136 -3.7859 2.2753
-4.9745 -3.9670 2.2753
-4.8288 -4.1430 2.2753
-4.6770 -4.3137 2.2753
-4.5192 -4.4788 2.2753
-4.3555 -4.6381 2.2753
-4.1862 -4.7915 2.2753
-4.0115 -4.9387 2.2753
-3.8316 -5.0795 2.2753
-3.6468 -5.2137 2.2753
-3.4573 -5.3413 2.2753
-3.2633 -5.4620 2.2753
-3.0652 -5.5756 2.2753
-2.8631 -5.6820 2.2753
-2.6573 -5.7811 2.2753
-2.4480 -5.8728 2.2753
-2.2356 -5.9569 2.2753
-2.0204 -6.0333 2.2753
-1.8025 -6.1019 2.2753
-1.5823 -6.1627 2.2753
-1.3601 -6.2155 2.2753
-1.1361 -6.2603 2.2753
-0.9106 -6.2971 2.2753
-0.6840 -6.3257 2.2753
-0.4564 -6.3462 2.2753
-0.2284 -6.3585 2.2753
0.0000 -5.9374 2.2753
0.2132 -5.9335 2.2753
0.1532 -2.1300 0.8184
0.2296 -2.1230 0.8183
0.3056 -2.1132 0.8182
0.3812 -2.1006 0.8181
0.4563 -2.0852 0.8180
0.5308 -2.0672 0.8179
0.6045 -2.0464 0.8177
0.6774 -2.0229 0.8175
0.7494 -1.9968 0.8173
0.8204 -1.9681 0.8171
2.4797 -5.3948 2.2753
2.6718 -5.3023 2.2753
2.8604 -5.2030 2.2753
3.0453 -5.0969 2.2753
3.2263 -4.9843 2.2753
3.4031 -4.8653 2.2753
3.5756 -4.7400 2.2753
3.7434 -4.6086 2.2753
3.9065 -4.4713 2.2753
4.0644 -4.3282 2.2753
4.2172 -4.1795 2.2753
4.3645 -4.0254 2.2753
4.5062 -3.8661 2.2753
4.6421 -3.7019 2.2753
4.7719 -3.5329 2.2753
4.8957 -3.3593 2.2753
5.0131 -3.1814 2.2753
5.1241 -2.9994 2.2753
5.2285 -2.8135 2.2753
5.3261 -2.6240 2.2753
5.4168 -2.4312 2.2753
5.5006 -2.2352 2.2753
5.5773 -2.0363 2.2753
5.6468 -1.8348 2.2753
5.7090 -1.6309 2.2753
5.7639 -1.4249 2.2753
5.8113 -1.2171 2.2753
5.8513 -1.0077 2.2753
5.8836 -0.7970 2.2753
5.9085 -0.5853 2.2753
5.9257 -0.3728 2.2753
5.9353 -0.1599 2.2753
5.9371 0.0533 2.2753
5.9314 0.2664 2.2753
5.9181 0.4791 2.2753
5.8970 0.6912 2.2753
5.8684 0.9025 2.2753
5.8322 1.1126 2.2753
5.7885 1.3212 2.2753
5.7374 1.5281 2.2753
5.6788 1.7331 2.2753
5.6130 1.9358 2.2753
5.5399 2.1361 2.2753
5.4596 2.3335 2.2753
5.3723 2.5280 2.2753
5.2781 2.7192 2.2753
5.1771 2.9069 2.2753
5.0694 3.0909 2.2753
4.9552 3.2709 2.2753
4.8346 3.4466 2.2753
4.7078 3.6180 2.2753
4.5748 3.7846 2.2753
4.4360 3.9464 2.2753
4.2915 4.1031 2.2753
4.1415 4.2545 2.2753
3.9861 4.4004 2.2753
3.8256 4.5407 2.2753
3.6601 4.6751 2.2753
3.4899 4.8034 2.2753
3.3153 4.9256 2.2753
3.1363 5.0414 2.2753
2.9533 5.1508 2.2753
2.7665 5.2535 2.2753
2.5762 5.3494 2.2753
0.8249 1.8831 0.7878
0.7566 1.9110 0.7876
0.6874 1.9364 0.7874
0.6173 1.9594 0.7873
0.5464 1.9799 0.7871
0.4749 1.9979 0.7870
0.4028 2.0134 0.7869
0.3303 2.0263 0.7868
0.2573 2.0367 0.7867
0.1840 2.0445 0.7866
0.1105 2.0496 0.7866
0.0369 2.0522 0.7866
-0.0368 2.0523 0.7866
-0.1105 2.0497 0.7866
-0.1840 2.0445 0.7867
-0.2573 2.0367 0.7867
-0.3303 2.0264 0.7868
-0.4029 2.0135 0.7869
-0.4749 1.9980 0.7870
-0.5465 1.9801 0.7872
-0.6173 1.9596 0.7873
-0.6874 1.9366 0.7875
-0.7567 1.9111 0.7877
-0.8250 1.8832 0.7879
-2.5761 5.3494 2.2753
-2.7664 5.2535 2.2753
-2.9533 5.1508 2.2753
-3.1362 5.0414 2.2753
-3.3152 4.9256 2.2753
-3.4899 4.8034 2.2753
-3.6600 4.6751 2.2753
-3.8255 4.5407 2.2753
-3.9860 4.4004 2.2753
-4.1414 4.2545 2.2753
-4.2915 4.1031 2.2753
-4.4360 3.9464 2.2753
-4.5748 3.7846 2.2753
-4.7077 3.6180 2.2753
-4.8345 3.4466 2.2753
-4.9551 3.2709 2.2753
-5.0693 3.0909 2.2753
-5.1771 2.9069 2.2753
-5.2781 2.7192 2.2753
-5.3723 2.5280 2.2753
-5.4596 2.3335 2.2753
-5.5398 2.1361 2.2753
-5.6129 1.9358 2.2753
-5.6788 1.7331 2.2753
-5.7373 1.5281 2.2753
-5.7885 1.3212 2.2753
-5.8322 1.1126 2.2753
-5.8683 0.9025 2.2753
-5.8970 0.6912 2.2753
-5.9180 0.4791 2.2753
-5.9314 0.2664 2.2753
-5.9371 0.0533 2.2753
-5.9352 -0.1599 2.2753
-5.9256 -0.3728 2.2753
-5.9084 -0.5853 2.2753
-5.8836 -0.7970 2.2753
-5.8512 -1.0077 2.2753
-5.8113 -1.2171 2.2753
-5.7638 -1.4249 2.2753
-5.7089 -1.6309 2.2753
-5.6467 -1.8348 2.2753
-5.5772 -2.0363 2.2753
-5.5006 -2.2352 2.2753
-5.4168 -2.4312 2.2753
-5.3260 -2.6240 2.2753
-5.2284 -2.8135 2.2753
-5.1240 -2.9994 2.2753
-5.0131 -3.1814 2.2753
-4.8956 -3.3593 2.2753
-4.7719 -3.5329 2.2753
-4.6420 -3.7019 2.2753
-4.5061 -3.8661 2.2753
-4.3644 -4.0254 2.2753
-4.2171 -4.1795 2.2753
-4.0644 -4.3282 2.2753
-3.9064 -4.4713 2.2753
-3.7434 -4.6086 2.2753
-3.5755 -4.7400 2.2753
-3.4031 -4.8653 2.2753
-3.2262 -4.9843 2.2753
-3.0453 -5.0969 2.2753
-2.8603 -5.2030 2.2753
-2.6717 -5.3023 2.2753
-2.4797 -5.3948 2.2753
-0.8204 -1.9682 0.8172
-0.7495 -1.9970 0.8174
-0.6775 -2.0230 0.8176
-0.6045 -2.0465 0.8178
-0.5308 -2.0673 0.8179
-0.4563 -2.0853 0.8180
-0.3812 -2.1007 0.8182
-0.3056 -2.1132 0.8183
-0.2296 -2.1230 0.8183
-0.1532 -2.1300 0.8184
-0.2131 -5.9335 2.2753
0.0000 -1.9971 0.8174
0.0717 -1.9958 0.8173
0.1433 -1.9918 0.8173
0.2147 -1.9853 0.8173
0.2858 -1.9761 0.8172
0.3565 -1.9644 0.8171
0.4267 -1.9500 0.8170
0.4963 -1.9331 0.8169
0.5653 -1.9137 0.8167
0.6335 -1.8918 0.8165
0.7009 -1.8674 0.8163
0.7673 -1.8406 0.8161
2.3218 -5.0513 2.2753
2.5017 -4.9647 2.2753
2.6782 -4.8717 2.2753
2.8514 -4.7724 2.2753
3.0209 -4.6670 2.2753
3.1865 -4.5556 2.2753
3.3480 -4.4382 2.2753
3.5051 -4.3152 2.2753
3.6577 -4.1866 2.2753
3.8057 -4.0526 2.2753
3.9487 -3.9134 2.2753
4.0866 -3.7691 2.2753
4.2193 -3.6200 2.2753
4.3465 -3.4662 2.2753
4.4681 -3.3079 2.2753
4.5840 -3.1454 2.2753
4.6939 -2.9789 2.2753
4.7978 -2.8084 2.2753
4.8956 -2.6344 2.2753
4.9870 -2.4570 2.2753
5.0720 -2.2764 2.2753
5.1504 -2.0929 2.2753
5.2222 -1.9066 2.2753
5.2873 -1.7179 2.2753
5.3456 -1.5270 2.2753
5.3969 -1.3342 2.2753
5.4414 -1.1396 2.2753
5.4787 -0.9435 2.2753
5.5091 -0.7463 2.2753
5.5323 -0.5480 2.2753
5.5484 -0.3491 2.2753
5.5573 -0.1497 2.2753
5.5592 0.0499 2.2753
5.5538 0.2494 2.2753
5.5412 0.4486 2.2753
5.5216 0.6472 2.2753
5.4948 0.8450 2.2753
5.4609 1.0417 2.2753
5.4200 1.2371 2.2753
5.3721 1.4308 2.2753
5.3173 1.6227 2.2753
5.2556 1.8126 2.2753
5.1872 2.0001 2.2753
5.1120 2.1850 2.2753
5.0303 2.3671 2.2753
4.9421 2.5461 2.2753
4.8475 2.7219 2.2753
4.7467 2.8941 2.2753
4.6397 3.0626 2.2753
4.5268 3.2272 2.2753
4.4080 3.3876 2.2753
4.2836 3.5437 2.2753
4.1536 3.6952 2.2753
4.0183 3.8419 2.2753
3.8778 3.9836 2.2753
3.7323 4.1203 2.2753
3.5820 4.2516 2.2753
3.4271 4.3774 2.2753
3.2678 4.4976 2.2753
3.1042 4.6120 2.2753
2.9366 4.7205 2.2753
2.7653 4.8228 2.2753
2.5904 4.9190 2.2753
0.8364 1.7368 0.7889
0.7733 1.7652 0.7887
0.7093 1.7914 0.7885
0.6443 1.8153 0.7884
0.5787 1.8369 0.7882
0.5122 1.8561 0.7881
0.4452 1.8730 0.7879
0.3777 1.8875 0.7878
0.3096 1.8996 0.7877
0.2412 1.9094 0.7877
0.1725 1.9167 0.7876
0.1036 1.9215 0.7876
0.0345 1.9240 0.7876
-0.0345 1.9240 0.7876
-0.1036 1.9215 0.7876
-0.1725 1.9167 0.7876
-0.2412 1.9094 0.7877
-0.3096 1.8997 0.7878
-0.3777 1.8876 0.7879
-0.4452 1.8731 0.7880
-0.5123 1.8562 0.7881
-0.5787 1.8370 0.7882
-0.6444 1.8154 0.7884
-0.7093 1.7915 0.7886
-0.7734 1.7653 0.7888
-2.4121 5.0088 2.2753
-2.5903 4.9190 2.2753
-2.7652 4.8228 2.2753
-2.9366 4.7205 2.2753
-3.1041 4.6120 2.2753
-3.2677 4.4976 2.2753
-3.4270 4.3774 2.2753
-3.5819 4.2516 2.2753
-3.7322 4.1203 2.2753
-3.8778 3.9836 2.2753
-4.0183 3.8419 2.2753
-4.1535 3.6951 2.2753
-4.2835 3.5437 2.2753
-4.4080 3.3876 2.2753
-4.5267 3.2272 2.2753
-4.6397 3.0626 2.2753
-4.7466 2.8941 2.2753
-4.8475 2.7219 2.2753
-4.9420 2.5461 2.2753
-5.0302 2.3671 2.2753
-5.1120 2.1850 2.2753
-5.1871 2.0001 2.2753
-5.2555 1.8126 2.2753
-5.3172 1.6228 2.2753
-5.3720 1.4308 2.2753
-5.4200 1.2371 2.2753
-5.4609 1.0417 2.2753
-5.4947 0.8450 2.2753
-5.5215 0.6472 2.2753
-5.5412 0.4486 2.2753
-5.5537 0.2494 2.2753
-5.5591 0.0499 2.2753
-5.5573 -0.1497 2.2753
-5.5484 -0.3491 2.2753
-5.5323 -0.5480 2.2753
-5.5090 -0.7463 2.2753
-5.4787 -0.9435 2.2753
-5.4413 -1.1396 2.2753
-5.3969 -1.3342 2.2753
-5.3455 -1.5270 2.2753
-5.2872 -1.7180 2.2753
-5.2222 -1.9066 2.2753
-5.1503 -2.0929 2.2753
-5.0719 -2.2764 2.2753
-4.9869 -2.4570 2.2753
-4.8955 -2.6344 2.2753
-4.7978 -2.8084 2.2753
-4.6939 -2.9789 2.2753
-4.5840 -3.1454 2.2753
-4.4681 -3.3079 2.2753
-4.3465 -3.4662 2.2753
-4.2192 -3.6200 2.2753
-4.0865 -3.7691 2.2753
-3.9486 -3.9134 2.2753
-3.8056 -4.0526 2.2753
-3.6577 -4.1866 2.2753
-3.5051 -4.3152 2.2753
-3.3479 -4.4382 2.2753
-3.1864 -4.5556 2.2753
-3.0208 -4.6670 2.2753
-2.8514 -4.7724 2.2753
-2.6782 -4.8717 2.2753
-2.5016 -4.9647 2.2753
-0.8327 -1.8115 0.8160
-0.7673 -1.8407 0.8162
-0.7009 -1.8676 0.8164
-0.6336 -1.8919 0.8166
-0.5653 -1.9138 0.8167
-0.4964 -1.9332 0.8169
-0.4267 -1.9501 0.8170
-0.3565 -1.9644 0.8171
-0.2858 -1.9762 0.8172
-0.2147 -1.9853 0.8173
-0.1433 -1.9919 0.8173
-0.0717 -1.9958 0.8174
0.0000 -1.8733 0.8164
0.0672 -1.8721 0.8164
0.1344 -1.8684 0.8164
0.2014 -1.8622 0.8163
0.2681 -1.8537 0.8163
0.3344 -1.8426 0.8162
0.4003 -1.8292 0.8161
0.4656 -1.8134 0.8159
0.5303 -1.7952 0.8158
0.5943 -1.7747 0.8156
0.6575 -1.7518 0.8155
0.7198 -1.7267 0.8153
0.7811 -1.6993 0.8151
2.3493 -4.6624 2.2753
2.5152 -4.5750 2.2753
2.6777 -4.4818 2.2753
2.8369 -4.3828 2.2753
2.9924 -4.2781 2.2753
3.1441 -4.1679 2.2753
3.2916 -4.0524 2.2753
3.4350 -3.9316 2.2753
3.5739 -3.8058 2.2753
3.7082 -3.6751 2.2753
3.8378 -3.5396 2.2753
3.9623 -3.3995 2.2753
4.0818 -3.2551 2.2753
4.1960 -3.1065 2.2753
4.3048 -2.9539 2.2753
4.4081 -2.7974 2.2753
4.5057 -2.6374 2.2753
4.5974 -2.4740 2.2753
4.6833 -2.3073 2.2753
4.7631 -2.1377 2.2753
4.8368 -1.9654 2.2753
4.9042 -1.7905 2.2753
4.9653 -1.6133 2.2753
5.0200 -1.4340 2.2753
5.0683 -1.2529 2.2753
5.1100 -1.0702 2.2753
5.1451 -0.8861 2.2753
5.1736 -0.7008 2.2753
5.1954 -0.5146 2.2753
5.2105 -0.3278 2.2753
5.2189 -0.1406 2.2753
5.2206 0.0469 2.2753
5.2156 0.2342 2.2753
5.2038 0.4213 2.2753
5.1853 0.6078 2.2753
5.1601 0.7936 2.2753
5.1283 0.9783 2.2753
5.0899 1.1617 2.2753
5.0449 1.3437 2.2753
4.9935 1.5239 2.2753
4.9356 1.7022 2.2753
4.8713 1.8783 2.2753
4.8007 2.0519 2.2753
4.7239 2.2229 2.2753
4.6411 2.3910 2.2753
4.5523 2.5561 2.2753
4.4576 2.7179 2.2753
4.3572 2.8761 2.2753
4.2511 3.0307 2.2753
4.1396 3.1813 2.2753
4.0227 3.3279 2.2753
3.9007 3.4701 2.2753
3.7736 3.6079 2.2753
3.6417 3.7410 2.2753
3.5050 3.8693 2.2753
3.3638 3.9927 2.2753
3.2184 4.1108 2.2753
3.0687 4.2237 2.2753
2.9151 4.3311 2.2753
2.7578 4.4330 2.2753
2.5969 4.5291 2.2753
0.8446 1.6038 0.7900
0.7862 1.6326 0.7897
0.7269 1.6594 0.7895
0.6668 1.6840 0.7894
0.6057 1.7065 0.7892
0.5440 1.7268 0.7890
0.4816 1.7449 0.7889
0.4186 1.7608 0.7888
0.3550 1.7745 0.7887
0.2911 1.7859 0.7886
0.2268 1.7951 0.7885
0.1622 1.8019 0.7885
0.0974 1.8065 0.7884
0.0325 1.8088 0.7884
-0.0325 1.8088 0.7884
-0.0974 1.8065 0.7885
-0.1622 1.8020 0.7885
-0.2268 1.7951 0.7885
-0.2911 1.7860 0.7886
-0.3551 1.7746 0.7887
-0.4186 1.7609 0.7888
-0.4816 1.7450 0.7889
-0.5440 1.7269 0.7891
-0.6058 1.7066 0.7892
-0.6668 1.6841 0.7894
-0.7270 1.6595 0.7896
-0.7863 1.6328 0.7898
-2.4326 4.6194 2.2753
-2.5968 4.5291 2.2753
-2.7577 4.4330 2.2753
-2.9151 4.3311 2.2753
-3.0687 4.2237 2.2753
-3.2183 4.1108 2.2753
-3.3638 3.9927 2.2753
-3.5050 3.8693 2.2753
-3.6416 3.7410 2.2753
-3.7735 3.6079 2.2753
-3.9006 3.4701 2.2753
-4.0226 3.3279 2.2753
-4.1395 3.1813 2.2753
-4.2511 3.0307 2.2753
-4.3571 2.8761 2.2753
-4.4575 2.7179 2.2753
-4.5522 2.5561 2.2753
-4.6411 2.3910 2.2753
-4.7239 2.2229 2.2753
-4.8006 2.0519 2.2753
-4.8712 1.8783 2.2753
-4.9355 1.7022 2.2753
-4.9934 1.5239 2.2753
-5.0449 1.3437 2.2753
-5.0898 1.1617 2.2753
-5.1283 0.9783 2.2753
-5.1601 0.7936 2.2753
-5.1852 0.6078 2.2753
-5.2037 0.4213 2.2753
-5.2155 0.2342 2.2753
-5.2205 0.0469 2.2753
-5.2189 -0.1406 2.2753
-5.2104 -0.3278 2.2753
-5.1953 -0.5146 2.2753
-5.1735 -0.7008 2.2753
-5.1450 -0.8861 2.2753
-5.1099 -1.0702 2.2753
-5.0682 -1.2529 2.2753
-5.0200 -1.4340 2.2753
-4.9652 -1.6133 2.2753
-4.9041 -1.7905 2.2753
-4.8367 -1.9654 2.2753
-4.7630 -2.1377 2.2753
-4.6832 -2.3073 2.2753
-4.5974 -2.4740 2.2753
-4.5056 -2.6374 2.2753
-4.4080 -2.7974 2.2753
-4.3048 -2.9539 2.2753
-4.1960 -3.1065 2.2753
-4.0817 -3.2551 2.2753
-3.9623 -3.3995 2.2753
-3.8377 -3.5396 2.2753
-3.7081 -3.6751 2.2753
-3.5739 -3.8058 2.2753
-3.4350 -3.9316 2.2753
-3.2916 -4.0524 2.2753
-3.1440 -4.1679 2.2753
-2.9924 -4.2781 2.2753
-2.8368 -4.3828 2.2753
-2.6777 -4.4818 2.2753
-2.5151 -4.5750 2.2753
-0.8414 -1.6698 0.8149
-0.7811 -1.6994 0.8151
-0.7198 -1.7268 0.8153
-0.6575 -1.7519 0.8155
-0.5943 -1.7748 0.8157
-0.5303 -1.7953 0.8158
-0.4656 -1.8135 0.8160
-0.4003 -1.8293 0.8161
-0.3344 -1.8427 0.8162
-0.2681 -1.8537 0.8163
-0.2014 -1.8623 0.8163
-0.1344 -1.8684 0.8164
-0.0672 -1.8721 0.8164
0.0000 -1.7619 0.8156
0.0632 -1.7608 0.8156
0.1264 -1.7573 0.8155
0.1894 -1.7515 0.8155
0.2521 -1.7435 0.8154
0.3145 -1.7331 0.8153
0.3765 -1.7205 0.8152
0.4379 -1.7056 0.8151
0.4988 -1.6886 0.8150
0.5590 -1.6693 0.8148
0.6184 -1.6478 0.8147
0.6770 -1.6242 0.8145
0.7347 -1.5984 0.8143
0.7914 -1.5706 0.8141
2.3681 -4.3075 2.2753
2.5212 -4.2197 2.2753
2.6710 -4.1265 2.2753
2.8174 -4.0279 2.2753
2.9602 -3.9242 2.2753
3.0992 -3.8154 2.2753
3.2341 -3.7017 2.2753
3.3649 -3.5832 2.2753
3.4914 -3.4601 2.2753
3.6133 -3.3326 2.2753
3.7306 -3.2007 2.2753
3.8431 -3.0648 2.2753
3.9507 -2.9248 2.2753
4.0531 -2.7811 2.2753
4.1503 -2.6339 2.2753
4.2422 -2.4832 2.2753
4.3286 -2.3293 2.2753
4.4094 -2.1724 2.2753
4.4845 -2.0127 2.2753
4.5539 -1.8505 2.2753
4.6174 -1.6858 2.2753
4.6750 -1.5190 2.2753
4.7264 -1.3502 2.2753
4.7719 -1.1797 2.2753
4.8111 -1.0076 2.2753
4.8442 -0.8343 2.2753
4.8710 -0.6598 2.2753
4.8916 -0.4845 2.2753
4.9058 -0.3087 2.2753
4.9138 -0.1323 2.2753
4.9153 0.0441 2.2753
4.9106 0.2205 2.2753
4.8995 0.3967 2.2753
4.8821 0.5723 2.2753
4.8584 0.7472 2.2753
4.8285 0.9211 2.2753
4.7923 1.0938 2.2753
4.7499 1.2651 2.2753
4.7014 1.4348 2.2753
4.6469 1.6026 2.2753
4.5864 1.7684 2.2753
4.5200 1.9319 2.2753
4.4477 2.0929 2.2753
4.3697 2.2512 2.2753
4.2861 2.4066 2.2753
4.1969 2.5589 2.2753
4.1024 2.7079 2.2753
4.0025 2.8534 2.2753
3.8975 2.9953 2.2753
3.7875 3.1333 2.2753
3.6726 3.2672 2.2753
3.5529 3.3969 2.2753
3.4287 3.5223 2.2753
3.3001 3.6431 2.2753
3.1671 3.7592 2.2753
3.0302 3.8704 2.2753
2.8892 3.9767 2.2753
2.7447 4.0779 2.2753
2.5965 4.1738 2.2753
2.4450 4.2643 2.2753
0.7959 1.5114 0.7907
0.7409 1.5386 0.7905
0.6851 1.5638 0.7903
0.6283 1.5870 0.7901
0.5709 1.6082 0.7899
0.5127 1.6274 0.7898
0.4538 1.6445 0.7897
0.3945 1.6595 0.7896
0.3346 1.6724 0.7895
0.2743 1.6831 0.7894
0.2137 1.6918 0.7893
0.1529 1.6982 0.7893
0.0918 1.7026 0.7892
0.0306 1.7047 0.7892
-0.0306 1.7047 0.7892
-0.0918 1.7026 0.7892
-0.1529 1.6983 0.7893
-0.2137 1.6918 0.7893
-0.2743 1.6832 0.7894
-0.3346 1.6724 0.7895
-0.3945 1.6596 0.7896
-0.4539 1.6446 0.7897
-0.5127 1.6275 0.7898
-0.5709 1.6083 0.7900
-0.6284 1.5871 0.7901
-0.6851 1.5639 0.7903
-0.7410 1.5387 0.7905
-0.7960 1.5115 0.7907
-2.4450 4.2643 2.2753
-2.5965 4.1738 2.2753
-2.7446 4.0779 2.2753
-2.8892 3.9767 2.2753
-3.0301 3.8704 2.2753
-3.1671 3.7592 2.2753
-3.3000 3.6431 2.2753
-3.4286 3.5223 2.2753
-3.5529 3.3969 2.2753
-3.6725 3.2672 2.2753
-3.7874 3.1333 2.2753
-3.8974 2.9953 2.2753
-4.0025 2.8534 2.2753
-4.1023 2.7079 2.2753
-4.1969 2.5589 2.2753
-4.2860 2.4066 2.2753
-4.3696 2.2512 2.2753
-4.4477 2.0929 2.2753
-4.5199 1.9319 2.2753
-4.5863 1.7684 2.2753
-4.6469 1.6026 2.2753
-4.7014 1.4348 2.2753
-4.7499 1.2651 2.2753
-4.7922 1.0938 2.2753
-4.8284 0.9211 2.2753
-4.8583 0.7472 2.2753
-4.8820 0.5723 2.2753
-4.8994 0.3967 2.2753
-4.9105 0.2205 2.2753
-4.9153 0.0441 2.2753
-4.9137 -0.1324 2.2753
-4.9058 -0.3086 2.2753
-4.8915 -0.4845 2.2753
-4.8710 -0.6598 2.2753
-4.8442 -0.8343 2.2753
-4.8111 -1.0076 2.2753
-4.7718 -1.1797 2.2753
-4.7264 -1.3502 2.2753
-4.6749 -1.5190 2.2753
-4.6174 -1.6858 2.2753
-4.5539 -1.8505 2.2753
-4.4845 -2.0127 2.2753
-4.4093 -2.1724 2.2753
-4.3285 -2.3293 2.2753
-4.2421 -2.4832 2.2753
-4.1503 -2.6339 2.2753
-4.0530 -2.7811 2.2753
-3.9506 -2.9248 2.2753
-3.8431 -3.0648 2.2753
-3.7306 -3.2007 2.2753
-3.6133 -3.3326 2.2753
-3.4913 -3.4601 2.2753
-3.3649 -3.5832 2.2753
-3.2341 -3.7017 2.2753
-3.0991 -3.8154 2.2753
-2.9601 -3.9242 2.2753
-2.8174 -4.0279 2.2753
-2.6709 -4.1265 2.2753
-2.5211 -4.2197 2.2753
-2.3680 -4.3075 2.2753
-0.7915 -1.5707 0.8142
-0.7348 -1.5985 0.8144
-0.6771 -1.6243 0.8146
-0.6185 -1.6479 0.8147
-0.5590 -1.6693 0.8149
-0.4988 -1.6886 0.8150
-0.4380 -1.7057 0.8152
-0.3765 -1.7206 0.8153
-0.3145 -1.7332 0.8154
-0.2521 -1.7435 0.8154
-0.1894 -1.7516 0.8155
-0.1264 -1.7573 0.8155
-0.0632 -1.7608 0.8156
0.0000 -1.6611 0.8148
0.0596 -1.6600 0.8148
0.1192 -1.6567 0.8148
0.1786 -1.6513 0.8147
0.2377 -1.6437 0.8147
0.2965 -1.6340 0.8146
0.3549 -1.6221 0.8145
0.4129 -1.6081 0.8144
0.4703 -1.5920 0.8143
0.5270 -1.5738 0.8141
0.5831 -1.5536 0.8140
0.6383 -1.5313 0.8138
0.6927 -1.5071 0.8136
0.7462 -1.4809 0.8134
0.7986 -1.4527 0.8132
2.3791 -3.9819 2.2753
2.5205 -3.8940 2.2753
2.6587 -3.8010 2.2753
2.7934 -3.7031 2.2753
2.9245 -3.6004 2.2753
3.0519 -3.4931 2.2753
3.1753 -3.3813 2.2753
3.2947 -3.2652 2.2753
3.4098 -3.1448 2.2753
3.5204 -3.0204 2.2753
3.6266 -2.8921 2.2753
3.7281 -2.7600 2.2753
3.8247 -2.6244 2.2753
3.9165 -2.4855 2.2753
4.0032 -2.3433 2.2753
4.0847 -2.1981 2.2753
4.1610 -2.0500 2.2753
4.2319 -1.8993 2.2753
4.2973 -1.7462 2.2753
4.3572 -1.5908 2.2753
4.4115 -1.4334 2.2753
4.4602 -1.2741 2.2753
4.5030 -1.1132 2.2753
4.5401 -0.9508 2.2753
4.5712 -0.7872 2.2753
4.5966 -0.6226 2.2753
4.6160 -0.4572 2.2753
4.6294 -0.2913 2.2753
4.6369 -0.1249 2.2753
4.6384 0.0416 2.2753
4.6339 0.2081 2.2753
4.6234 0.3743 2.2753
4.6070 0.5400 2.2753
4.5847 0.7051 2.2753
4.5564 0.8692 2.2753
4.5222 1.0322 2.2753
4.4823 1.1938 2.2753
4.4365 1.3540 2.2753
4.3851 1.5123 2.2753
4.3280 1.6688 2.2753
4.2653 1.8231 2.2753
4.1971 1.9750 2.2753
4.1235 2.1244 2.2753
4.0446 2.2710 2.2753
3.9604 2.4147 2.2753
3.8712 2.5554 2.2753
3.7770 2.6927 2.2753
3.6779 2.8265 2.2753
3.5741 2.9567 2.2753
3.4657 3.0831 2.2753
3.3527 3.2055 2.2753
3.2355 3.3238 2.2753
3.1141 3.4378 2.2753
2.9887 3.5474 2.2753
2.8595 3.6524 2.2753
2.7265 3.7526 2.2753
2.5900 3.8481 2.2753
2.4502 3.9386 2.2753
0.8026 1.3998 0.7915
0.7517 1.4274 0.7913
0.6998 1.4531 0.7911
0.6470 1.4769 0.7909
0.5934 1.4989 0.7908
0.5392 1.5189 0.7906
0.4842 1.5370 0.7905
0.4286 1.5532 0.7904
0.3726 1.5674 0.7903
0.3160 1.5796 0.7902
0.2591 1.5897 0.7901
0.2019 1.5979 0.7900
0.1444 1.6040 0.7900
0.0867 1.6081 0.7900
0.0289 1.6102 0.7899
-0.0289 1.6102 0.7899
-0.0867 1.6081 0.7900
-0.1444 1.6040 0.7900
-0.2019 1.5979 0.7900
-0.2591 1.5898 0.7901
-0.3161 1.5796 0.7902
-0.3726 1.5674 0.7903
-0.4287 1.5533 0.7904
-0.4842 1.5371 0.7905
-0.5392 1.5190 0.7907
-0.5935 1.4990 0.7908
-0.6470 1.4770 0.7910
-0.6998 1.4532 0.7912
-0.7517 1.4275 0.7914
-0.8027 1.3999 0.7916
-2.4501 3.9386 2.2753
-2.5900 3.8481 2.2753
-2.7264 3.7526 2.2753
-2.8594 3.6524 2.2753
-2.9886 3.5474 2.2753
-3.1140 3.4378 2.2753
-3.2355 3.3238 2.2753
-3.3527 3.2055 2.2753
-3.4656 3.0831 2.2753
-3.5740 2.9567 2.2753
-3.6778 2.8265 2.2753
-3.7769 2.6927 2.2753
-3.8712 2.5554 2.2753
-3.9604 2.4147 2.2753
-4.0445 2.2710 2.2753
-4.1234 2.1244 2.2753
-4.1970 1.9750 2.2753
-4.2652 1.8231 2.2753
-4.3279 1.6688 2.2753
-4.3850 1.5123 2.2753
-4.4365 1.3540 2.2753
-4.4822 1.1938 2.2753
-4.5222 1.0322 2.2753
-4.5563 0.8692 2.2753
-4.5846 0.7051 2.2753
-4.6070 0.5400 2.2753
-4.6234 0.3743 2.2753
-4.6338 0.2081 2.2753
-4.6383 0.0416 2.2753
-4.6368 -0.1249 2.2753
-4.6294 -0.2913 2.2753
-4.6159 -0.4572 2.2753
-4.5965 -0.6226 2.2753
-4.5712 -0.7872 2.2753
-4.5400 -0.9508 2.2753
-4.5029 -1.1132 2.2753
-4.4601 -1.2741 2.2753
-4.4115 -1.4334 2.2753
-4.3572 -1.5908 2.2753
-4.2973 -1.7462 2.2753
-4.2318 -1.8993 2.2753
-4.1609 -2.0500 2.2753
-4.0846 -2.1981 2.2753
-4.0031 -2.3433 2.2753
-3.9164 -2.4855 2.2753
-3.8247 -2.6244 2.2753
-3.7280 -2.7600 2.2753
-3.6265 -2.8921 2.2753
-3.5204 -3.0204 2.2753
-3.4097 -3.1448 2.2753
-3.2946 -3.2652 2.2753
-3.1753 -3.3813 2.2753
-3.0519 -3.4931 2.2753
-2.9245 -3.6004 2.2753
-2.7933 -3.7031 2.2753
-2.6586 -3.8010 2.2753
-2.5205 -3.8940 2.2753
-2.3791 -3.9819 2.2753
-0.7987 -1.4529 0.8133
-0.7462 -1.4810 0.8135
-0.6928 -1.5072 0.8137
-0.6384 -1.5314 0.8138
-0.5831 -1.5537 0.8140
-0.5271 -1.5739 0.8142
-0.4703 -1.5921 0.8143
-0.4129 -1.6081 0.8144
-0.3550 -1.6221 0.8145
-0.2965 -1.6340 0.8146
-0.2377 -1.6437 0.8147
-0.1786 -1.6513 0.8147
-0.1192 -1.6568 0.8148
-0.0596 -1.6600 0.8148
0.0000 -1.5693 0.8141
0.0563 -1.5682 0.8141
0.1126 -1.5652 0.8141
0.1687 -1.5600 0.8140
0.2246 -1.5529 0.8140
0.2801 -1.5437 0.8139
0.3353 -1.5324 0.8138
0.3901 -1.5192 0.8137
0.4443 -1.5040 0.8136
0.4979 -1.4869 0.8135
0.5509 -1.4678 0.8133
0.6031 -1.4468 0.8132
0.6545 -1.4239 0.8130
0.7050 -1.3991 0.8128
0.7546 -1.3726 0.8126
0.8032 -1.3443 0.8124
2.3833 -3.6819 2.2753
2.5139 -3.5940 2.2753
2.6413 -3.5014 2.2753
2.7653 -3.4043 2.2753
2.8857 -3.3029 2.2753
3.0024 -3.1972 2.2753
3.1152 -3.0873 2.2753
3.2240 -2.9735 2.2753
3.3287 -2.8559 2.2753
3.4291 -2.7346 2.2753
3.5250 -2.6097 2.2753
3.6164 -2.4815 2.2753
3.7031 -2.3501 2.2753
3.7851 -2.2156 2.2753
3.8622 -2.0783 2.2753
3.9343 -1.9384 2.2753
4.0014 -1.7959 2.2753
4.0633 -1.6511 2.2753
4.1199 -1.5042 2.2753
4.1712 -1.3553 2.2753
4.2172 -1.2047 2.2753
4.2578 -1.0526 2.2753
4.2928 -0.8990 2.2753
4.3223 -0.7444 2.2753
4.3462 -0.5887 2.2753
4.3646 -0.4323 2.2753
4.3773 -0.2754 2.2753
4.3843 -0.1181 2.2753
4.3857 0.0394 2.2753
4.3815 0.1968 2.2753
4.3716 0.3539 2.2753
4.3561 0.5106 2.2753
4.3350 0.6667 2.2753
4.3082 0.8218 2.2753
4.2759 0.9760 2.2753
4.2382 1.1288 2.2753
4.1949 1.2802 2.2753
4.1463 1.4300 2.2753
4.0922 1.5779 2.2753
4.0330 1.7238 2.2753
3.9685 1.8674 2.2753
3.8989 2.0087 2.2753
3.8243 2.1473 2.2753
3.7447 2.2832 2.2753
3.6604 2.4162 2.2753
3.5713 2.5460 2.2753
3.4776 2.6726 2.2753
3.3794 2.7957 2.2753
3.2769 2.9152 2.2753
3.1701 3.0309 2.2753
3.0593 3.1428 2.2753
2.9445 3.2506 2.2753
2.8259 3.3542 2.2753
2.7037 3.4534 2.2753
2.5780 3.5483 2.2753
2.4490 3.6385 2.2753
0.8067 1.2968 0.7923
0.7595 1.3245 0.7921
0.7112 1.3506 0.7919
0.6621 1.3750 0.7917
0.6122 1.3975 0.7915
0.5616 1.4183 0.7914
0.5102 1.4373 0.7912
0.4582 1.4545 0.7911
0.4056 1.4698 0.7910
0.3526 1.4832 0.7909
0.2991 1.4947 0.7908
0.2452 1.5044 0.7907
0.1910 1.5121 0.7907
0.1366 1.5179 0.7906
0.0820 1.5218 0.7906
0.0274 1.5237 0.7906
-0.0274 1.5237 0.7906
-0.0820 1.5218 0.7906
-0.1366 1.5179 0.7907
-0.1910 1.5121 0.7907
-0.2452 1.5044 0.7908
-0.2991 1.4948 0.7908
-0.3526 1.4833 0.7909
-0.4057 1.4698 0.7910
-0.4582 1.4545 0.7911
-0.5102 1.4374 0.7913
-0.5616 1.4184 0.7914
-0.6123 1.3976 0.7916
-0.6622 1.3751 0.7918
-0.7113 1.3507 0.7919
-0.7595 1.3247 0.7921
-0.8068 1.2969 0.7924
-2.4489 3.6385 2.2753
-2.5779 3.5483 2.2753
-2.7037 3.4534 2.2753
-2.8259 3.3542 2.2753
-2.9444 3.2506 2.2753
-3.0592 3.1428 2.2753
-3.1701 3.0309 2.2753
-3.2768 2.9152 2.2753
-3.3794 2.7957 2.2753
-3.4775 2.6726 2.2753
-3.5712 2.5460 2.2753
-3.6603 2.4162 2.2753
-3.7447 2.2832 2.2753
-3.8242 2.1473 2.2753
-3.8989 2.0087 2.2753
-3.9685 1.8674 2.2753
-4.0329 1.7238 2.2753
-4.0922 1.5779 2.2753
-4.1462 1.4300 2.2753
-4.1949 1.2802 2.2753
-4.2381 1.1288 2.2753
-4.2759 0.9760 2.2753
-4.3082 0.8218 2.2753
-4.3349 0.6667 2.2753
-4.3561 0.5106 2.2753
-4.3715 0.3539 2.2753
-4.3814 0.1968 2.2753
-4.3857 0.0394 2.2753
-4.3843 -0.1181 2.2753
-4.3772 -0.2754 2.2753
-4.3645 -0.4323 2.2753
-4.3461 -0.5887 2.2753
-4.3223 -0.7444 2.2753
-4.2927 -0.8990 2.2753
-4.2577 -1.0526 2.2753
-4.2171 -1.2047 2.2753
-4.1712 -1.3553 2.2753
-4.1198 -1.5042 2.2753
-4.0632 -1.6511 2.2753
-4.0013 -1.7959 2.2753
-3.9343 -1.9384 2.2753
-3.8622 -2.0783 2.2753
-3.7851 -2.2156 2.2753
-3.7031 -2.3501 2.2753
-3.6163 -2.4815 2.2753
-3.5250 -2.6097 2.2753
-3.4290 -2.7346 2.2753
-3.3286 -2.8559 2.2753
-3.2240 -2.9735 2.2753
-3.1152 -3.0873 2.2753
-3.0023 -3.1972 2.2753
-2.8856 -3.3029 2.2753
-2.7652 -3.4043 2.2753
-2.6412 -3.5014 2.2753
-2.5138 -3.5940 2.2753
-2.3832 -3.6819 2.2753
-0.8032 -1.3444 0.8124
-0.7546 -1.3727 0.8126
-0.7051 -1.3992 0.8128
-0.6545 -1.4240 0.8130
-0.6031 -1.4469 0.8132
-0.5509 -1.4679 0.8134
-0.4979 -1.4869 0.8135
-0.4443 -1.5041 0.8136
-0.3901 -1.5193 0.8137
-0.3353 -1.5325 0.8138
-0.2802 -1.5437 0.8139
-0.2246 -1.5529 0.8140
-0.1687 -1.5601 0.8140
-0.1126 -1.5652 0.8141
-0.0563 -1.5683 0.8141
-0.0000 -1.4852 0.8135
0.0533 -1.4843 0.8135
0.1065 -1.4813 0.8134
0.1597 -1.4765 0.8134
0.2125 -1.4697 0.8133
0.2651 -1.4610 0.8133
0.3174 -1.4504 0.8132
0.3692 -1.4379 0.8131
0.4205 -1.4235 0.8130
0.4713 -1.4073 0.8129
0.5214 -1.3892 0.8127
0.5708 -1.3694 0.8126
0.6195 -1.3477 0.8124
0.6673 -1.3243 0.8122
0.7142 -1.2992 0.8120
0.7602 -1.2724 0.8118
0.8052 -1.2440 0.8116
2.3811 -3.4042 2.2753
2.5018 -3.3165 2.2753
2.6192 -3.2246 2.2753
2.7333 -3.1285 2.2753
2.8438 -3.0283 2.2753
2.9507 -2.9243 2.2753
3.0538 -2.8165 2.2753
3.1529 -2.7051 2.2753
3.2480 -2.5901 2.2753
3.3389 -2.4719 2.2753
3.4254 -2.3504 2.2753
3.5076 -2.2260 2.2753
3.5852 -2.0986 2.2753
3.6582 -1.9686 2.2753
3.7266 -1.8360 2.2753
3.7901 -1.7010 2.2753
3.8487 -1.5639 2.2753
3.9024 -1.4247 2.2753
3.9509 -1.2837 2.2753
3.9945 -1.1411 2.2753
4.0329 -0.9970 2.2753
4.0661 -0.8516 2.2753
4.0940 -0.7051 2.2753
4.1167 -0.5576 2.2753
4.1341 -0.4095 2.2753
4.1461 -0.2608 2.2753
4.1528 -0.1119 2.2753
4.1541 0.0373 2.2753
4.1501 0.1864 2.2753
4.1408 0.3352 2.2753
4.1261 0.4837 2.2753
4.1061 0.6314 2.2753
4.0807 0.7784 2.2753
4.0501 0.9244 2.2753
4.0144 1.0692 2.2753
3.9734 1.2126 2.2753
3.9273 1.3545 2.2753
3.8761 1.4946 2.2753
3.8200 1.6327 2.2753
3.7589 1.7688 2.2753
3.6930 1.9026 2.2753
3.6223 2.0339 2.2753
3.5470 2.1626 2.2753
3.4671 2.2886 2.2753
3.3827 2.4116 2.2753
3.2939 2.5314 2.2753
3.2010 2.6480 2.2753
3.1038 2.7612 2.2753
3.0027 2.8709 2.2753
2.8977 2.9768 2.2753
2.7890 3.0789 2.2753
2.6767 3.1770 2.2753
2.5609 3.2711 2.2753
2.4419 3.3609 2.2753
0.8085 1.2012 0.7930
0.7646 1.2291 0.7928
0.7198 1.2554 0.7926
0.6741 1.2802 0.7924
0.6276 1.3033 0.7923
0.5803 1.3247 0.7921
0.5323 1.3444 0.7919
0.4836 1.3624 0.7918
0.4343 1.3787 0.7917
0.3845 1.3932 0.7916
0.3342 1.4059 0.7915
0.2835 1.4169 0.7914
0.2324 1.4260 0.7913
0.1811 1.4333 0.7913
0.1295 1.4388 0.7912
0.0778 1.4425 0.7912
0.0259 1.4444 0.7912
-0.0259 1.4444 0.7912
-0.0778 1.4425 0.7912
-0.1295 1.4389 0.7913
-0.1811 1.4334 0.7913
-0.2324 1.4260 0.7914
-0.2835 1.4169 0.7914
-0.3342 1.4060 0.7915
-0.3845 1.3932 0.7916
-0.4343 1.3787 0.7917
-0.4836 1.3625 0.7918
-0.5323 1.3445 0.7920
-0.5803 1.3247 0.7921
-0.6276 1.3033 0.7923
-0.6742 1.2803 0.7925
-0.7199 1.2555 0.7927
-0.7647 1.2292 0.7929
-0.8085 1.2013 0.7931
-2.4418 3.3609 2.2753
-2.5608 3.2711 2.2753
-2.6766 3.1770 2.2753
-2.7889 3.0789 2.2753
-2.8977 2.9768 2.2753
-3.0027 2.8709 2.2753
-3.1038 2.7612 2.2753
-3.2009 2.6480 2.2753
-3.2939 2.5314 2.2753
-3.3826 2.4116 2.2753
-3.4670 2.2886 2.2753
-3.5469 2.1626 2.2753
-3.6223 2.0339 2.2753
-3.6930 1.9026 2.2753
-3.7589 1.7688 2.2753
-3.8199 1.6327 2.2753
-3.8761 1.4946 2.2753
-3.9272 1.3545 2.2753
-3.9734 1.2126 2.2753
-4.0143 1.0692 2.2753
-4.0501 0.9244 2.2753
-4.0806 0.7784 2.2753
-4.1060 0.6314 2.2753
-4.1260 0.4837 2.2753
-4.1407 0.3352 2.2753
-4.1501 0.1864 2.2753
-4.1541 0.0373 2.2753
-4.1527 -0.1119 2.2753
-4.1460 -0.2608 2.2753
-4.1340 -0.4095 2.2753
-4.1166 -0.5576 2.2753
-4.0940 -0.7051 2.2753
-4.0661 -0.8516 2.2753
-4.0328 -0.9970 2.2753
-3.9945 -1.1411 2.2753
-3.9509 -1.2837 2.2753
-3.9023 -1.4247 2.2753
-3.8486 -1.5639 2.2753
-3.7900 -1.7010 2.2753
-3.7265 -1.8360 2.2753
-3.6582 -1.9686 2.2753
-3.5852 -2.0986 2.2753
-3.5075 -2.2260 2.2753
-3.4254 -2.3504 2.2753
-3.3388 -2.4719 2.2753
-3.2479 -2.5901 2.2753
-3.1528 -2.7051 2.2753
-3.0537 -2.8165 2.2753
-2.9506 -2.9243 2.2753
-2.8438 -3.0283 2.2753
-2.7332 -3.1285 2.2753
-2.6191 -3.2246 2.2753
-2.5017 -3.3165 2.2753
-2.3811 -3.4042 2.2753
-0.8053 -1.2441 0.8117
-0.7603 -1.2725 0.8119
-0.7143 -1.2993 0.8121
-0.6674 -1.3244 0.8123
-0.6195 -1.3478 0.8124
-0.5708 -1.3695 0.8126
-0.5214 -1.3893 0.8128
-0.4713 -1.4074 0.8129
-0.4205 -1.4236 0.8130
-0.3692 -1.4380 0.8131
-0.3174 -1.4505 0.8132
-0.2651 -1.4611 0.8133
-0.2125 -1.4697 0.8134
-0.1597 -1.4765 0.8134
-0.1066 -1.4814 0.8134
-0.0533 -1.4843 0.8135
-0.0000 -1.4080 0.8129
0.0505 -1.4070 0.8129
0.1010 -1.4043 0.8128
0.1513 -1.3997 0.8128
0.2015 -1.3933 0.8128
0.2513 -1.3850 0.8127
0.3009 -1.3750 0.8126
0.3500 -1.3631 0.8125
0.3986 -1.3495 0.8124
0.4468 -1.3341 0.8123
0.4943 -1.3170 0.8122
0.5412 -1.2982 0.8120
0.5873 -1.2777 0.8119
0.6326 -1.2555 0.8117
0.6771 -1.2317 0.8115
0.7207 -1.2063 0.8113
0.7634 -1.1794 0.8111
0.8050 -1.1509 0.8109
2.3733 -3.1462 2.2753
2.4847 -3.0590 2.2753
2.5929 -2.9678 2.2753
2.6978 -2.8728 2.2753
2.7992 -2.7741 2.2753
2.8970 -2.6719 2.2753
2.9910 -2.5662 2.2753
3.0812 -2.4571 2.2753
3.1674 -2.3450 2.2753
3.2495 -2.2298 2.2753
3.3275 -2.1117 2.2753
3.4011 -1.9909 2.2753
3.4704 -1.8675 2.2753
3.5352 -1.7417 2.2753
3.5954 -1.6137 2.2753
3.6511 -1.4836 2.2753
3.7020 -1.3516 2.2753
3.7481 -1.2178 2.2753
3.7894 -1.0825 2.2753
3.8258 -0.9458 2.2753
3.8573 -0.8078 2.2753
3.8838 -0.6689 2.2753
3.9053 -0.5290 2.2753
3.9218 -0.3885 2.2753
3.9332 -0.2475 2.2753
3.9396 -0.1061 2.2753
3.9408 0.0354 2.2753
3.9370 0.1768 2.2753
3.9281 0.3180 2.2753
3.9142 0.4588 2.2753
3.8952 0.5990 2.2753
3.8712 0.7385 2.2753
3.8422 0.8769 2.2753
3.8082 1.0143 2.2753
3.7693 1.1503 2.2753
3.7257 1.2849 2.2753
3.6771 1.4178 2.2753
3.6239 1.5489 2.2753
3.5659 1.6780 2.2753
3.5034 1.8049 2.2753
3.4363 1.9295 2.2753
3.3649 2.0516 2.2753
3.2890 2.1711 2.2753
3.2090 2.2877 2.2753
3.1248 2.4014 2.2753
3.0366 2.5121 2.2753
2.9444 2.6194 2.2753
2.8485 2.7234 2.2753
2.7489 2.8239 2.2753
2.6458 2.9208 2.2753
2.5392 3.0139 2.2753
2.4294 3.1031 2.2753
0.8080 1.1122 0.7937
0.7674 1.1402 0.7935
0.7258 1.1667 0.7933
0.6833 1.1917 0.7931
0.6399 1.2152 0.7929
0.5958 1.2371 0.7928
0.5509 1.2575 0.7926
0.5053 1.2762 0.7925
0.4591 1.2933 0.7923
0.4123 1.3088 0.7922
0.3650 1.3225 0.7921
0.3173 1.3346 0.7920
0.2691 1.3450 0.7919
0.2206 1.3537 0.7919
0.1719 1.3607 0.7918
0.1229 1.3659 0.7918
0.0738 1.3694 0.7918
0.0246 1.3712 0.7918
-0.0246 1.3712 0.7918
-0.0738 1.3694 0.7918
-0.1229 1.3659 0.7918
-0.1719 1.3607 0.7918
-0.2206 1.3538 0.7919
-0.2691 1.3451 0.7920
-0.3173 1.3347 0.7921
-0.3650 1.3226 0.7921
-0.4123 1.3088 0.7923
-0.4591 1.2934 0.7924
-0.5053 1.2763 0.7925
-0.5509 1.2575 0.7926
