ply
format ascii 1.0
element vertex 2175
property float32 x
property float32 y
property float32 z
end_header
-9.3015 1.4305 1.9893
-9.3469 1.0956 1.9893
-9.3802 0.7594 1.9893
-9.4015 0.4222 1.9893
-9.4105 0.0845 1.9893
-9.4075 -0.2534 1.9893
-9.3923 -0.5909 1.9893
-9.3651 -0.9277 1.9893
-9.3257 -1.2633 1.9893
-9.2744 -1.5972 1.9893
-9.2111 -1.9291 1.9893
-9.1359 -2.2585 1.9893
-9.0489 -2.5850 1.9893
-8.9503 -2.9081 1.9893
-8.8401 -3.2276 1.9893
-8.7186 -3.5428 1.9893
-8.5858 -3.8535 1.9893
-8.4420 -4.1592 1.9893
-8.2872 -4.4595 1.9893
-8.1218 -4.7542 1.9893
-7.9459 -5.0426 1.9893
-7.7598 -5.3246 1.9893
-7.5636 -5.5997 1.9893
-7.3577 -5.8676 1.9893
-7.1424 -6.1280 1.9893
-6.9178 -6.3804 1.9893
-6.6843 -6.6246 1.9893
-6.4422 -6.8603 1.9893
-6.1918 -7.0871 1.9893
-5.9334 -7.3048 1.9893
-5.6673 -7.5131 1.9893
-5.3940 -7.7117 1.9893
-5.1137 -7.9003 1.9893
-4.8268 -8.0788 1.9893
-4.5337 -8.2469 1.9893
-4.2348 -8.4043 1.9893
-3.9304 -8.5509 1.9893
-3.6209 -8.6865 1.9893
-3.3067 -8.8108 1.9893
-2.9883 -8.9239 1.9893
-2.6661 -9.0254 1.9893
-2.3404 -9.1153 1.9893
-2.0116 -9.1934 1.9893
-1.6804 -9.2597 1.9893
-1.3469 -9.3141 1.9893
-1.0117 -9.3564 1.9893
-0.6751 -9.3867 1.9893
-0.3378 -9.4049 1.9893
0.0000 -8.4642 1.9893
0.3039 -8.4588 1.9893
0.6073 -8.4424 1.9893
0.9099 -8.4152 1.9893
1.2114 -8.3771 1.9893
1.5114 -8.3282 1.9893
1.8093 -8.2686 1.9893
2.1050 -8.1983 1.9893
2.3979 -8.1174 1.9893
2.6878 -8.0261 1.9893
2.9741 -7.9245 1.9893
3.2567 -7.8126 1.9893
3.5350 -7.6907 1.9893
3.8088 -7.5588 1.9893
4.0777 -7.4172 1.9893
4.3413 -7.2661 1.9893
4.5993 -7.1056 1.9893
4.8514 -6.9359 1.9893
5.0973 -6.7573 1.9893
5.3365 -6.5700 1.9893
5.5690 -6.3742 1.9893
5.7942 -6.1701 1.9893
6.0119 -5.9582 1.9893
6.2219 -5.7385 1.9893
6.4239 -5.5115 1.9893
6.6176 -5.2773 1.9893
6.8028 -5.0364 1.9893
6.9792 -4.7890 1.9893
7.1466 -4.5354 1.9893
7.3048 -4.2759 1.9893
7.4536 -4.0109 1.9893
7.5927 -3.7408 1.9893
7.7221 -3.4658 1.9893
7.8416 -3.1864 1.9893
7.9509 -2.9029 1.9893
8.0500 -2.6156 1.9893
8.1387 -2.3249 1.9893
8.1930 -2.0254 1.9835
8.1959 -1.7165 1.9680
8.1983 -1.4119 1.9551
8.2002 -1.1108 1.9448
8.2016 -0.8124 1.9370
8.2026 -0.5161 1.9316
8.2032 -0.2210 1.9286
8.2033 0.0736 1.9280
8.2030 0.3684 1.9298
8.2022 0.6640 1.9340
8.2010 0.9613 1.9406
8.1993 1.2609 1.9497
8.1972 1.5637 1.9612
8.1945 1.8703 1.9754
8.1791 2.1785 1.9893
8.0956 2.4707 1.9893
8.0017 2.7597 1.9893
7.8975 3.0451 1.9893
7.7831 3.3266 1.9893
7.6587 3.6039 1.9893
7.5244 3.8765 1.9893
7.3804 4.1441 1.9893
7.2268 4.4063 1.9893
7.0640 4.6629 1.9893
6.8921 4.9135 1.9893
6.7113 5.1577 1.9893
6.5218 5.3953 1.9893
6.3240 5.6259 1.9893
6.1179 5.8493 1.9893
5.9040 6.0651 1.9893
5.6825 6.2732 1.9893
5.4536 6.4731 1.9893
5.2178 6.6647 1.9893
4.9752 6.8477 1.9893
4.7262 7.0219 1.9893
4.4711 7.1870 1.9893
4.2102 7.3428 1.9893
3.9439 7.4892 1.9893
3.6725 7.6260 1.9893
3.3964 7.7529 1.9893
3.1159 7.8698 1.9893
2.8314 7.9766 1.9893
2.5432 8.0731 1.9893
2.2518 8.1592 1.9893
1.9575 8.2348 1.9893
1.6606 8.2997 1.9893
1.3616 8.3540 1.9893
1.0609 8.3975 1.9893
0.7588 8.4301 1.9893
0.4557 8.4519 1.9893
0.1520 8.4628 1.9893
-0.1519 8.4628 1.9893
-0.4556 8.4519 1.9893
-0.7587 8.4301 1.9893
-1.0608 8.3975 1.9893
-1.3616 8.3540 1.9893
-1.6606 8.2997 1.9893
-1.9574 8.2348 1.9893
-2.2518 8.1592 1.9893
-2.5432 8.0731 1.9893
-2.8314 7.9766 1.9893
-3.1159 7.8698 1.9893
-3.3963 7.7529 1.9893
-3.6725 7.6260 1.9893
-3.9438 7.4892 1.9893
-4.2101 7.3428 1.9893
-4.4709 7.1870 1.9893
-4.7261 7.0219 1.9893
-4.9751 6.8477 1.9893
-5.2177 6.6647 1.9893
-5.4536 6.4731 1.9893
-5.6824 6.2732 1.9893
-5.9040 6.0651 1.9893
-6.1179 5.8493 1.9893
-6.3239 5.6259 1.9893
-6.5217 5.3953 1.9893
-6.7112 5.1577 1.9893
-6.8920 4.9135 1.9893
-7.0640 4.6629 1.9893
-7.2268 4.4063 1.9893
-7.3803 4.1441 1.9893
-7.5243 3.8765 1.9893
-7.6586 3.6039 1.9893
-7.7831 3.3266 1.9893
-7.8974 3.0451 1.9893
-8.0017 2.7597 1.9893
-8.0956 2.4707 1.9893
-8.1791 2.1785 1.9893
-8.2519 1.8834 1.9893
-8.3143 1.5860 1.9893
-8.3658 1.2866 1.9893
-8.4066 0.9854 1.9893
-8.4366 0.6830 1.9893
-8.4556 0.3797 1.9893
-8.4638 0.0760 1.9893
-8.4611 -0.2279 1.9893
-8.4475 -0.5315 1.9893
-8.4230 -0.8344 1.9893
-8.3876 -1.1362 1.9893
-8.3414 -1.4365 1.9893
-8.2844 -1.7350 1.9893
-8.2168 -2.0313 1.9893
-8.1386 -2.3249 1.9893
-8.0499 -2.6156 1.9893
-7.9508 -2.9029 1.9893
-7.8415 -3.1864 1.9893
-7.7221 -3.4658 1.9893
-7.5927 -3.7408 1.9893
-7.4535 -4.0109 1.9893
-7.3047 -4.2759 1.9893
-7.1465 -4.5354 1.9893
-6.9791 -4.7890 1.9893
-6.8027 -5.0364 1.9893
-6.6175 -5.2773 1.9893
-6.4238 -5.5115 1.9893
-6.2219 -5.7385 1.9893
-6.0119 -5.9582 1.9893
-5.7941 -6.1701 1.9893
-5.5689 -6.3742 1.9893
-5.3365 -6.5700 1.9893
-5.0972 -6.7573 1.9893
-4.8514 -6.9359 1.9893
-4.5993 -7.1056 1.9893
-4.3413 -7.2661 1.9893
-4.0776 -7.4172 1.9893
-3.8087 -7.5588 1.9893
-3.5350 -7.6907 1.9893
-3.2566 -7.8126 1.9893
-2.9741 -7.9245 1.9893
-2.6877 -8.0261 1.9893
-2.3979 -8.1174 1.9893
-2.1049 -8.1983 1.9893
-1.8093 -8.2686 1.9893
-1.5113 -8.3282 1.9893
-1.2114 -8.3771 1.9893
-0.9099 -8.4152 1.9893
-0.6072 -8.4424 1.9893
-0.3038 -8.4588 1.9893
0.0000 -7.6831 1.9893
0.2758 -7.6781 1.9893
0.5513 -7.6633 1.9893
0.8260 -7.6385 1.9893
1.0996 -7.6040 1.9893
1.3719 -7.5596 1.9893
1.6424 -7.5055 1.9893
1.9107 -7.4417 1.9893
2.1766 -7.3683 1.9893
2.4397 -7.2854 1.9893
2.6997 -7.1932 1.9893
2.9561 -7.0916 1.9893
3.2088 -6.9809 1.9893
3.4573 -6.8613 1.9893
3.7014 -6.7327 1.9893
3.9407 -6.5955 1.9893
4.1749 -6.4498 1.9893
4.4037 -6.2958 1.9893
4.6269 -6.1337 1.9893
4.8441 -5.9636 1.9893
5.0550 -5.7859 1.9893
5.2595 -5.6007 1.9893
5.4571 -5.4083 1.9893
5.6477 -5.2089 1.9893
5.8311 -5.0029 1.9893
6.0069 -4.7903 1.9893
6.1750 -4.5716 1.9893
6.3351 -4.3470 1.9893
6.4871 -4.1168 1.9893
6.6307 -3.8813 1.9893
6.7657 -3.6408 1.9893
6.8920 -3.3956 1.9893
7.0095 -3.1460 1.9893
7.1179 -2.8923 1.9893
7.2171 -2.6350 1.9893
7.3070 -2.3742 1.9893
7.3876 -2.1104 1.9893
7.4586 -1.8438 1.9893
7.5200 -1.5749 1.9893
7.5717 -1.3040 1.9893
7.6136 -1.0313 1.9893
7.6457 -0.7574 1.9893
7.6679 -0.4824 1.9893
7.6803 -0.2069 1.9893
7.6828 0.0690 1.9893
7.6754 0.3447 1.9893
7.6580 0.6200 1.9893
7.6308 0.8945 1.9893
7.5938 1.1678 1.9893
7.5470 1.4397 1.9893
7.4905 1.7096 1.9893
7.4243 1.9774 1.9893
7.3485 2.2426 1.9893
7.2633 2.5050 1.9893
7.1687 2.7641 1.9893
7.0648 3.0196 1.9893
6.9519 3.2713 1.9893
6.8300 3.5187 1.9893
6.6993 3.7616 1.9893
6.5599 3.9997 1.9893
6.4121 4.2326 1.9893
6.2561 4.4600 1.9893
6.0919 4.6817 1.9893
5.9199 4.8974 1.9893
5.7403 5.1067 1.9893
5.5533 5.3095 1.9893
5.3592 5.5054 1.9893
5.1581 5.6942 1.9893
4.9504 5.8757 1.9893
4.7362 6.0496 1.9893
4.5160 6.2157 1.9893
4.2900 6.3738 1.9893
4.0584 6.5237 1.9893
3.8216 6.6652 1.9893
3.5799 6.7981 1.9893
3.3336 6.9222 1.9893
3.0829 7.0374 1.9893
2.8283 7.1435 1.9893
2.5701 7.2405 1.9893
2.3085 7.3281 1.9893
2.0440 7.4062 1.9893
1.7768 7.4748 1.9893
1.5074 7.5338 1.9893
1.2360 7.5830 1.9893
0.9630 7.6225 1.9893
0.6887 7.6521 1.9893
0.4136 7.6719 1.9893
0.1380 7.6818 1.9893
-0.1379 7.6818 1.9893
-0.4136 7.6719 1.9893
-0.6887 7.6521 1.9893
-0.9629 7.6225 1.9893
-1.2359 7.5830 1.9893
-1.5073 7.5338 1.9893
-1.7768 7.4748 1.9893
-2.0440 7.4062 1.9893
-2.3085 7.3281 1.9893
-2.5700 7.2405 1.9893
-2.8283 7.1435 1.9893
-3.0829 7.0374 1.9893
-3.3336 6.9222 1.9893
-3.5798 6.7981 1.9893
-3.8216 6.6652 1.9893
-4.0584 6.5237 1.9893
-4.2899 6.3738 1.9893
-4.5160 6.2157 1.9893
-4.7362 6.0496 1.9893
-4.9503 5.8757 1.9893
-5.1580 5.6942 1.9893
-5.3591 5.5054 1.9893
-5.5532 5.3095 1.9893
-5.7403 5.1067 1.9893
-5.9199 4.8974 1.9893
-6.0919 4.6817 1.9893
-6.2560 4.4600 1.9893
-6.4120 4.2326 1.9893
-6.5598 3.9997 1.9893
-6.6992 3.7616 1.9893
-6.8299 3.5187 1.9893
-6.9519 3.2713 1.9893
-7.0648 3.0196 1.9893
-7.1686 2.7641 1.9893
-7.2632 2.5050 1.9893
-7.3484 2.2427 1.9893
-7.4242 1.9774 1.9893
-7.4904 1.7096 1.9893
-7.5469 1.4397 1.9893
-7.5938 1.1678 1.9893
-7.6308 0.8945 1.9893
-7.6580 0.6200 1.9893
-7.6753 0.3447 1.9893
-7.6827 0.0690 1.9893
-7.6802 -0.2069 1.9893
-7.6679 -0.4824 1.9893
-7.6456 -0.7574 1.9893
-7.6135 -1.0313 1.9893
-7.5716 -1.3040 1.9893
-7.5199 -1.5749 1.9893
-7.4585 -1.8438 1.9893
-7.3875 -2.1104 1.9893
-7.3070 -2.3742 1.9893
-7.2171 -2.6350 1.9893
-7.1178 -2.8923 1.9893
-7.0094 -3.1460 1.9893
-6.8920 -3.3956 1.9893
-6.7657 -3.6408 1.9893
-6.6306 -3.8813 1.9893
-6.4870 -4.1168 1.9893
-6.3351 -4.3470 1.9893
-6.1749 -4.5716 1.9893
-6.0068 -4.7903 1.9893
-5.8310 -5.0029 1.9893
-5.6477 -5.2089 1.9893
-5.4570 -5.4083 1.9893
-5.2594 -5.6007 1.9893
-5.0550 -5.7859 1.9893
-4.8440 -5.9636 1.9893
-4.6268 -6.1337 1.9893
-4.4037 -6.2958 1.9893
-4.1748 -6.4498 1.9893
-3.9406 -6.5955 1.9893
-3.7013 -6.7327 1.9893
-3.4573 -6.8613 1.9893
-3.2087 -6.9809 1.9893
-2.9561 -7.0916 1.9893
-2.6996 -7.1932 1.9893
-2.4397 -7.2854 1.9893
-2.1766 -7.3683 1.9893
-1.9107 -7.4417 1.9893
-1.6423 -7.5055 1.9893
-1.3718 -7.5596 1.9893
-1.0996 -7.6040 1.9893
-0.8259 -7.6385 1.9893
-0.5512 -7.6633 1.9893
-0.2758 -7.6781 1.9893
0.0000 -7.0270 1.9893
0.2523 -7.0224 1.9893
0.5042 -7.0089 1.9893
0.7554 -6.9862 1.9893
1.0057 -6.9546 1.9893
1.2548 -6.9140 1.9893
1.5021 -6.8645 1.9893
1.7476 -6.8062 1.9893
1.9907 -6.7391 1.9893
2.2314 -6.6633 1.9893
2.4691 -6.5789 1.9893
2.7037 -6.4860 1.9893
2.9348 -6.3848 1.9893
3.1621 -6.2753 1.9893
3.3853 -6.1578 1.9893
3.6042 -6.0323 1.9893
3.8184 -5.8990 1.9893
4.0277 -5.7582 1.9893
4.2317 -5.6099 1.9893
4.4304 -5.4544 1.9893
4.6234 -5.2918 1.9893
4.8103 -5.1224 1.9893
4.9911 -4.9465 1.9893
5.1654 -4.7641 1.9893
5.3331 -4.5756 1.9893
5.4940 -4.3812 1.9893
5.6477 -4.1812 1.9893
5.7941 -3.9758 1.9893
5.9331 -3.7652 1.9893
6.0644 -3.5498 1.9893
6.1879 -3.3299 1.9893
6.3035 -3.1056 1.9893
6.4109 -2.8773 1.9893
6.5101 -2.6453 1.9893
6.6008 -2.4099 1.9893
6.6831 -2.1715 1.9893
6.7567 -1.9302 1.9893
6.8216 -1.6864 1.9893
6.8778 -1.4404 1.9893
6.9251 -1.1926 1.9893
6.9634 -0.9433 1.9893
6.9928 -0.6927 1.9893
7.0131 -0.4412 1.9893
7.0245 -0.1892 1.9893
7.0267 0.0631 1.9893
7.0199 0.3153 1.9893
7.0041 0.5670 1.9893
6.9792 0.8181 1.9893
6.9453 1.0681 1.9893
6.9025 1.3167 1.9893
6.8508 1.5636 1.9893
6.7903 1.8086 1.9893
6.7210 2.0511 1.9893
6.6430 2.2911 1.9893
6.5565 2.5280 1.9893
6.4615 2.7618 1.9893
6.3582 2.9919 1.9893
6.2467 3.2182 1.9893
6.1272 3.4404 1.9893
5.9997 3.6581 1.9893
5.8646 3.8711 1.9893
5.7218 4.0791 1.9893
5.5717 4.2819 1.9893
5.4144 4.4792 1.9893
5.2501 4.6706 1.9893
5.0791 4.8561 1.9893
4.9015 5.0353 1.9893
4.7176 5.2080 1.9893
4.5276 5.3739 1.9893
4.3318 5.5330 1.9893
4.1304 5.6849 1.9893
3.9236 5.8295 1.9893
3.7119 5.9666 1.9893
3.4953 6.0960 1.9893
3.2742 6.2176 1.9893
3.0489 6.3311 1.9893
2.8197 6.4364 1.9893
2.5868 6.5335 1.9893
2.3507 6.6221 1.9893
2.1114 6.7023 1.9893
1.8695 6.7737 1.9893
1.6251 6.8365 1.9893
1.3787 6.8904 1.9893
1.1305 6.9354 1.9893
0.8808 6.9716 1.9893
0.6299 6.9987 1.9893
0.3783 7.0168 1.9893
0.1262 7.0258 1.9893
-0.1261 7.0258 1.9893
-0.3782 7.0168 1.9893
-0.6298 6.9987 1.9893
-0.8807 6.9716 1.9893
-1.1304 6.9354 1.9893
-1.3786 6.8904 1.9893
-1.6251 6.8365 1.9893
-1.8694 6.7737 1.9893
-2.1114 6.7023 1.9893
-2.3506 6.6221 1.9893
-2.5868 6.5335 1.9893
-2.8196 6.4364 1.9893
-3.0488 6.3311 1.9893
-3.2741 6.2176 1.9893
-3.4952 6.0960 1.9893
-3.7118 5.9666 1.9893
-3.9236 5.8295 1.9893
-4.1303 5.6849 1.9893
-4.3317 5.5330 1.9893
-4.5276 5.3739 1.9893
-4.7175 5.2080 1.9893
-4.9014 5.0353 1.9893
-5.0790 4.8561 1.9893
-5.2501 4.6706 1.9893
-5.4143 4.4792 1.9893
-5.5716 4.2819 1.9893
-5.7218 4.0792 1.9893
-5.8645 3.8711 1.9893
-5.9997 3.6581 1.9893
-6.1271 3.4404 1.9893
-6.2467 3.2182 1.9893
-6.3582 2.9919 1.9893
-6.4615 2.7618 1.9893
-6.5564 2.5280 1.9893
-6.6430 2.2911 1.9893
-6.7209 2.0511 1.9893
-6.7902 1.8086 1.9893
-6.8507 1.5636 1.9893
-6.9025 1.3167 1.9893
-6.9453 1.0681 1.9893
-6.9792 0.8181 1.9893
-7.0041 0.5671 1.9893
-7.0198 0.3153 1.9893
-7.0266 0.0631 1.9893
-7.0244 -0.1892 1.9893
-7.0130 -0.4412 1.9893
-6.9927 -0.6927 1.9893
-6.9633 -0.9434 1.9893
-6.9250 -1.1926 1.9893
-6.8777 -1.4404 1.9893
-6.8216 -1.6864 1.9893
-6.7566 -1.9302 1.9893
-6.6830 -2.1715 1.9893
-6.6008 -2.4099 1.9893
-6.5100 -2.6453 1.9893
-6.4108 -2.8773 1.9893
-6.3034 -3.1056 1.9893
-6.1879 -3.3299 1.9893
-6.0643 -3.5498 1.9893
-5.9330 -3.7652 1.9893
-5.7940 -3.9758 1.9893
-5.6476 -4.1812 1.9893
-5.4939 -4.3813 1.9893
-5.3331 -4.5756 1.9893
-5.1654 -4.7641 1.9893
-4.9911 -4.9465 1.9893
-4.8103 -5.1224 1.9893
-4.6233 -5.2918 1.9893
-4.4304 -5.4544 1.9893
-4.2317 -5.6099 1.9893
-4.0276 -5.7582 1.9893
-3.8183 -5.8990 1.9893
-3.6041 -6.0323 1.9893
-3.3852 -6.1578 1.9893
-3.1620 -6.2753 1.9893
-2.9347 -6.3848 1.9893
-2.7036 -6.4860 1.9893
-2.4691 -6.5789 1.9893
-2.2313 -6.6633 1.9893
-1.9907 -6.7391 1.9893
-1.7475 -6.8062 1.9893
-1.5021 -6.8645 1.9893
-1.2547 -6.9140 1.9893
-1.0057 -6.9546 1.9893
-0.7554 -6.9862 1.9893
-0.5041 -7.0089 1.9893
-0.2522 -7.0224 1.9893
0.0000 -6.4676 1.9893
0.2322 -6.4634 1.9893
0.4641 -6.4509 1.9893
0.6953 -6.4301 1.9893
0.9257 -6.4010 1.9893
1.1549 -6.3636 1.9893
1.3826 -6.3181 1.9893
1.6084 -6.2644 1.9893
1.8323 -6.2026 1.9893
2.0537 -6.1328 1.9893
2.2726 -6.0552 1.9893
2.4885 -5.9697 1.9893
2.7012 -5.8765 1.9893
2.9104 -5.7758 1.9893
3.1158 -5.6676 1.9893
3.3172 -5.5521 1.9893
3.5144 -5.4294 1.9893
3.7070 -5.2998 1.9893
3.8949 -5.1633 1.9893
4.0777 -5.0202 1.9893
4.2553 -4.8705 1.9893
4.4274 -4.7147 1.9893
4.5938 -4.5527 1.9893
4.7542 -4.3849 1.9893
4.9086 -4.2114 1.9893
5.0566 -4.0325 1.9893
5.1981 -3.8483 1.9893
5.3329 -3.6593 1.9893
5.4608 -3.4655 1.9893
5.5817 -3.2672 1.9893
5.6953 -3.0648 1.9893
5.8017 -2.8584 1.9893
5.9005 -2.6483 1.9893
5.9918 -2.4347 1.9893
6.0753 -2.2181 1.9893
6.1510 -1.9986 1.9893
6.2188 -1.7765 1.9893
6.2786 -1.5521 1.9893
6.3302 -1.3258 1.9893
6.3738 -1.0977 1.9893
6.4091 -0.8682 1.9893
6.4361 -0.6375 1.9893
6.4548 -0.4061 1.9893
6.4653 -0.1741 1.9893
6.4673 0.0580 1.9893
6.4611 0.2902 1.9893
6.4465 0.5219 1.9893
6.4236 0.7530 1.9893
6.3925 0.9831 1.9893
6.3531 1.2119 1.9893
6.3054 1.4392 1.9893
6.2497 1.6646 1.9893
6.1860 1.8878 1.9893
6.1142 2.1087 1.9893
6.0346 2.3268 1.9893
5.9471 2.5419 1.9893
5.8521 2.7537 1.9893
5.7494 2.9620 1.9893
5.6394 3.1665 1.9893
5.5221 3.3669 1.9893
5.3977 3.5630 1.9893
5.2663 3.7544 1.9893
5.1282 3.9410 1.9893
4.9834 4.1226 1.9893
4.8322 4.2988 1.9893
4.6748 4.4695 1.9893
4.5113 4.6344 1.9893
4.3421 4.7934 1.9893
4.1672 4.9461 1.9893
3.9870 5.0925 1.9893
3.8016 5.2324 1.9893
3.6113 5.3655 1.9893
3.4164 5.4916 1.9893
3.2170 5.6107 1.9893
3.0136 5.7226 1.9893
2.8062 5.8271 1.9893
2.5952 5.9240 1.9893
2.3809 6.0134 1.9893
2.1635 6.0950 1.9893
1.9433 6.1687 1.9893
1.7206 6.2345 1.9893
1.4957 6.2922 1.9893
1.2689 6.3419 1.9893
1.0404 6.3833 1.9893
0.8106 6.4166 1.9893
0.5798 6.4415 1.9893
0.3482 6.4582 1.9893
0.1162 6.4665 1.9893
-0.1161 6.4665 1.9893
-0.3481 6.4582 1.9893
-0.5797 6.4415 1.9893
-0.8106 6.4166 1.9893
-1.0404 6.3833 1.9893
-1.2688 6.3419 1.9893
-1.4957 6.2922 1.9893
-1.7206 6.2345 1.9893
-1.9433 6.1687 1.9893
-2.1635 6.0950 1.9893
-2.3808 6.0134 1.9893
-2.5952 5.9241 1.9893
-2.8061 5.8271 1.9893
-3.0135 5.7226 1.9893
-3.2170 5.6107 1.9893
-3.4163 5.4916 1.9893
-3.6113 5.3655 1.9893
-3.8015 5.2324 1.9893
-3.9869 5.0925 1.9893
-4.1671 4.9461 1.9893
-4.3420 4.7934 1.9893
-4.5112 4.6344 1.9893
-4.6747 4.4695 1.9893
-4.8321 4.2988 1.9893
-4.9833 4.1226 1.9893
-5.1281 3.9410 1.9893
-5.2663 3.7544 1.9893
-5.3976 3.5630 1.9893
-5.5221 3.3669 1.9893
-5.6393 3.1665 1.9893
-5.7494 2.9620 1.9893
-5.8520 2.7538 1.9893
-5.9471 2.5419 1.9893
-6.0345 2.3268 1.9893
-6.1141 2.1087 1.9893
-6.1859 1.8879 1.9893
-6.2497 1.6646 1.9893
-6.3054 1.4392 1.9893
-6.3530 1.2119 1.9893
-6.3924 0.9831 1.9893
-6.4236 0.7530 1.9893
-6.4464 0.5219 1.9893
-6.4610 0.2902 1.9893
-6.4673 0.0581 1.9893
-6.4652 -0.1741 1.9893
-6.4548 -0.4061 1.9893
-6.4360 -0.6375 1.9893
-6.4090 -0.8682 1.9893
-6.3737 -1.0977 1.9893
-6.3302 -1.3258 1.9893
-6.2785 -1.5521 1.9893
-6.2188 -1.7765 1.9893
-6.1510 -1.9986 1.9893
-6.0753 -2.2181 1.9893
-5.9917 -2.4347 1.9893
-5.9005 -2.6483 1.9893
-5.8016 -2.8584 1.9893
-5.6953 -3.0648 1.9893
-5.5816 -3.2672 1.9893
-5.4607 -3.4655 1.9893
-5.3328 -3.6593 1.9893
-5.1980 -3.8484 1.9893
-5.0565 -4.0325 1.9893
-4.9085 -4.2114 1.9893
-4.7542 -4.3849 1.9893
-4.5937 -4.5527 1.9893
-4.4274 -4.7147 1.9893
-4.2552 -4.8705 1.9893
-4.0777 -5.0202 1.9893
-3.8948 -5.1633 1.9893
-3.7070 -5.2998 1.9893
-3.5144 -5.4294 1.9893
-3.3172 -5.5521 1.9893
-3.1157 -5.6676 1.9893
-2.9103 -5.7758 1.9893
-2.7011 -5.8765 1.9893
-2.4884 -5.9697 1.9893
-2.2725 -6.0552 1.9893
-2.0537 -6.1328 1.9893
-1.8322 -6.2026 1.9893
-1.6084 -6.2644 1.9893
-1.3825 -6.3181 1.9893
-1.1548 -6.3636 1.9893
-0.9256 -6.4010 1.9893
-0.6953 -6.4301 1.9893
-0.4640 -6.4509 1.9893
-0.2322 -6.4634 1.9893
0.0000 -5.9845 1.9893
0.2149 -5.9807 1.9893
0.4294 -5.9691 1.9893
0.6434 -5.9498 1.9893
0.8566 -5.9229 1.9893
1.0686 -5.8883 1.9893
1.2793 -5.8462 1.9893
1.4883 -5.7965 1.9893
1.6954 -5.7393 1.9893
1.9003 -5.6748 1.9893
2.1028 -5.6029 1.9893
2.3026 -5.5238 1.9893
2.4994 -5.4376 1.9893
2.6930 -5.3444 1.9893
2.8831 -5.2443 1.9893
3.0695 -5.1374 1.9893
3.2519 -5.0239 1.9893
3.4302 -4.9039 1.9893
3.6040 -4.7776 1.9893
3.7732 -4.6452 1.9893
3.9374 -4.5068 1.9893
4.0967 -4.3625 1.9893
4.2506 -4.2127 1.9893
4.3992 -4.0574 1.9893
4.5420 -3.8968 1.9893
4.6789 -3.7313 1.9893
4.8098 -3.5609 1.9893
4.9346 -3.3860 1.9893
5.0529 -3.2067 1.9893
5.1648 -3.0232 1.9893
5.2700 -2.8359 1.9893
5.3684 -2.6449 1.9893
5.4598 -2.4505 1.9893
5.5443 -2.2529 1.9893
5.6216 -2.0524 1.9893
5.6916 -1.8493 1.9893
5.7544 -1.6438 1.9893
5.8097 -1.4362 1.9893
5.8575 -1.2267 1.9893
5.8977 -1.0157 1.9893
5.9304 -0.8033 1.9893
5.9554 -0.5899 1.9893
5.9727 -0.3758 1.9893
5.9824 -0.1611 1.9893
5.9843 0.0537 1.9893
5.9785 0.2685 1.9893
5.9650 0.4829 1.9893
5.9438 0.6967 1.9893
5.9150 0.9096 1.9893
5.8785 1.1214 1.9893
5.8345 1.3317 1.9893
5.7830 1.5403 1.9893
5.7239 1.7468 1.9893
5.6575 1.9512 1.9893
5.5838 2.1530 1.9893
5.5030 2.3521 1.9893
5.4150 2.5481 1.9893
5.3200 2.7408 1.9893
5.2182 2.9300 1.9893
5.1097 3.1154 1.9893
4.9945 3.2968 1.9893
4.8730 3.4740 1.9893
4.7452 3.6467 1.9893
4.6112 3.8147 1.9893
4.4713 3.9777 1.9893
4.3256 4.1357 1.9893
4.1744 4.2883 1.9893
4.0177 4.4353 1.9893
3.8559 4.5767 1.9893
3.6892 4.7122 1.9893
3.5176 4.8416 1.9893
3.3416 4.9647 1.9893
3.1612 5.0815 1.9893
2.9767 5.1917 1.9893
2.7885 5.2952 1.9893
2.5966 5.3919 1.9893
2.4014 5.4816 1.9893
2.2031 5.5643 1.9893
2.0019 5.6397 1.9893
1.7982 5.7080 1.9893
1.5921 5.7688 1.9893
1.3840 5.8223 1.9893
1.1742 5.8682 1.9893
0.9627 5.9066 1.9893
0.7501 5.9373 1.9893
0.5365 5.9604 1.9893
0.3222 5.9758 1.9893
0.1075 5.9835 1.9893
-0.1074 5.9835 1.9893
-0.3221 5.9758 1.9893
-0.5364 5.9604 1.9893
-0.7501 5.9373 1.9893
-0.9627 5.9066 1.9893
-1.1741 5.8682 1.9893
-1.3840 5.8223 1.9893
-1.5921 5.7688 1.9893
-1.7981 5.7080 1.9893
-2.0018 5.6397 1.9893
-2.2030 5.5643 1.9893
-2.4013 5.4816 1.9893
-2.5965 5.3919 1.9893
-2.7884 5.2952 1.9893
-2.9767 5.1917 1.9893
-3.1611 5.0815 1.9893
-3.3415 4.9647 1.9893
-3.5176 4.8416 1.9893
-3.6891 4.7122 1.9893
-3.8559 4.5767 1.9893
-4.0177 4.4354 1.9893
-4.1743 4.2883 1.9893
-4.3255 4.1357 1.9893
-4.4712 3.9777 1.9893
-4.6111 3.8147 1.9893
-4.7451 3.6467 1.9893
-4.8729 3.4740 1.9893
-4.9945 3.2968 1.9893
-5.1096 3.1154 1.9893
-5.2181 2.9300 1.9893
-5.3199 2.7408 1.9893
-5.4149 2.5481 1.9893
-5.5029 2.3521 1.9893
-5.5838 2.1530 1.9893
-5.6575 1.9512 1.9893
-5.7238 1.7468 1.9893
-5.7829 1.5403 1.9893
-5.8344 1.3317 1.9893
-5.8785 1.1214 1.9893
-5.9149 0.9096 1.9893
-5.9438 0.6967 1.9893
-5.9649 0.4829 1.9893
-5.9784 0.2685 1.9893
-5.9842 0.0537 1.9893
-5.9823 -0.1611 1.9893
-5.9727 -0.3758 1.9893
-5.9553 -0.5899 1.9893
-5.9303 -0.8033 1.9893
-5.8977 -1.0157 1.9893
-5.8574 -1.2267 1.9893
-5.8096 -1.4362 1.9893
-5.7543 -1.6438 1.9893
-5.6916 -1.8493 1.9893
-5.6215 -2.0524 1.9893
-5.5442 -2.2529 1.9893
-5.4598 -2.4505 1.9893
-5.3683 -2.6449 1.9893
-5.2699 -2.8359 1.9893
-5.1647 -3.0232 1.9893
-5.0529 -3.2067 1.9893
-4.9345 -3.3860 1.9893
-4.8098 -3.5609 1.9893
-4.6789 -3.7313 1.9893
-4.5419 -3.8968 1.9893
-4.3991 -4.0574 1.9893
-4.2506 -4.2127 1.9893
-4.0966 -4.3625 1.9893
-3.9374 -4.5068 1.9893
-3.7731 -4.6452 1.9893
-3.6039 -4.7776 1.9893
-3.4301 -4.9039 1.9893
-3.2519 -5.0239 1.9893
-3.0694 -5.1374 1.9893
-2.8830 -5.2443 1.9893
-2.6929 -5.3444 1.9893
-2.4993 -5.4376 1.9893
-2.3025 -5.5238 1.9893
-2.1028 -5.6029 1.9893
-1.9003 -5.6748 1.9893
-1.6954 -5.7393 1.9893
-1.4883 -5.7965 1.9893
-1.2792 -5.8462 1.9893
-1.0686 -5.8883 1.9893
-0.8565 -5.9229 1.9893
-0.6433 -5.9498 1.9893
-0.4294 -5.9691 1.9893
-0.2148 -5.9806 1.9893
0.0000 -5.5628 1.9893
0.1997 -5.5592 1.9893
0.3991 -5.5484 1.9893
0.5980 -5.5305 1.9893
0.7962 -5.5055 1.9893
0.9933 -5.4734 1.9893
1.1891 -5.4342 1.9893
1.3834 -5.3880 1.9893
1.5760 -5.3349 1.9893
1.7664 -5.2749 1.9893
1.9547 -5.2081 1.9893
2.1404 -5.1345 1.9893
2.3233 -5.0544 1.9893
2.5032 -4.9677 1.9893
2.6799 -4.8747 1.9893
2.8532 -4.7753 1.9893
3.0227 -4.6699 1.9893
3.1884 -4.5583 1.9893
3.3500 -4.4409 1.9893
3.5072 -4.3178 1.9893
3.6600 -4.1892 1.9893
3.8080 -4.0551 1.9893
3.9511 -3.9158 1.9893
4.0891 -3.7714 1.9893
4.2219 -3.6222 1.9893
4.3492 -3.4683 1.9893
4.4709 -3.3100 1.9893
4.5868 -3.1474 1.9893
4.6968 -2.9807 1.9893
4.8008 -2.8102 1.9893
4.8986 -2.6360 1.9893
4.9901 -2.4585 1.9893
5.0751 -2.2778 1.9893
5.1536 -2.0941 1.9893
5.2254 -1.9078 1.9893
5.2905 -1.7190 1.9893
5.3488 -1.5280 1.9893
5.4002 -1.3350 1.9893
5.4447 -1.1403 1.9893
5.4821 -0.9441 1.9893
5.5124 -0.7467 1.9893
5.5357 -0.5484 1.9893
5.5518 -0.3493 1.9893
5.5608 -0.1498 1.9893
5.5626 0.0499 1.9893
5.5572 0.2496 1.9893
5.5446 0.4489 1.9893
5.5250 0.6476 1.9893
5.4981 0.8455 1.9893
5.4643 1.0424 1.9893
5.4233 1.2378 1.9893
5.3754 1.4317 1.9893
5.3205 1.6237 1.9893
5.2588 1.8137 1.9893
5.1903 2.0013 1.9893
5.1151 2.1863 1.9893
5.0334 2.3685 1.9893
4.9451 2.5477 1.9893
4.8505 2.7235 1.9893
4.7496 2.8959 1.9893
4.6425 3.0645 1.9893
4.5296 3.2292 1.9893
4.4108 3.3897 1.9893
4.2862 3.5458 1.9893
4.1562 3.6974 1.9893
4.0208 3.8442 1.9893
3.8802 3.9861 1.9893
3.7346 4.1228 1.9893
3.5842 4.2542 1.9893
3.4292 4.3801 1.9893
3.2697 4.5004 1.9893
3.1061 4.6148 1.9893
2.9384 4.7234 1.9893
2.7670 4.8258 1.9893
2.5920 4.9220 1.9893
2.4136 5.0119 1.9893
2.2322 5.0953 1.9893
0.8097 2.0452 0.7866
0.7356 2.0724 0.7864
0.6606 2.0970 0.7862
1.4799 5.3623 1.9893
1.2865 5.4120 1.9893
1.0914 5.4547 1.9893
0.8949 5.4903 1.9893
0.6973 5.5189 1.9893
0.4987 5.5404 1.9893
0.2995 5.5547 1.9893
0.0999 5.5619 1.9893
-0.0998 5.5619 1.9893
-0.2994 5.5547 1.9893
-0.4986 5.5404 1.9893
-0.6972 5.5189 1.9893
-0.8948 5.4903 1.9893
-1.0913 5.4547 1.9893
-1.2864 5.4120 1.9893
-1.4798 5.3623 1.9893
-0.6606 2.0971 0.7863
-0.7357 2.0725 0.7865
-0.8098 2.0453 0.7867
-2.2321 5.0953 1.9893
-2.4135 5.0119 1.9893
-2.5919 4.9220 1.9893
-2.7669 4.8258 1.9893
-2.9384 4.7234 1.9893
-3.1060 4.6148 1.9893
-3.2697 4.5004 1.9893
-3.4291 4.3801 1.9893
-3.5841 4.2542 1.9893
-3.7345 4.1228 1.9893
-3.8801 3.9861 1.9893
-4.0207 3.8442 1.9893
-4.1561 3.6974 1.9893
-4.2861 3.5458 1.9893
-4.4107 3.3897 1.9893
-4.5295 3.2292 1.9893
-4.6425 3.0645 1.9893
-4.7495 2.8959 1.9893
-4.8504 2.7235 1.9893
-4.9450 2.5477 1.9893
-5.0333 2.3685 1.9893
-5.1151 2.1863 1.9893
-5.1903 2.0013 1.9893
-5.2587 1.8137 1.9893
-5.3205 1.6237 1.9893
-5.3753 1.4317 1.9893
-5.4233 1.2378 1.9893
-5.4642 1.0424 1.9893
-5.4981 0.8455 1.9893
-5.5249 0.6476 1.9893
-5.5446 0.4489 1.9893
-5.5571 0.2496 1.9893
-5.5625 0.0499 1.9893
-5.5607 -0.1498 1.9893
-5.5518 -0.3493 1.9893
-5.5356 -0.5484 1.9893
-5.5124 -0.7467 1.9893
-5.4820 -0.9441 1.9893
-5.4446 -1.1403 1.9893
-5.4002 -1.3350 1.9893
-5.3488 -1.5280 1.9893
-5.2905 -1.7190 1.9893
-5.2254 -1.9078 1.9893
-5.1535 -2.0941 1.9893
-5.0750 -2.2778 1.9893
-4.9900 -2.4585 1.9893
-4.8985 -2.6360 1.9893
-4.8007 -2.8102 1.9893
-4.6967 -2.9807 1.9893
-4.5867 -3.1474 1.9893
-4.4708 -3.3100 1.9893
-4.3491 -3.4683 1.9893
-4.2218 -3.6222 1.9893
-4.0891 -3.7714 1.9893
-3.9510 -3.9158 1.9893
-3.8079 -4.0551 1.9893
-3.6599 -4.1892 1.9893
-3.5072 -4.3178 1.9893
-3.3499 -4.4409 1.9893
-3.1884 -4.5583 1.9893
-3.0227 -4.6698 1.9893
-2.8531 -4.7753 1.9893
-2.6799 -4.8747 1.9893
-2.5031 -4.9677 1.9893
-2.3232 -5.0544 1.9893
-2.1403 -5.1345 1.9893
-1.9546 -5.2081 1.9893
-1.7664 -5.2749 1.9893
-1.5759 -5.3349 1.9893
-1.3834 -5.3880 1.9893
-1.1891 -5.4342 1.9893
-0.9933 -5.4734 1.9893
-0.7961 -5.5055 1.9893
-0.5980 -5.5305 1.9893
-0.3990 -5.5484 1.9893
-0.1997 -5.5592 1.9893
0.0000 -5.1910 1.9893
0.1863 -5.1877 1.9893
0.1532 -2.1300 0.8184
0.2296 -2.1230 0.8183
0.3056 -2.1132 0.8182
0.3812 -2.1006 0.8181
0.4563 -2.0852 0.8180
0.5308 -2.0672 0.8179
0.6045 -2.0464 0.8177
0.6774 -2.0229 0.8175
0.7494 -1.9968 0.8173
0.8204 -1.9681 0.8171
2.1680 -4.7166 1.9893
2.3359 -4.6357 1.9893
2.5008 -4.5489 1.9893
2.6625 -4.4562 1.9893
2.8207 -4.3578 1.9893
2.9753 -4.2537 1.9893
3.1261 -4.1442 1.9893
3.2729 -4.0293 1.9893
3.4154 -3.9092 1.9893
3.5535 -3.7841 1.9893
3.6871 -3.6541 1.9893
3.8159 -3.5194 1.9893
3.9397 -3.3801 1.9893
4.0585 -3.2365 1.9893
4.1721 -3.0888 1.9893
4.2803 -2.9370 1.9893
4.3829 -2.7815 1.9893
4.4800 -2.6224 1.9893
4.5712 -2.4599 1.9893
4.6565 -2.2942 1.9893
4.7359 -2.1255 1.9893
4.8091 -1.9542 1.9893
4.8762 -1.7803 1.9893
4.9370 -1.6041 1.9893
4.9913 -1.4259 1.9893
5.0393 -1.2458 1.9893
5.0808 -1.0641 1.9893
5.1157 -0.8810 1.9893
5.1441 -0.6968 1.9893
5.1657 -0.5117 1.9893
5.1808 -0.3259 1.9893
5.1892 -0.1398 1.9893
5.1908 0.0466 1.9893
5.1858 0.2329 1.9893
5.1741 0.4189 1.9893
5.1558 0.6043 1.9893
5.1307 0.7890 1.9893
5.0991 0.9727 1.9893
5.0609 1.1551 1.9893
5.0162 1.3360 1.9893
4.9650 1.5152 1.9893
4.9074 1.6925 1.9893
4.8435 1.8675 1.9893
4.7733 2.0402 1.9893
4.6970 2.2102 1.9893
4.6146 2.3774 1.9893
4.5263 2.5415 1.9893
4.4321 2.7024 1.9893
4.3323 2.8597 1.9893
4.2268 3.0134 1.9893
4.1160 3.1632 1.9893
3.9998 3.3089 1.9893
3.8784 3.4503 1.9893
3.7521 3.5873 1.9893
3.6208 3.7197 1.9893
3.4850 3.8473 1.9893
3.3447 3.9699 1.9893
3.2000 4.0874 1.9893
3.0512 4.1996 1.9893
2.8985 4.3064 1.9893
2.7420 4.4077 1.9893
2.5821 4.5033 1.9893
2.4188 4.5931 1.9893
2.2523 4.6769 1.9893
0.8249 1.8831 0.7878
0.7566 1.9110 0.7876
0.6874 1.9364 0.7874
0.6173 1.9594 0.7873
0.5464 1.9799 0.7871
0.4749 1.9979 0.7870
0.4028 2.0134 0.7869
0.3303 2.0263 0.7868
0.2573 2.0367 0.7867
0.1840 2.0445 0.7866
0.1105 2.0496 0.7866
0.0369 2.0522 0.7866
-0.0368 2.0523 0.7866
-0.1105 2.0497 0.7866
-0.1840 2.0445 0.7867
-0.2573 2.0367 0.7867
-0.3303 2.0264 0.7868
-0.4029 2.0135 0.7869
-0.4749 1.9980 0.7870
-0.5465 1.9800 0.7872
-0.6173 1.9596 0.7873
-0.6874 1.9366 0.7875
-0.7567 1.9111 0.7877
-0.8250 1.8832 0.7879
-2.2523 4.6769 1.9893
-2.4187 4.5931 1.9893
-2.5820 4.5033 1.9893
-2.7420 4.4077 1.9893
-2.8984 4.3064 1.9893
-3.0512 4.1996 1.9893
-3.2000 4.0874 1.9893
-3.3446 3.9699 1.9893
-3.4850 3.8472 1.9893
-3.6208 3.7197 1.9893
-3.7520 3.5873 1.9893
-3.8784 3.4503 1.9893
-3.9997 3.3089 1.9893
-4.1159 3.1632 1.9893
-4.2268 3.0134 1.9893
-4.3322 2.8597 1.9893
-4.4321 2.7023 1.9893
-4.5262 2.5415 1.9893
-4.6146 2.3774 1.9893
-4.6969 2.2102 1.9893
-4.7733 2.0402 1.9893
-4.8434 1.8675 1.9893
-4.9073 1.6925 1.9893
-4.9649 1.5152 1.9893
-5.0161 1.3360 1.9893
-5.0608 1.1551 1.9893
-5.0990 0.9727 1.9893
-5.1307 0.7890 1.9893
-5.1557 0.6044 1.9893
-5.1740 0.4189 1.9893
-5.1858 0.2329 1.9893
-5.1908 0.0466 1.9893
-5.1891 -0.1398 1.9893
-5.1807 -0.3259 1.9893
-5.1657 -0.5117 1.9893
-5.1440 -0.6968 1.9893
-5.1156 -0.8810 1.9893
-5.0807 -1.0641 1.9893
-5.0393 -1.2458 1.9893
-4.9913 -1.4259 1.9893
-4.9369 -1.6041 1.9893
-4.8761 -1.7803 1.9893
-4.8091 -1.9542 1.9893
-4.7358 -2.1255 1.9893
-4.6565 -2.2942 1.9893
-4.5711 -2.4599 1.9893
-4.4799 -2.6224 1.9893
-4.3829 -2.7815 1.9893
-4.2802 -2.9370 1.9893
-4.1720 -3.0888 1.9893
-4.0584 -3.2365 1.9893
-3.9396 -3.3801 1.9893
-3.8158 -3.5194 1.9893
-3.6870 -3.6541 1.9893
-3.5534 -3.7841 1.9893
-3.4153 -3.9092 1.9893
-3.2728 -4.0293 1.9893
-3.1261 -4.1442 1.9893
-2.9753 -4.2537 1.9893
-2.8207 -4.3578 1.9893
-2.6624 -4.4562 1.9893
-2.5007 -4.5489 1.9893
-2.3359 -4.6357 1.9893
-2.1679 -4.7166 1.9893
-0.8205 -1.9682 0.8172
-0.7495 -1.9970 0.8174
-0.6775 -2.0231 0.8176
-0.6045 -2.0465 0.8178
-0.5308 -2.0673 0.8179
-0.4563 -2.0853 0.8180
-0.3812 -2.1007 0.8182
-0.3056 -2.1132 0.8183
-0.2296 -2.1230 0.8183
-0.1532 -2.1300 0.8184
-0.1863 -5.1877 1.9893
0.0000 -1.9971 0.8174
0.0717 -1.9958 0.8173
0.1433 -1.9918 0.8173
0.2147 -1.9853 0.8173
0.2858 -1.9761 0.8172
0.3565 -1.9644 0.8171
0.4267 -1.9500 0.8170
0.4963 -1.9331 0.8169
0.5653 -1.9137 0.8167
0.6335 -1.8918 0.8165
0.7009 -1.8674 0.8163
0.7673 -1.8406 0.8161
2.0300 -4.4163 1.9893
2.1872 -4.3406 1.9893
2.3416 -4.2593 1.9893
2.4930 -4.1725 1.9893
2.6411 -4.0803 1.9893
2.7859 -3.9829 1.9893
2.9271 -3.8803 1.9893
3.0645 -3.7727 1.9893
3.1979 -3.6603 1.9893
3.3273 -3.5432 1.9893
3.4523 -3.4214 1.9893
3.5729 -3.2953 1.9893
3.6889 -3.1649 1.9893
3.8001 -3.0305 1.9893
3.9064 -2.8921 1.9893
4.0078 -2.7500 1.9893
4.1039 -2.6044 1.9893
4.1947 -2.4554 1.9893
4.2802 -2.3032 1.9893
4.3601 -2.1481 1.9893
4.4344 -1.9902 1.9893
4.5030 -1.8298 1.9893
4.5657 -1.6669 1.9893
4.6226 -1.5020 1.9893
4.6736 -1.3351 1.9893
4.7185 -1.1665 1.9893
4.7573 -0.9963 1.9893
4.7900 -0.8249 1.9893
4.8166 -0.6524 1.9893
4.8369 -0.4791 1.9893
4.8510 -0.3052 1.9893
4.8588 -0.1309 1.9893
4.8603 0.0436 1.9893
4.8556 0.2181 1.9893
4.8447 0.3922 1.9893
4.8275 0.5659 1.9893
4.8041 0.7388 1.9893
4.7745 0.9108 1.9893
4.7387 1.0816 1.9893
4.6968 1.2510 1.9893
4.6489 1.4188 1.9893
4.5950 1.5847 1.9893
4.5351 1.7486 1.9893
4.4694 1.9103 1.9893
4.3979 2.0695 1.9893
4.3208 2.2260 1.9893
4.2381 2.3797 1.9893
4.1500 2.5303 1.9893
4.0565 2.6776 1.9893
3.9577 2.8215 1.9893
3.8539 2.9618 1.9893
3.7451 3.0982 1.9893
3.6315 3.2306 1.9893
3.5132 3.3589 1.9893
3.3903 3.4829 1.9893
3.2632 3.6023 1.9893
3.1317 3.7171 1.9893
2.9963 3.8271 1.9893
2.8570 3.9322 1.9893
2.7140 4.0322 1.9893
2.5675 4.1271 1.9893
2.4177 4.2166 1.9893
2.2648 4.3006 1.9893
0.8364 1.7368 0.7889
0.7733 1.7652 0.7887
0.7093 1.7914 0.7885
0.6444 1.8153 0.7884
0.5787 1.8369 0.7882
0.5122 1.8561 0.7881
0.4452 1.8730 0.7879
0.3777 1.8875 0.7878
0.3096 1.8996 0.7877
0.2412 1.9094 0.7877
0.1725 1.9167 0.7876
0.1036 1.9215 0.7876
0.0345 1.9240 0.7876
-0.0345 1.9240 0.7876
-0.1036 1.9215 0.7876
-0.1725 1.9167 0.7876
-0.2412 1.9094 0.7877
-0.3096 1.8997 0.7878
-0.3777 1.8876 0.7879
-0.4452 1.8731 0.7880
-0.5123 1.8562 0.7881
-0.5787 1.8370 0.7882
-0.6444 1.8154 0.7884
-0.7093 1.7915 0.7886
-0.7734 1.7653 0.7888
-2.1089 4.3792 1.9893
-2.2647 4.3006 1.9893
-2.4176 4.2166 1.9893
-2.5674 4.1271 1.9893
-2.7139 4.0322 1.9893
-2.8569 3.9322 1.9893
-2.9962 3.8271 1.9893
-3.1317 3.7171 1.9893
-3.2631 3.6023 1.9893
-3.3903 3.4829 1.9893
-3.5131 3.3589 1.9893
-3.6314 3.2306 1.9893
-3.7450 3.0982 1.9893
-3.8538 2.9618 1.9893
-3.9577 2.8215 1.9893
-4.0564 2.6776 1.9893
-4.1499 2.5303 1.9893
-4.2381 2.3797 1.9893
-4.3208 2.2260 1.9893
-4.3979 2.0695 1.9893
-4.4694 1.9103 1.9893
-4.5350 1.7486 1.9893
-4.5949 1.5847 1.9893
-4.6488 1.4188 1.9893
-4.6967 1.2510 1.9893
-4.7386 1.0816 1.9893
-4.7744 0.9108 1.9893
-4.8040 0.7388 1.9893
-4.8274 0.5659 1.9893
-4.8446 0.3922 1.9893
-4.8556 0.2181 1.9893
-4.8603 0.0436 1.9893
-4.8587 -0.1309 1.9893
-4.8509 -0.3052 1.9893
-4.8368 -0.4791 1.9893
-4.8165 -0.6524 1.9893
-4.7900 -0.8249 1.9893
-4.7572 -0.9963 1.9893
-4.7184 -1.1665 1.9893
-4.6735 -1.3351 1.9893
-4.6226 -1.5020 1.9893
-4.5657 -1.6669 1.9893
-4.5029 -1.8298 1.9893
-4.4343 -1.9902 1.9893
-4.3600 -2.1481 1.9893
-4.2801 -2.3032 1.9893
-4.1947 -2.4554 1.9893
-4.1038 -2.6044 1.9893
-4.0077 -2.7500 1.9893
-3.9064 -2.8921 1.9893
-3.8000 -3.0305 1.9893
-3.6889 -3.1649 1.9893
-3.5728 -3.2953 1.9893
-3.4523 -3.4214 1.9893
-3.3272 -3.5432 1.9893
-3.1979 -3.6603 1.9893
-3.0644 -3.7727 1.9893
-2.9270 -3.8803 1.9893
-2.7858 -3.9829 1.9893
-2.6411 -4.0803 1.9893
-2.4929 -4.1725 1.9893
-2.3415 -4.2593 1.9893
-2.1871 -4.3406 1.9893
-0.8327 -1.8115 0.8160
-0.7673 -1.8407 0.8162
-0.7009 -1.8676 0.8164
-0.6336 -1.8919 0.8166
-0.5653 -1.9138 0.8167
-0.4964 -1.9332 0.8169
-0.4267 -1.9501 0.8170
-0.3565 -1.9644 0.8171
-0.2858 -1.9762 0.8172
-0.2147 -1.9853 0.8173
-0.1433 -1.9919 0.8173
-0.0717 -1.9958 0.8174
0.0000 -1.8733 0.8164
0.0672 -1.8721 0.8164
0.1344 -1.8684 0.8164
0.2014 -1.8622 0.8163
0.2681 -1.8537 0.8163
0.3344 -1.8426 0.8162
0.4003 -1.8292 0.8161
0.4656 -1.8134 0.8159
0.5303 -1.7952 0.8158
0.5943 -1.7747 0.8156
0.6575 -1.7518 0.8155
0.7198 -1.7267 0.8153
0.7811 -1.6993 0.8151
2.0540 -4.0763 1.9893
2.1990 -3.9999 1.9893
2.3412 -3.9184 1.9893
2.4803 -3.8318 1.9893
2.6162 -3.7403 1.9893
2.7488 -3.6440 1.9893
2.8778 -3.5430 1.9893
3.0032 -3.4374 1.9893
3.1247 -3.3274 1.9893
3.2421 -3.2131 1.9893
3.3553 -3.0946 1.9893
3.4642 -2.9722 1.9893
3.5687 -2.8459 1.9893
3.6685 -2.7160 1.9893
3.7637 -2.5825 1.9893
3.8540 -2.4458 1.9893
3.9393 -2.3059 1.9893
4.0195 -2.1630 1.9893
4.0946 -2.0173 1.9893
4.1643 -1.8690 1.9893
4.2287 -1.7183 1.9893
4.2877 -1.5654 1.9893
4.3411 -1.4105 1.9893
4.3890 -1.2538 1.9893
4.4311 -1.0954 1.9893
4.4676 -0.9357 1.9893
4.4983 -0.7747 1.9893
4.5232 -0.6127 1.9893
4.5423 -0.4499 1.9893
4.5555 -0.2866 1.9893
4.5629 -0.1229 1.9893
4.5643 0.0410 1.9893
4.5599 0.2048 1.9893
4.5496 0.3683 1.9893
4.5335 0.5314 1.9893
4.5115 0.6938 1.9893
4.4837 0.8553 1.9893
4.4501 1.0157 1.9893
4.4108 1.1748 1.9893
4.3657 1.3324 1.9893
4.3151 1.4882 1.9893
4.2589 1.6421 1.9893
4.1972 1.7940 1.9893
4.1301 1.9435 1.9893
4.0577 2.0905 1.9893
3.9800 2.2348 1.9893
3.8972 2.3762 1.9893
3.8094 2.5146 1.9893
3.7167 2.6497 1.9893
3.6192 2.7814 1.9893
3.5170 2.9095 1.9893
3.4103 3.0339 1.9893
3.2992 3.1544 1.9893
3.1839 3.2707 1.9893
3.0644 3.3829 1.9893
2.9410 3.4907 1.9893
2.8138 3.5941 1.9893
2.6830 3.6928 1.9893
2.5487 3.7867 1.9893
2.4111 3.8757 1.9893
2.2705 3.9598 1.9893
0.8446 1.6038 0.7900
0.7862 1.6326 0.7897
0.7269 1.6594 0.7895
0.6668 1.6840 0.7894
0.6057 1.7065 0.7892
0.5440 1.7268 0.7890
0.4816 1.7449 0.7889
0.4186 1.7608 0.7888
0.3550 1.7745 0.7887
0.2911 1.7859 0.7886
0.2268 1.7951 0.7885
0.1622 1.8019 0.7885
0.0974 1.8065 0.7884
0.0325 1.8088 0.7884
-0.0325 1.8088 0.7884
-0.0974 1.8065 0.7885
-0.1622 1.8020 0.7885
-0.2268 1.7951 0.7885
-0.2911 1.7860 0.7886
-0.3551 1.7746 0.7887
-0.4186 1.7609 0.7888
-0.4816 1.7450 0.7889
-0.5440 1.7269 0.7891
-0.6058 1.7066 0.7892
-0.6668 1.6841 0.7894
-0.7270 1.6595 0.7896
-0.7863 1.6328 0.7898
-2.1268 4.0387 1.9893
-2.2704 3.9598 1.9893
-2.4110 3.8757 1.9893
-2.5486 3.7867 1.9893
-2.6829 3.6928 1.9893
-2.8137 3.5941 1.9893
-2.9409 3.4907 1.9893
-3.0643 3.3829 1.9893
-3.1838 3.2707 1.9893
-3.2992 3.1544 1.9893
-3.4103 3.0339 1.9893
-3.5170 2.9095 1.9893
-3.6192 2.7814 1.9893
-3.7167 2.6497 1.9893
-3.8094 2.5146 1.9893
-3.8972 2.3762 1.9893
-3.9800 2.2348 1.9893
-4.0576 2.0905 1.9893
-4.1301 1.9435 1.9893
-4.1971 1.7940 1.9893
-4.2589 1.6421 1.9893
-4.3151 1.4882 1.9893
-4.3657 1.3324 1.9893
-4.4107 1.1748 1.9893
-4.4500 1.0157 1.9893
-4.4836 0.8553 1.9893
-4.5114 0.6938 1.9893
-4.5334 0.5314 1.9893
-4.5496 0.3683 1.9893
-4.5599 0.2048 1.9893
-4.5643 0.0410 1.9893
-4.5628 -0.1229 1.9893
-4.5555 -0.2866 1.9893
-4.5423 -0.4499 1.9893
-4.5232 -0.6127 1.9893
-4.4982 -0.7747 1.9893
-4.4675 -0.9357 1.9893
-4.4311 -1.0954 1.9893
-4.3889 -1.2538 1.9893
-4.3411 -1.4105 1.9893
-4.2876 -1.5654 1.9893
-4.2287 -1.7183 1.9893
-4.1643 -1.8690 1.9893
-4.0945 -2.0173 1.9893
-4.0194 -2.1630 1.9893
-3.9392 -2.3059 1.9893
-3.8539 -2.4458 1.9893
-3.7636 -2.5825 1.9893
-3.6685 -2.7160 1.9893
-3.5687 -2.8459 1.9893
-3.4642 -2.9722 1.9893
-3.3552 -3.0946 1.9893
-3.2420 -3.2131 1.9893
-3.1246 -3.3274 1.9893
-3.0031 -3.4374 1.9893
-2.8778 -3.5430 1.9893
-2.7488 -3.6440 1.9893
-2.6162 -3.7403 1.9893
-2.4802 -3.8318 1.9893
-2.3411 -3.9184 1.9893
-2.1990 -3.9999 1.9893
-0.8414 -1.6698 0.8149
-0.7811 -1.6994 0.8151
-0.7198 -1.7268 0.8153
-0.6575 -1.7519 0.8155
-0.5943 -1.7748 0.8157
-0.5303 -1.7953 0.8158
-0.4656 -1.8135 0.8160
-0.4003 -1.8293 0.8161
-0.3344 -1.8427 0.8162
-0.2681 -1.8537 0.8163
-0.2014 -1.8623 0.8163
-0.1344 -1.8684 0.8164
-0.0672 -1.8721 0.8164
0.0000 -1.7619 0.8156
0.0632 -1.7608 0.8156
0.1264 -1.7573 0.8155
0.1894 -1.7515 0.8155
0.2521 -1.7435 0.8154
0.3145 -1.7331 0.8153
0.3765 -1.7205 0.8152
0.4379 -1.7056 0.8151
0.4988 -1.6886 0.8150
0.5590 -1.6693 0.8148
0.6184 -1.6478 0.8147
0.6770 -1.6242 0.8145
0.7347 -1.5984 0.8143
0.7914 -1.5706 0.8141
2.0704 -3.7660 1.9893
2.2043 -3.6893 1.9893
2.3353 -3.6077 1.9893
2.4632 -3.5216 1.9893
2.5881 -3.4309 1.9893
2.7096 -3.3358 1.9893
2.8276 -3.2364 1.9893
2.9419 -3.1328 1.9893
3.0525 -3.0252 1.9893
3.1591 -2.9137 1.9893
3.2617 -2.7984 1.9893
3.3600 -2.6795 1.9893
3.4541 -2.5572 1.9893
3.5436 -2.4315 1.9893
3.6286 -2.3028 1.9893
3.7089 -2.1710 1.9893
3.7844 -2.0365 1.9893
3.8551 -1.8993 1.9893
3.9208 -1.7597 1.9893
3.9814 -1.6178 1.9893
4.0370 -1.4739 1.9893
4.0873 -1.3280 1.9893
4.1323 -1.1805 1.9893
4.1720 -1.0314 1.9893
4.2064 -0.8809 1.9893
4.2353 -0.7294 1.9893
4.2587 -0.5769 1.9893
4.2767 -0.4236 1.9893
4.2891 -0.2698 1.9893
4.2961 -0.1157 1.9893
4.2974 0.0386 1.9893
4.2933 0.1928 1.9893
4.2836 0.3468 1.9893
4.2684 0.5003 1.9893
4.2477 0.6532 1.9893
4.2215 0.8053 1.9893
4.1899 0.9563 1.9893
4.1528 1.1061 1.9893
4.1105 1.2544 1.9893
4.0628 1.4012 1.9893
4.0098 1.5461 1.9893
3.9518 1.6891 1.9893
3.8886 1.8298 1.9893
3.8204 1.9682 1.9893
3.7473 2.1041 1.9893
3.6693 2.2373 1.9893
3.5867 2.3675 1.9893
3.4994 2.4947 1.9893
3.4075 2.6187 1.9893
3.3114 2.7394 1.9893
3.2109 2.8565 1.9893
3.1063 2.9699 1.9893
2.9977 3.0795 1.9893
2.8852 3.1851 1.9893
2.7690 3.2866 1.9893
2.6493 3.3839 1.9893
2.5261 3.4768 1.9893
2.3996 3.5652 1.9893
2.2701 3.6491 1.9893
2.1377 3.7282 1.9893
0.7959 1.5114 0.7907
0.7409 1.5386 0.7905
0.6851 1.5638 0.7903
0.6283 1.5870 0.7901
0.5709 1.6082 0.7899
0.5127 1.6274 0.7898
0.4538 1.6445 0.7897
0.3945 1.6595 0.7896
0.3346 1.6724 0.7895
0.2743 1.6831 0.7894
0.2137 1.6918 0.7893
0.1529 1.6982 0.7893
0.0918 1.7026 0.7892
0.0306 1.7047 0.7892
-0.0306 1.7047 0.7892
-0.0918 1.7026 0.7892
-0.1529 1.6983 0.7893
-0.2137 1.6918 0.7893
-0.2743 1.6832 0.7894
-0.3346 1.6724 0.7895
-0.3945 1.6596 0.7896
-0.4539 1.6446 0.7897
-0.5127 1.6275 0.7898
-0.5709 1.6083 0.7900
-0.6284 1.5871 0.7901
-0.6851 1.5639 0.7903
-0.7410 1.5387 0.7905
-0.7960 1.5115 0.7907
-2.1376 3.7282 1.9893
-2.2701 3.6491 1.9893
-2.3996 3.5652 1.9893
-2.5260 3.4768 1.9893
-2.6492 3.3839 1.9893
-2.7690 3.2866 1.9893
-2.8851 3.1851 1.9893
-2.9976 3.0795 1.9893
-3.1062 2.9699 1.9893
-3.2108 2.8565 1.9893
-3.3113 2.7394 1.9893
-3.4075 2.6187 1.9893
-3.4993 2.4947 1.9893
-3.5866 2.3675 1.9893
-3.6693 2.2372 1.9893
-3.7472 2.1041 1.9893
-3.8204 1.9682 1.9893
-3.8885 1.8298 1.9893
-3.9517 1.6891 1.9893
-4.0098 1.5461 1.9893
-4.0627 1.4012 1.9893
-4.1104 1.2544 1.9893
-4.1528 1.1061 1.9893
-4.1898 0.9563 1.9893
-4.2214 0.8053 1.9893
-4.2476 0.6532 1.9893
-4.2683 0.5003 1.9893
-4.2835 0.3468 1.9893
-4.2932 0.1928 1.9893
-4.2974 0.0386 1.9893
-4.2960 -0.1157 1.9893
-4.2891 -0.2698 1.9893
-4.2766 -0.4236 1.9893
-4.2587 -0.5769 1.9893
-4.2352 -0.7294 1.9893
-4.2063 -0.8809 1.9893
-4.1719 -1.0314 1.9893
-4.1322 -1.1805 1.9893
-4.0872 -1.3280 1.9893
-4.0369 -1.4739 1.9893
-3.9814 -1.6178 1.9893
-3.9207 -1.7597 1.9893
-3.8551 -1.8993 1.9893
-3.7844 -2.0365 1.9893
-3.7088 -2.1710 1.9893
-3.6285 -2.3028 1.9893
-3.5435 -2.4315 1.9893
-3.4540 -2.5572 1.9893
-3.3599 -2.6795 1.9893
-3.2616 -2.7984 1.9893
-3.1590 -2.9137 1.9893
-3.0524 -3.0252 1.9893
-2.9419 -3.1328 1.9893
-2.8275 -3.2364 1.9893
-2.7095 -3.3358 1.9893
-2.5880 -3.4309 1.9893
-2.4632 -3.5216 1.9893
-2.3352 -3.6077 1.9893
-2.2042 -3.6892 1.9893
-2.0704 -3.7660 1.9893
-0.7915 -1.5707 0.8142
-0.7348 -1.5985 0.8144
-0.6771 -1.6243 0.8146
-0.6185 -1.6479 0.8147
-0.5590 -1.6693 0.8149
-0.4988 -1.6886 0.8150
-0.4380 -1.7057 0.8152
-0.3765 -1.7206 0.8153
-0.3145 -1.7332 0.8154
-0.2521 -1.7435 0.8154
-0.1894 -1.7516 0.8155
-0.1264 -1.7573 0.8155
-0.0632 -1.7608 0.8156
0.0000 -1.6611 0.8148
0.0596 -1.6600 0.8148
0.1192 -1.6567 0.8148
0.1786 -1.6513 0.8147
0.2377 -1.6437 0.8147
0.2965 -1.6340 0.8146
0.3549 -1.6221 0.8145
0.4129 -1.6081 0.8144
0.4703 -1.5920 0.8143
0.5270 -1.5738 0.8141
0.5831 -1.5536 0.8140
0.6383 -1.5313 0.8138
0.6927 -1.5071 0.8136
0.7462 -1.4809 0.8134
0.7986 -1.4527 0.8132
2.0800 -3.4814 1.9893
2.2037 -3.4045 1.9893
2.3245 -3.3232 1.9893
2.4423 -3.2376 1.9893
2.5569 -3.1478 1.9893
2.6683 -3.0540 1.9893
2.7762 -2.9563 1.9893
2.8805 -2.8547 1.9893
2.9811 -2.7495 1.9893
3.0779 -2.6407 1.9893
3.1707 -2.5285 1.9893
3.2594 -2.4131 1.9893
3.3439 -2.2945 1.9893
3.4241 -2.1730 1.9893
3.4999 -2.0487 1.9893
3.5712 -1.9217 1.9893
3.6379 -1.7923 1.9893
3.6999 -1.6606 1.9893
3.7571 -1.5267 1.9893
3.8095 -1.3908 1.9893
3.8570 -1.2532 1.9893
3.8995 -1.1139 1.9893
3.9369 -0.9732 1.9893
3.9693 -0.8313 1.9893
3.9967 -0.6883 1.9893
4.0188 -0.5444 1.9893
4.0357 -0.3998 1.9893
4.0474 -0.2546 1.9893
4.0540 -0.1092 1.9893
4.0553 0.0364 1.9893
4.0514 0.1819 1.9893
4.0422 0.3273 1.9893
4.0279 0.4721 1.9893
4.0083 0.6164 1.9893
3.9836 0.7599 1.9893
3.9538 0.9024 1.9893
3.9188 1.0438 1.9893
3.8788 1.1838 1.9893
3.8339 1.3222 1.9893
3.7839 1.4590 1.9893
3.7291 1.5939 1.9893
3.6695 1.7267 1.9893
3.6052 1.8573 1.9893
3.5362 1.9855 1.9893
3.4626 2.1112 1.9893
3.3846 2.2341 1.9893
3.3022 2.3542 1.9893
3.2156 2.4712 1.9893
3.1248 2.5850 1.9893
3.0300 2.6955 1.9893
2.9313 2.8026 1.9893
2.8288 2.9060 1.9893
2.7227 3.0056 1.9893
2.6130 3.1014 1.9893
2.5000 3.1932 1.9893
2.3838 3.2809 1.9893
2.2644 3.3644 1.9893
2.1422 3.4435 1.9893
0.8026 1.3998 0.7915
0.7517 1.4274 0.7913
0.6998 1.4531 0.7911
0.6470 1.4769 0.7909
0.5934 1.4989 0.7908
0.5392 1.5189 0.7906
0.4842 1.5370 0.7905
0.4287 1.5532 0.7904
0.3726 1.5674 0.7903
0.3160 1.5796 0.7902
0.2591 1.5897 0.7901
0.2019 1.5979 0.7900
0.1444 1.6040 0.7900
0.0867 1.6081 0.7900
0.0289 1.6102 0.7899
-0.0289 1.6102 0.7899
-0.0867 1.6081 0.7900
-0.1444 1.6040 0.7900
-0.2019 1.5979 0.7900
-0.2591 1.5898 0.7901
-0.3161 1.5796 0.7902
-0.3726 1.5674 0.7903
-0.4287 1.5533 0.7904
-0.4842 1.5371 0.7905
-0.5392 1.5190 0.7907
-0.5935 1.4990 0.7908
-0.6470 1.4770 0.7910
-0.6998 1.4532 0.7912
-0.7517 1.4275 0.7914
-0.8027 1.3999 0.7916
-2.1421 3.4435 1.9893
-2.2644 3.3644 1.9893
-2.3837 3.2809 1.9893
-2.4999 3.1932 1.9893
-2.6129 3.1014 1.9893
-2.7226 3.0056 1.9893
-2.8287 2.9060 1.9893
-2.9312 2.8026 1.9893
-3.0299 2.6955 1.9893
-3.1247 2.5850 1.9893
-3.2155 2.4712 1.9893
-3.3022 2.3542 1.9893
-3.3845 2.2341 1.9893
-3.4625 2.1112 1.9893
-3.5361 1.9855 1.9893
-3.6051 1.8573 1.9893
-3.6695 1.7267 1.9893
-3.7291 1.5939 1.9893
-3.7839 1.4590 1.9893
-3.8338 1.3222 1.9893
-3.8788 1.1838 1.9893
-3.9188 1.0438 1.9893
-3.9537 0.9024 1.9893
-3.9836 0.7599 1.9893
-4.0083 0.6164 1.9893
-4.0278 0.4721 1.9893
-4.0422 0.3273 1.9893
-4.0513 0.1819 1.9893
-4.0552 0.0364 1.9893
-4.0539 -0.1092 1.9893
-4.0474 -0.2546 1.9893
-4.0356 -0.3998 1.9893
-4.0187 -0.5444 1.9893
-3.9966 -0.6883 1.9893
-3.9693 -0.8313 1.9893
-3.9369 -0.9733 1.9893
-3.8994 -1.1139 1.9893
-3.8569 -1.2532 1.9893
-3.8094 -1.3908 1.9893
-3.7571 -1.5267 1.9893
-3.6998 -1.6606 1.9893
-3.6378 -1.7923 1.9893
-3.5712 -1.9217 1.9893
-3.4999 -2.0487 1.9893
-3.4241 -2.1730 1.9893
-3.3439 -2.2945 1.9893
-3.2594 -2.4131 1.9893
-3.1706 -2.5285 1.9893
-3.0778 -2.6407 1.9893
-2.9811 -2.7495 1.9893
-2.8804 -2.8547 1.9893
-2.7761 -2.9563 1.9893
-2.6682 -3.0540 1.9893
-2.5569 -3.1478 1.9893
-2.4422 -3.2376 1.9893
-2.3244 -3.3232 1.9893
-2.2036 -3.4045 1.9893
-2.0800 -3.4814 1.9893
-0.7987 -1.4529 0.8133
-0.7462 -1.4810 0.8135
-0.6928 -1.5072 0.8137
-0.6384 -1.5314 0.8138
-0.5831 -1.5537 0.8140
-0.5271 -1.5739 0.8142
-0.4703 -1.5921 0.8143
-0.4129 -1.6081 0.8144
-0.3550 -1.6221 0.8145
-0.2965 -1.6340 0.8146
-0.2377 -1.6437 0.8147
-0.1786 -1.6513 0.8147
-0.1192 -1.6568 0.8148
-0.0596 -1.6600 0.8148
0.0000 -1.5693 0.8141
0.0563 -1.5682 0.8141
0.1126 -1.5652 0.8141
0.1687 -1.5600 0.8140
0.2246 -1.5529 0.8140
0.2801 -1.5437 0.8139
0.3353 -1.5324 0.8138
0.3901 -1.5192 0.8137
0.4443 -1.5040 0.8136
0.4979 -1.4869 0.8135
0.5509 -1.4678 0.8133
0.6031 -1.4468 0.8132
0.6545 -1.4239 0.8130
0.7050 -1.3991 0.8128
0.7546 -1.3726 0.8126
0.8032 -1.3443 0.8124
2.0837 -3.2190 1.9893
2.1979 -3.1422 1.9893
2.3092 -3.0613 1.9893
2.4176 -2.9764 1.9893
2.5229 -2.8877 1.9893
2.6250 -2.7953 1.9893
2.7236 -2.6992 1.9893
2.8187 -2.5997 1.9893
2.9102 -2.4969 1.9893
2.9980 -2.3908 1.9893
3.0819 -2.2816 1.9893
3.1618 -2.1695 1.9893
3.2377 -2.0547 1.9893
3.3093 -1.9371 1.9893
3.3767 -1.8171 1.9893
3.4397 -1.6947 1.9893
3.4984 -1.5701 1.9893
3.5525 -1.4435 1.9893
3.6020 -1.3151 1.9893
3.6469 -1.1849 1.9893
3.6871 -1.0533 1.9893
3.7225 -0.9202 1.9893
3.7532 -0.7860 1.9893
3.7790 -0.6508 1.9893
3.7999 -0.5147 1.9893
3.8159 -0.3780 1.9893
3.8270 -0.2408 1.9893
3.8332 -0.1032 1.9893
3.8344 0.0344 1.9893
3.8307 0.1720 1.9893
3.8221 0.3094 1.9893
3.8085 0.4464 1.9893
3.7900 0.5828 1.9893
3.7667 0.7185 1.9893
3.7384 0.8533 1.9893
3.7054 0.9869 1.9893
3.6676 1.1193 1.9893
3.6250 1.2502 1.9893
3.5778 1.3795 1.9893
3.5260 1.5071 1.9893
3.4696 1.6327 1.9893
3.4088 1.7562 1.9893
3.3435 1.8774 1.9893
3.2740 1.9962 1.9893
3.2002 2.1124 1.9893
3.1223 2.2260 1.9893
3.0404 2.3366 1.9893
2.9546 2.4442 1.9893
2.8649 2.5487 1.9893
2.7716 2.6499 1.9893
2.6747 2.7477 1.9893
2.5744 2.8419 1.9893
2.4707 2.9325 1.9893
2.3638 3.0193 1.9893
2.2539 3.1022 1.9893
2.1411 3.1811 1.9893
0.8067 1.2968 0.7923
0.7595 1.3245 0.7921
0.7112 1.3506 0.7919
0.6621 1.3750 0.7917
0.6122 1.3975 0.7915
0.5616 1.4183 0.7914
0.5102 1.4373 0.7912
0.4582 1.4545 0.7911
0.4056 1.4698 0.7910
0.3526 1.4832 0.7909
0.2991 1.4947 0.7908
0.2452 1.5044 0.7907
0.1910 1.5121 0.7907
0.1366 1.5179 0.7906
0.0820 1.5218 0.7906
0.0274 1.5237 0.7906
-0.0274 1.5237 0.7906
-0.0820 1.5218 0.7906
-0.1366 1.5179 0.7907
-0.1910 1.5121 0.7907
-0.2452 1.5044 0.7908
-0.2991 1.4948 0.7908
-0.3526 1.4833 0.7909
-0.4057 1.4698 0.7910
-0.4582 1.4545 0.7911
-0.5102 1.4374 0.7913
-0.5616 1.4184 0.7914
-0.6123 1.3976 0.7916
-0.6622 1.3751 0.7918
-0.7113 1.3507 0.7919
-0.7595 1.3247 0.7921
-0.8068 1.2969 0.7924
-2.1410 3.1811 1.9893
-2.2539 3.1022 1.9893
-2.3638 3.0193 1.9893
-2.4706 2.9325 1.9893
-2.5743 2.8419 1.9893
-2.6747 2.7477 1.9893
-2.7716 2.6499 1.9893
-2.8649 2.5487 1.9893
-2.9545 2.4442 1.9893
-3.0404 2.3366 1.9893
-3.1223 2.2260 1.9893
-3.2002 2.1124 1.9893
-3.2740 1.9962 1.9893
-3.3435 1.8774 1.9893
-3.4087 1.7562 1.9893
-3.4696 1.6327 1.9893
-3.5260 1.5071 1.9893
-3.5778 1.3795 1.9893
-3.6250 1.2502 1.9893
-3.6675 1.1193 1.9893
-3.7053 0.9869 1.9893
-3.7384 0.8533 1.9893
-3.7666 0.7185 1.9893
-3.7900 0.5828 1.9893
-3.8084 0.4464 1.9893
-3.8220 0.3094 1.9893
-3.8307 0.1720 1.9893
-3.8344 0.0344 1.9893
-3.8331 -0.1032 1.9893
-3.8270 -0.2408 1.9893
-3.8159 -0.3780 1.9893
-3.7998 -0.5147 1.9893
-3.7789 -0.6508 1.9893
-3.7531 -0.7860 1.9893
-3.7225 -0.9202 1.9893
-3.6871 -1.0533 1.9893
-3.6468 -1.1849 1.9893
-3.6020 -1.3151 1.9893
-3.5524 -1.4435 1.9893
-3.4983 -1.5701 1.9893
-3.4397 -1.6947 1.9893
-3.3767 -1.8171 1.9893
-3.3093 -1.9371 1.9893
-3.2376 -2.0547 1.9893
-3.1617 -2.1695 1.9893
-3.0818 -2.2816 1.9893
-2.9979 -2.3908 1.9893
-2.9102 -2.4969 1.9893
-2.8187 -2.5997 1.9893
-2.7235 -2.6992 1.9893
-2.6249 -2.7953 1.9893
-2.5228 -2.8877 1.9893
-2.4176 -2.9764 1.9893
-2.3092 -3.0613 1.9893
-2.1978 -3.1422 1.9893
-2.0836 -3.2190 1.9893
-0.8032 -1.3444 0.8124
-0.7546 -1.3727 0.8126
-0.7051 -1.3992 0.8128
-0.6545 -1.4240 0.8130
-0.6031 -1.4469 0.8132
-0.5509 -1.4679 0.8134
-0.4979 -1.4870 0.8135
-0.4443 -1.5041 0.8136
-0.3901 -1.5193 0.8137
-0.3353 -1.5325 0.8138
-0.2802 -1.5437 0.8139
-0.2246 -1.5529 0.8140
-0.1687 -1.5601 0.8140
-0.1126 -1.5652 0.8141
-0.0563 -1.5683 0.8141
-0.0000 -1.4852 0.8135
0.0533 -1.4843 0.8135
0.1065 -1.4813 0.8134
0.1597 -1.4765 0.8134
0.2125 -1.4697 0.8133
0.2651 -1.4610 0.8133
0.3174 -1.4504 0.8132
0.3692 -1.4379 0.8131
0.4205 -1.4235 0.8130
0.4713 -1.4073 0.8129
0.5214 -1.3892 0.8127
0.5708 -1.3694 0.8126
0.6195 -1.3477 0.8124
0.6673 -1.3243 0.8122
0.7142 -1.2992 0.8120
0.7602 -1.2724 0.8118
0.8052 -1.2440 0.8116
2.0818 -2.9762 1.9893
2.1873 -2.8996 1.9893
2.2900 -2.8192 1.9893
2.3897 -2.7352 1.9893
2.4863 -2.6476 1.9893
2.5798 -2.5567 1.9893
2.6699 -2.4624 1.9893
2.7565 -2.3650 1.9893
2.8397 -2.2645 1.9893
2.9191 -2.1612 1.9893
