ply
format ascii 1.0
element vertex 2178
property float32 x
property float32 y
property float32 z
end_header
6.7261 2.5836 1.8849
7.1727 3.0552 2.0410
7.0505 3.3072 2.0401
6.9192 3.5542 2.0391
6.7791 3.7961 2.0381
6.6305 4.0324 2.0370
6.4734 4.2627 2.0358
6.3051 4.4848 2.0335
6.1345 4.7043 2.0329
5.9562 4.9173 2.0323
5.7705 5.1236 2.0316
5.5776 5.3228 2.0308
5.3778 5.5148 2.0300
5.1715 5.6993 2.0291
4.9588 5.8762 2.0282
4.7400 6.0450 2.0272
4.5156 6.2058 2.0262
4.2857 6.3583 2.0251
4.0507 6.5023 2.0240
3.8109 6.6376 2.0229
3.5666 6.7642 2.0216
3.3182 6.8818 2.0204
3.0659 6.9904 2.0191
2.8102 7.0898 2.0178
2.5513 7.1799 2.0164
2.2896 7.2606 2.0150
2.0253 7.3320 2.0136
1.7591 7.3942 2.0122
1.4916 7.4499 2.0116
1.2224 7.4959 2.0110
0.9518 7.5323 2.0103
0.6802 7.5592 2.0097
0.4079 7.5765 2.0090
0.1352 7.5843 2.0084
-0.1375 7.5824 2.0077
-0.4099 7.5709 2.0071
-0.6816 7.5499 2.0064
-0.9524 7.5193 2.0058
-1.2220 7.4793 2.0051
-1.4899 7.4298 2.0044
-1.7559 7.3709 2.0038
-2.0196 7.3028 2.0032
-2.2807 7.2254 2.0025
-2.5390 7.1389 2.0019
-2.7941 7.0434 2.0013
-3.0457 6.9389 2.0007
-3.2934 6.8257 2.0000
-3.5371 6.7038 1.9995
-3.7764 6.5735 1.9989
-4.0109 6.4348 1.9983
-4.2405 6.2879 1.9977
-4.4649 6.1330 1.9972
-4.6837 5.9702 1.9966
-4.8967 5.7998 1.9961
-5.1036 5.6220 1.9956
-5.3042 5.4370 1.9951
-5.4982 5.2449 1.9946
-5.6854 5.0461 1.9941
-5.8656 4.8407 1.9937
-6.0385 4.6290 1.9932
-6.2039 4.4112 1.9928
-6.3616 4.1876 1.9924
-6.5113 3.9586 1.9920
-6.6530 3.7242 1.9917
-6.7864 3.4849 1.9913
-6.9113 3.2408 1.9910
-7.0275 2.9924 1.9907
-7.1350 2.7399 1.9904
-7.2335 2.4835 1.9902
-7.3229 2.2237 1.9899
-7.4032 1.9607 1.9897
-7.4741 1.6948 1.9895
-7.5355 1.4264 1.9893
-7.5875 1.1558 1.9892
-7.6288 0.8833 1.9888
-7.6619 0.6094 1.9888
-7.3671 0.3204 1.9066
-7.1084 0.0538 1.8364
-7.1115 -0.2015 1.8364
-7.1054 -0.4570 1.8364
-7.0901 -0.7123 1.8364
-7.0656 -0.9670 1.8364
-7.0319 -1.2209 1.8364
-6.9891 -1.4735 1.8364
-6.9427 -1.7261 1.8379
-6.8810 -1.9754 1.8378
-6.8101 -2.2225 1.8376
-6.7302 -2.4669 1.8374
-6.6414 -2.7084 1.8371
-6.5437 -2.9465 1.8369
-6.4373 -3.1811 1.8366
-6.3229 -3.4120 1.8364
-6.2204 -3.6506 1.8423
-6.2058 -3.9479 1.8775
-6.1977 -4.2625 1.9189
-6.1887 -4.5917 1.9646
-6.0978 -4.8728 1.9888
-5.9226 -5.0913 1.9888
-5.7394 -5.3033 1.9888
-5.5485 -5.5086 1.9888
-5.3501 -5.7070 1.9888
-5.1445 -5.8980 1.9888
-4.9320 -6.0814 1.9888
-4.7129 -6.2571 1.9888
-4.4874 -6.4247 1.9888
-4.2558 -6.5840 1.9888
-4.0185 -6.7347 1.9888
-3.7757 -6.8767 1.9888
-3.5278 -7.0098 1.9888
-3.2752 -7.1338 1.9888
-3.0181 -7.2484 1.9888
-2.7569 -7.3535 1.9888
-2.4920 -7.4491 1.9888
-2.2237 -7.5348 1.9888
-1.9525 -7.6107 1.9888
-1.6786 -7.6766 1.9888
-1.4024 -7.7324 1.9888
-1.1244 -7.7781 1.9888
-0.8449 -7.8135 1.9888
-0.5643 -7.8387 1.9888
-0.2829 -7.8535 1.9888
-0.0012 -7.1747 1.9888
0.2559 -7.1695 1.9888
0.5127 -7.1548 1.9888
0.7687 -7.1308 1.9888
1.0236 -7.0974 1.9888
1.2771 -7.0547 1.9888
1.5287 -7.0028 1.9888
1.7783 -6.9416 1.9888
2.0254 -6.8716 1.9888
2.2697 -6.7925 1.9888
2.5109 -6.7045 1.9888
2.7079 -6.5098 1.9593
2.7541 -6.0043 1.8364
2.9667 -5.9000 1.8366
3.1759 -5.7891 1.8372
3.3809 -5.6707 1.8377
3.5814 -5.5448 1.8383
3.7771 -5.4117 1.8388
3.6303 -4.8232 1.6829
3.6171 -4.4631 1.6023
3.7570 -4.3101 1.5956
4.0326 -4.3044 1.6470
4.6751 -4.6445 1.8412
4.8369 -4.4722 1.8416
4.9933 -4.2952 1.8425
5.1438 -4.1130 1.8435
5.2983 -3.9336 1.8483
5.4469 -3.7485 1.8532
5.5875 -3.5568 1.8577
5.7197 -3.3590 1.8616
5.8442 -3.1558 1.8654
5.9613 -2.9478 1.8691
6.0700 -2.7351 1.8725
6.1675 -2.5169 1.8749
5.4254 -1.9901 1.6277
5.4260 -1.7721 1.6089
5.5378 -1.5911 1.6253
6.4607 -1.6077 1.8794
6.5121 -1.3744 1.8802
6.5546 -1.1393 1.8809
6.5882 -0.9029 1.8814
6.6130 -0.6655 1.8818
6.6287 -0.4274 1.8822
6.6355 -0.1890 1.8824
6.6334 0.0493 1.8824
6.6223 0.2872 1.8824
6.6085 0.5248 1.8840
6.5801 0.7612 1.8839
6.5429 0.9961 1.8837
6.4968 1.2293 1.8832
6.4419 1.4603 1.8827
6.3784 1.6889 1.8820
6.3070 1.9149 1.8813
6.2275 2.1379 1.8806
6.1401 2.3577 1.8798
6.5504 2.7892 2.0361
6.4401 3.0200 2.0356
6.3210 3.2461 2.0348
6.1935 3.4672 2.0338
6.0580 3.6834 2.0327
5.9129 3.8928 2.0309
5.7620 4.0976 2.0295
5.6065 4.2985 2.0289
5.4439 4.4936 2.0284
5.2746 4.6824 2.0277
5.0987 4.8649 2.0270
4.9164 5.0408 2.0263
4.7281 5.2099 2.0255
4.5340 5.3720 2.0247
4.3343 5.5268 2.0238
4.1294 5.6742 2.0228
3.9195 5.8141 2.0219
3.7048 5.9463 2.0208
3.4857 6.0705 2.0198
3.2626 6.1867 2.0187
3.0355 6.2948 2.0175
2.8050 6.3946 2.0164
2.5712 6.4860 2.0151
2.3344 6.5690 2.0139
2.0955 6.6447 2.0130
1.8545 6.7130 2.0124
1.6113 6.7726 2.0119
1.3663 6.8237 2.0113
1.1197 6.8660 2.0107
0.8718 6.8996 2.0101
0.6230 6.9244 2.0095
0.3736 6.9404 2.0089
0.1238 6.9477 2.0083
-0.1261 6.9461 2.0077
-0.3756 6.9357 2.0071
-0.6246 6.9166 2.0065
-0.8728 6.8887 2.0059
-1.1197 6.8521 2.0053
-1.3652 6.8068 2.0047
-1.6089 6.7529 2.0041
-1.8506 6.6905 2.0035
-2.0899 6.6196 2.0029
-2.3266 6.5403 2.0024
-2.5603 6.4528 2.0018
-2.7908 6.3571 2.0012
-3.0178 6.2533 2.0007
-3.2410 6.1415 2.0001
-3.4602 6.0220 1.9996
-3.6751 5.8949 1.9990
-3.8854 5.7602 1.9985
-4.0908 5.6181 1.9980
-4.2912 5.4689 1.9975
-4.4863 5.3127 1.9970
-4.6757 5.1497 1.9966
-4.8594 4.9800 1.9961
-5.0370 4.8039 1.9957
-5.2083 4.6216 1.9952
-5.3732 4.4333 1.9948
-5.5314 4.2392 1.9944
-5.6827 4.0396 1.9940
-5.8269 3.8347 1.9937
-5.9638 3.6247 1.9933
-6.0933 3.4099 1.9930
-6.2152 3.1906 1.9927
-6.3293 2.9669 1.9924
-6.4354 2.7393 1.9921
-6.5335 2.5079 1.9919
-6.6234 2.2731 1.9916
-6.7049 2.0350 1.9914
-6.7780 1.7941 1.9912
-6.8425 1.5506 1.9910
-6.8984 1.3049 1.9909
-6.9444 1.0569 1.9904
-6.9785 0.8070 1.9891
-7.0073 0.5564 1.9888
-7.0281 0.3047 1.9888
-6.9805 0.0519 1.9721
-6.7604 -0.1925 1.9092
-6.5970 -0.4252 1.8648
-6.4847 -0.6523 1.8371
-6.4595 -0.8849 1.8364
-6.4283 -1.1169 1.8364
-6.3887 -1.3478 1.8364
-6.3408 -1.5773 1.8364
-6.2846 -1.8050 1.8364
-6.2266 -2.0329 1.8384
-6.2122 -2.2779 1.8558
-6.2075 -2.5323 1.8791
-6.2023 -2.7936 1.9053
-6.1965 -3.0629 1.9348
-6.1900 -3.3411 1.9677
-6.1351 -3.6014 1.9888
-6.0056 -3.8215 1.9888
-5.8682 -4.0367 1.9888
-5.7229 -4.2470 1.9888
-5.5700 -4.4519 1.9888
-5.4096 -4.6512 1.9888
-5.2421 -4.8446 1.9888
-5.0675 -5.0320 1.9888
-4.8861 -5.2129 1.9888
-4.6982 -5.3871 1.9888
-4.5040 -5.5545 1.9888
-4.3037 -5.7147 1.9888
-4.0976 -5.8675 1.9888
-3.8861 -6.0127 1.9888
-3.6692 -6.1502 1.9888
-3.4475 -6.2797 1.9888
-3.2211 -6.4011 1.9888
-2.9903 -6.5141 1.9888
-2.7556 -6.6186 1.9888
-2.5171 -6.7145 1.9888
-2.2752 -6.8016 1.9888
-2.0303 -6.8798 1.9888
-1.7826 -6.9490 1.9888
-1.5325 -7.0091 1.9888
-1.2804 -7.0600 1.9888
-1.0266 -7.1017 1.9888
-0.7714 -7.1340 1.9888
-0.5152 -7.1570 1.9888
-0.2584 -7.1705 1.9888
-0.0012 -6.5941 1.9888
0.2351 -6.5893 1.9888
0.4710 -6.5759 1.9888
0.7063 -6.5539 1.9888
0.9406 -6.5233 1.9888
1.1735 -6.4842 1.9888
1.4049 -6.4366 1.9888
1.6342 -6.3806 1.9888
1.8614 -6.3163 1.9888
2.0860 -6.2437 1.9888
2.3077 -6.1630 1.9888
2.5263 -6.0743 1.9888
2.7063 -5.9011 1.9633
2.7355 -5.4412 1.8425
2.9182 -5.3202 1.8365
3.1066 -5.2115 1.8370
3.2908 -5.0959 1.8375
3.4707 -4.9737 1.8380
3.5351 -4.6976 1.7825
3.5998 -4.4427 1.7345
3.7411 -4.2927 1.7282
3.9699 -4.2383 1.7634
4.2963 -4.2691 1.8402
4.4451 -4.1109 1.8406
4.5879 -3.9474 1.8410
4.7247 -3.7788 1.8413
4.8552 -3.6054 1.8417
4.9802 -3.4282 1.8424
5.0990 -3.2467 1.8432
5.2136 -3.0626 1.8449
5.3293 -2.8786 1.8493
5.4357 -2.6888 1.8527
5.5343 -2.4946 1.8558
5.6250 -2.2963 1.8587
5.4125 -1.9862 1.7650
5.4133 -1.7688 1.7446
5.4867 -1.5773 1.7501
5.9062 -1.4706 1.8671
5.9559 -1.2578 1.8687
5.9972 -1.0432 1.8700
6.0298 -0.8272 1.8710
6.0537 -0.6100 1.8717
6.0689 -0.3921 1.8721
6.0754 -0.1739 1.8723
6.0731 0.0443 1.8722
6.0622 0.2621 1.8718
6.0540 0.4800 1.8747
6.0324 0.6970 1.8759
6.0014 0.9129 1.8765
5.9607 1.1270 1.8765
5.9122 1.3394 1.8764
5.8561 1.5498 1.8763
5.7925 1.7579 1.8762
5.7210 1.9633 1.8759
5.6419 2.1656 1.8754
6.0202 2.5626 2.0317
5.9199 2.7752 2.0314
5.8118 2.9837 2.0310
5.6948 3.1873 2.0300
5.5691 3.3853 2.0284
5.4356 3.5778 2.0265
5.2996 3.7680 2.0261
5.1569 3.9531 2.0256
5.0077 4.1327 2.0250
4.8522 4.3067 2.0244
4.6907 4.4749 2.0238
4.5233 4.6370 2.0231
4.3503 4.7929 2.0224
4.1720 4.9423 2.0216
3.9885 5.0851 2.0208
3.8002 5.2211 2.0200
3.6072 5.3502 2.0191
3.4099 5.4722 2.0181
3.2085 5.5869 2.0172
3.0032 5.6943 2.0161
2.7944 5.7941 2.0151
2.5823 5.8864 2.0140
2.3681 5.9731 2.0136
2.1508 6.0518 2.0131
1.9311 6.1227 2.0126
1.7090 6.1858 2.0120
1.4849 6.2409 2.0115
1.2591 6.2881 2.0110
1.0319 6.3273 2.0104
0.8035 6.3584 2.0099
0.5742 6.3815 2.0093
0.3442 6.3964 2.0088
0.1140 6.4032 2.0082
-0.1163 6.4018 2.0077
-0.3463 6.3924 2.0071
-0.5759 6.3748 2.0066
-0.8046 6.3492 2.0060
-1.0323 6.3155 2.0055
-1.2586 6.2738 2.0049
-1.4833 6.2241 2.0044
-1.7060 6.1666 2.0038
-1.9266 6.1013 2.0033
-2.1448 6.0282 2.0027
-2.3602 5.9475 2.0022
-2.5727 5.8592 2.0017
-2.7820 5.7635 2.0012
-2.9877 5.6605 2.0007
-3.1897 5.5503 2.0002
-3.3878 5.4330 1.9997
-3.5816 5.3088 1.9992
-3.7709 5.1778 1.9988
-3.9555 5.0402 1.9983
-4.1352 4.8961 1.9978
-4.3098 4.7457 1.9974
-4.4790 4.5892 1.9970
-4.6425 4.4268 1.9966
-4.8003 4.2587 1.9962
-4.9522 4.0850 1.9958
-5.0978 3.9060 1.9954
-5.2371 3.7219 1.9951
-5.3698 3.5329 1.9948
-5.4958 3.3393 1.9944
-5.6149 3.1413 1.9941
-5.7270 2.9390 1.9938
-5.8319 2.7329 1.9936
-5.9294 2.5230 1.9933
-6.0196 2.3097 1.9931
-6.1021 2.0933 1.9929
-6.1769 1.8739 1.9927
-6.2440 1.6519 1.9925
-6.3031 1.4275 1.9923
-6.3543 1.2011 1.9922
-6.3919 0.9720 1.9903
-6.4242 0.7420 1.9894
-6.4499 0.5112 1.9890
-6.4681 0.2796 1.9889
-6.4785 0.0473 1.9888
-6.4805 -0.1854 1.9888
-6.4742 -0.4181 1.9888
-6.4423 -0.6489 1.9835
-6.3501 -0.8707 1.9622
-6.2793 -1.0919 1.9498
-6.2314 -1.3155 1.9470
-6.2018 -1.5436 1.9525
-6.1923 -1.7794 1.9671
-6.1884 -2.0212 1.9863
-6.1235 -2.2462 1.9888
-6.0428 -2.4659 1.9888
-5.9541 -2.6827 1.9888
-5.8576 -2.8963 1.9888
-5.7534 -3.1063 1.9888
-5.6416 -3.3125 1.9888
-5.5222 -3.5147 1.9888
-5.3956 -3.7124 1.9888
-5.2618 -3.9055 1.9888
-5.1210 -4.0939 1.9888
-4.9734 -4.2770 1.9888
-4.8192 -4.4546 1.9888
-4.6585 -4.6267 1.9888
-4.4916 -4.7928 1.9888
-4.3187 -4.9528 1.9888
-4.1401 -5.1064 1.9888
-3.9559 -5.2535 1.9888
-3.7663 -5.3939 1.9888
-3.5718 -5.5272 1.9888
-3.3724 -5.6534 1.9888
-3.1685 -5.7723 1.9888
-2.9604 -5.8837 1.9888
-2.7483 -5.9875 1.9888
-2.5325 -6.0834 1.9888
-2.3133 -6.1714 1.9888
-2.0909 -6.2514 1.9888
-1.8658 -6.3232 1.9888
-1.6382 -6.3867 1.9888
-1.4084 -6.4419 1.9888
-1.1767 -6.4887 1.9888
-0.9435 -6.5269 1.9888
-0.7090 -6.5566 1.9888
-0.4736 -6.5778 1.9888
-0.2375 -6.5902 1.9888
-0.0012 -6.0942 1.9888
0.2172 -6.0898 1.9888
0.4352 -6.0775 1.9888
0.6526 -6.0572 1.9888
0.8691 -6.0290 1.9888
1.0844 -5.9929 1.9888
1.2982 -5.9490 1.9888
1.5102 -5.8974 1.9888
1.7201 -5.8380 1.9888
1.9277 -5.7711 1.9888
2.1327 -5.6966 1.9888
2.3347 -5.6148 1.9888
2.5336 -5.5257 1.9888
2.7042 -5.3798 1.9707
2.7249 -4.9688 1.8554
2.8705 -4.8163 1.8364
3.0407 -4.7094 1.8368
3.2069 -4.5965 1.8373
3.3689 -4.4776 1.8377
3.5264 -4.3530 1.8381
3.6793 -4.2226 1.8385
3.8272 -4.0869 1.8389
3.9701 -3.9458 1.8393
4.1077 -3.7997 1.8397
4.2398 -3.6487 1.8400
4.3663 -3.4930 1.8404
4.4870 -3.3329 1.8407
4.6018 -3.1685 1.8410
4.7104 -3.0001 1.8413
4.8128 -2.8280 1.8416
4.9091 -2.6524 1.8419
4.9996 -2.4739 1.8425
5.0836 -2.2922 1.8431
5.1607 -2.1076 1.8436
5.2349 -1.9218 1.8455
5.3046 -1.7341 1.8481
5.3665 -1.5435 1.8504
5.4198 -1.3503 1.8520
5.4654 -1.1550 1.8535
5.5033 -0.9581 1.8546
5.5332 -0.7598 1.8556
5.5553 -0.5606 1.8563
5.5695 -0.3606 1.8567
5.5757 -0.1604 1.8568
5.5838 0.0400 1.8601
5.5829 0.2406 1.8626
5.5759 0.4413 1.8656
5.5563 0.6412 1.8668
5.5321 0.8407 1.8688
5.4971 1.0386 1.8695
5.4543 1.2349 1.8700
5.4049 1.4297 1.8706
5.3477 1.6222 1.8710
5.2826 1.8121 1.8709
5.2199 2.0029 1.8741
5.4754 2.3299 1.9957
5.4714 2.5641 2.0277
5.3724 2.7574 2.0276
5.2635 2.9451 2.0262
5.1455 3.1270 2.0239
5.0264 3.3077 2.0235
4.9008 3.4837 2.0231
4.7691 3.6551 2.0227
4.6314 3.8214 2.0222
4.4878 3.9826 2.0216
4.3387 4.1383 2.0210
4.1841 4.2885 2.0204
4.0243 4.4330 2.0197
3.8595 4.5714 2.0190
3.6900 4.7038 2.0183
3.5159 4.8300 2.0175
3.3376 4.9496 2.0167
3.1552 5.0628 2.0158
2.9690 5.1693 2.0149
2.7800 5.2704 2.0145
2.5875 5.3645 2.0141
2.3919 5.4517 2.0136
2.1934 5.5319 2.0131
1.9922 5.6049 2.0127
1.7887 5.6708 2.0122
1.5831 5.7294 2.0117
1.3755 5.7806 2.0112
1.1664 5.8245 2.0107
0.9559 5.8609 2.0102
0.7443 5.8899 2.0097
0.5319 5.9113 2.0092
0.3188 5.9253 2.0087
0.1055 5.9317 2.0082
-0.1078 5.9305 2.0076
-0.3210 5.9219 2.0071
-0.5337 5.9056 2.0066
-0.7456 5.8819 2.0061
-0.9565 5.8508 2.0056
-1.1662 5.8122 2.0051
-1.3744 5.7662 2.0046
-1.5808 5.7130 2.0041
-1.7852 5.6524 2.0036
-1.9874 5.5847 2.0031
-2.1870 5.5099 2.0026
-2.3839 5.4281 2.0021
-2.5777 5.3394 2.0016
-2.7684 5.2440 2.0012
-2.9555 5.1418 2.0007
-3.1390 5.0331 2.0003
-3.3185 4.9179 1.9998
-3.4939 4.7965 1.9994
-3.6649 4.6689 1.9990
-3.8313 4.5353 1.9985
-3.9929 4.3959 1.9981
-4.1496 4.2508 1.9978
-4.3011 4.1003 1.9974
-4.4471 3.9444 1.9970
-4.5877 3.7834 1.9967
-4.7225 3.6175 1.9963
-4.8513 3.4469 1.9960
-4.9741 3.2718 1.9957
-5.0907 3.0923 1.9954
-5.2009 2.9088 1.9951
-5.3045 2.7214 1.9948
-5.4015 2.5303 1.9946
-5.4917 2.3359 1.9944
-5.5749 2.1383 1.9941
-5.6511 1.9377 1.9939
-5.7202 1.7345 1.9937
-5.7821 1.5289 1.9936
-5.8366 1.3210 1.9934
-5.8794 1.1105 1.9918
-5.9140 0.8984 1.9900
-5.9452 0.6859 1.9896
-5.9686 0.4723 1.9892
-5.9849 0.2579 1.9890
-5.9941 0.0429 1.9889
-5.9955 -0.1723 1.9888
-5.9894 -0.3876 1.9888
-5.9755 -0.6027 1.9888
-5.9538 -0.8172 1.9888
-5.9245 -1.0310 1.9888
-5.8874 -1.2437 1.9888
-5.8426 -1.4550 1.9888
-5.7903 -1.6646 1.9888
-5.7303 -1.8724 1.9888
-5.6629 -2.0780 1.9888
-5.5880 -2.2811 1.9888
-5.5058 -2.4815 1.9888
-5.4163 -2.6788 1.9888
-5.3197 -2.8729 1.9888
-5.2161 -3.0634 1.9888
-5.1056 -3.2503 1.9888
-4.9883 -3.4330 1.9888
-4.8645 -3.6114 1.9888
-4.7341 -3.7853 1.9888
-4.5975 -3.9544 1.9888
-4.4548 -4.1185 1.9888
-4.3061 -4.2774 1.9888
-4.1518 -4.4308 1.9888
-3.9918 -4.5786 1.9888
-3.8266 -4.7205 1.9888
-3.6562 -4.8563 1.9888
-3.4810 -4.9859 1.9888
-3.3011 -5.1090 1.9888
-3.1168 -5.2256 1.9888
-2.9283 -5.3353 1.9888
-2.7359 -5.4382 1.9888
-2.5398 -5.5340 1.9888
-2.3404 -5.6225 1.9888
-2.1378 -5.7038 1.9888
-1.9323 -5.7777 1.9888
-1.7243 -5.8439 1.9888
-1.5139 -5.9026 1.9888
-1.3015 -5.9536 1.9888
-1.0875 -5.9967 1.9888
-0.8719 -6.0321 1.9888
-0.6552 -6.0595 1.9888
-0.4377 -6.0790 1.9888
-0.2196 -6.0906 1.9888
-0.0012 -5.6588 1.9888
0.2015 -5.6548 1.9888
0.4040 -5.6434 1.9888
0.6058 -5.6246 1.9888
0.8068 -5.5985 1.9888
1.0067 -5.5650 1.9888
1.2052 -5.5243 1.9888
1.4021 -5.4764 1.9888
1.5971 -5.4214 1.9888
1.7899 -5.3594 1.9888
1.9802 -5.2904 1.9888
2.1679 -5.2145 1.9888
2.3526 -5.1318 1.9888
2.5342 -5.0426 1.9888
2.7016 -4.9273 1.9810
2.7208 -4.5661 1.8745
2.8231 -4.3733 1.8364
2.9772 -4.2681 1.8367
3.1276 -4.1578 1.8371
3.2739 -4.0421 1.8375
3.4159 -3.9211 1.8378
3.5533 -3.7952 1.8382
3.6860 -3.6643 1.8386
3.8138 -3.5286 1.8389
3.9366 -3.3885 1.8392
4.0541 -3.2440 1.8395
4.1663 -3.0954 1.8398
4.2730 -2.9429 1.8401
4.3740 -2.7866 1.8404
4.4692 -2.6268 1.8406
4.5585 -2.4637 1.8409
4.6418 -2.2976 1.8411
4.7190 -2.1285 1.8413
4.7899 -1.9569 1.8415
4.8546 -1.7829 1.8417
4.9127 -1.6067 1.8418
4.9641 -1.4285 1.8418
5.0091 -1.2487 1.8418
5.0476 -1.0674 1.8418
5.0802 -0.8852 1.8420
5.1093 -0.7023 1.8434
5.1350 -0.5189 1.8459
5.1565 -0.3346 1.8493
5.1720 -0.1495 1.8529
5.1783 0.0363 1.8555
5.1741 0.2223 1.8568
5.1631 0.4079 1.8581
5.1454 0.5931 1.8593
5.1231 0.7779 1.8613
5.0936 0.9617 1.8630
5.0550 1.1439 1.8639
5.0095 1.3244 1.8645
4.9574 1.5031 1.8651
4.8986 1.6797 1.8655
4.8338 1.8541 1.8661
5.1639 2.1966 2.0238
5.0791 2.3796 2.0239
4.9880 2.5594 2.0240
4.8845 2.7323 2.0216
4.7800 2.9041 2.0212
4.6695 3.0721 2.0209
4.5531 3.2358 2.0205
4.4309 3.3951 2.0201
4.3031 3.5499 2.0197
4.1700 3.6998 2.0192
4.0315 3.8447 2.0186
3.8881 3.9845 2.0180
3.7398 4.1189 2.0174
3.5868 4.2478 2.0168
3.4294 4.3710 2.0161
3.2683 4.4892 2.0156
3.1033 4.6015 2.0153
2.9344 4.7079 2.0149
2.7620 4.8082 2.0145
2.5861 4.9022 2.0140
2.4071 4.9899 2.0136
2.2252 5.0712 2.0132
0.8093 2.0408 0.7982
0.7352 2.0681 0.7981
0.6601 2.0926 0.7981
1.4729 5.3301 2.0114
1.2798 5.3779 2.0109
1.0852 5.4188 2.0105
0.8894 5.4528 2.0100
0.6925 5.4799 2.0095
0.4948 5.5000 2.0091
0.2966 5.5130 2.0086
0.0981 5.5190 2.0081
-0.1004 5.5180 2.0076
-0.2988 5.5100 2.0071
-0.4967 5.4950 2.0067
-0.6939 5.4730 2.0062
-0.8902 5.4440 2.0057
-1.0854 5.4082 2.0052
-1.2791 5.3654 2.0048
-1.4712 5.3159 2.0043
-0.6611 2.0928 0.7973
-0.7361 2.0682 0.7973
-0.8103 2.0410 0.7974
-2.2186 5.0508 2.0025
-2.3990 4.9682 2.0020
-2.5764 4.8793 2.0016
-2.7505 4.7842 2.0012
-2.9212 4.6830 2.0008
-3.0882 4.5758 2.0003
-3.2514 4.4627 1.9999
-3.4105 4.3439 1.9995
-3.5653 4.2196 1.9992
-3.7157 4.0898 1.9988
-3.8614 3.9547 1.9984
-4.0022 3.8146 1.9981
-4.1381 3.6695 1.9977
-4.2688 3.5196 1.9974
-4.3941 3.3652 1.9971
-4.5139 3.2063 1.9968
-4.6280 3.0433 1.9965
-4.7363 2.8763 1.9962
-4.8387 2.7054 1.9960
-4.9350 2.5310 1.9957
-5.0251 2.3532 1.9955
-5.1088 2.1722 1.9953
-5.1861 1.9883 1.9951
-5.2568 1.8017 1.9949
-5.3209 1.6126 1.9947
-5.3782 1.4213 1.9945
-5.4283 1.2278 1.9942
-5.4650 1.0314 1.9916
-5.4982 0.8345 1.9902
-5.5260 0.6368 1.9895
-5.5484 0.4383 1.9894
-5.5631 0.2389 1.9890
-5.5711 0.0391 1.9889
-5.5722 -0.1609 1.9888
-5.5663 -0.3610 1.9888
-5.5531 -0.5608 1.9888
-5.5328 -0.7602 1.9888
-5.5053 -0.9588 1.9888
-5.4706 -1.1564 1.9888
-5.4288 -1.3526 1.9888
-5.3799 -1.5474 1.9888
-5.3240 -1.7404 1.9888
-5.2611 -1.9313 1.9888
-5.1914 -2.1199 1.9888
-5.1148 -2.3060 1.9888
-5.0315 -2.4892 1.9888
-4.9416 -2.6695 1.9888
-4.8452 -2.8464 1.9888
-4.7424 -3.0198 1.9888
-4.6333 -3.1894 1.9888
-4.5181 -3.3550 1.9888
-4.3969 -3.5164 1.9888
-4.2699 -3.6734 1.9888
-4.1373 -3.8257 1.9888
-3.9991 -3.9731 1.9888
-3.8556 -4.1155 1.9888
-3.7070 -4.2526 1.9888
-3.5535 -4.3843 1.9888
-3.3952 -4.5103 1.9888
-3.2324 -4.6305 1.9888
-3.0653 -4.7448 1.9888
-2.8941 -4.8529 1.9888
-2.7190 -4.9547 1.9888
-2.5404 -5.0501 1.9888
-2.3583 -5.1390 1.9888
-2.1730 -5.2212 1.9888
-1.9849 -5.2966 1.9888
-1.7941 -5.3651 1.9888
-1.6010 -5.4266 1.9888
-1.4057 -5.4810 1.9888
-1.2085 -5.5283 1.9888
-1.0097 -5.5683 1.9888
-0.8096 -5.6011 1.9888
-0.6084 -5.6266 1.9888
-0.4064 -5.6447 1.9888
-0.2039 -5.6555 1.9888
-0.0012 -5.2759 1.9888
0.1878 -5.2722 1.9888
0.1527 -2.1344 0.8068
0.2291 -2.1274 0.8068
0.3051 -2.1176 0.8068
0.3807 -2.1050 0.8069
0.4558 -2.0897 0.8069
0.5303 -2.0716 0.8069
0.6040 -2.0508 0.8069
0.6769 -2.0273 0.8069
0.7489 -2.0012 0.8068
0.8199 -1.9725 0.8068
2.1933 -4.7853 1.9888
2.3627 -4.7022 1.9888
2.5288 -4.6130 1.9888
2.6915 -4.5178 1.9888
2.7165 -4.2089 1.8952
2.7756 -3.9799 1.8364
2.9154 -3.8765 1.8365
3.0518 -3.7687 1.8369
3.1842 -3.6560 1.8372
3.3124 -3.5386 1.8376
3.4361 -3.4166 1.8379
3.5553 -3.2902 1.8382
3.6699 -3.1596 1.8385
3.7795 -3.0250 1.8388
3.8842 -2.8865 1.8391
3.9837 -2.7444 1.8393
4.0780 -2.5987 1.8396
4.1668 -2.4498 1.8398
4.2502 -2.2978 1.8401
4.3280 -2.1430 1.8403
4.4001 -1.9854 1.8405
4.4664 -1.8254 1.8406
4.5267 -1.6632 1.8408
4.5811 -1.4989 1.8409
4.6294 -1.3328 1.8409
4.6715 -1.1652 1.8409
4.7074 -0.9962 1.8409
4.7372 -0.8261 1.8408
4.7620 -0.6553 1.8412
4.7830 -0.4840 1.8425
4.7993 -0.3121 1.8444
4.8100 -0.1397 1.8464
4.8160 0.0331 1.8491
4.8170 0.2063 1.8522
4.8081 0.3792 1.8539
4.7914 0.5516 1.8550
4.7683 0.7233 1.8560
4.7389 0.8941 1.8569
4.7035 1.0637 1.8579
4.6621 1.2319 1.8588
4.6149 1.3986 1.8599
4.5607 1.5632 1.8605
4.5670 1.7511 1.8885
4.8111 2.0459 2.0196
4.7330 2.2167 2.0200
4.6483 2.3844 2.0201
4.5553 2.5474 2.0192
4.4581 2.7079 2.0189
4.3552 2.8646 2.0186
4.2468 3.0175 2.0183
4.1330 3.1662 2.0179
4.0140 3.3107 2.0175
3.8900 3.4509 2.0170
3.7615 3.5865 2.0168
3.6282 3.7175 2.0164
3.4904 3.8435 2.0161
3.3482 3.9646 2.0158
3.2020 4.0804 2.0154
3.0517 4.1910 2.0151
2.8977 4.2960 2.0147
2.7401 4.3955 2.0144
2.5791 4.4892 2.0140
2.4149 4.5772 2.0136
2.2478 4.6592 2.0132
0.8245 1.8787 0.7986
0.7561 1.9066 0.7985
0.6869 1.9321 0.7984
0.6168 1.9551 0.7983
0.5460 1.9756 0.7982
0.4745 1.9936 0.7982
0.4024 2.0091 0.7981
0.3298 2.0220 0.7980
0.2568 2.0323 0.7980
0.1835 2.0401 0.7979
0.1100 2.0453 0.7979
0.0364 2.0479 0.7978
-0.0373 2.0479 0.7978
-0.1110 2.0453 0.7977
-0.1845 2.0402 0.7977
-0.2578 2.0324 0.7977
-0.3307 2.0221 0.7977
-0.4033 2.0092 0.7976
-0.4754 1.9937 0.7976
-0.5469 1.9757 0.7976
-0.6178 1.9552 0.7976
-0.6879 1.9322 0.7977
-0.7571 1.9068 0.7977
-0.8255 1.8789 0.7977
-2.2410 4.6403 2.0024
-2.4067 4.5572 2.0020
-2.5694 4.4683 2.0016
-2.7288 4.3738 2.0012
-2.8848 4.2736 2.0008
-3.0372 4.1679 2.0004
-3.1858 4.0569 2.0001
-3.3304 3.9407 1.9997
-3.4708 3.8194 1.9994
-3.6068 3.6932 1.9990
-3.7383 3.5622 1.9987
-3.8651 3.4266 1.9984
-3.9871 3.2866 1.9981
-4.1041 3.1423 1.9978
-4.2159 2.9939 1.9975
-4.3224 2.8415 1.9972
-4.4234 2.6855 1.9970
-4.5189 2.5259 1.9967
-4.6087 2.3629 1.9965
-4.6927 2.1968 1.9963
-4.7708 2.0277 1.9961
-4.8428 1.8560 1.9959
-4.9087 1.6817 1.9957
-4.9684 1.5051 1.9955
-5.0218 1.3263 1.9954
-5.0625 1.1443 1.9928
-5.0981 0.9614 1.9907
-5.1316 0.7781 1.9904
-5.1572 0.5935 1.9896
-5.1779 0.4082 1.9895
-5.1912 0.2222 1.9891
-5.1983 0.0358 1.9889
-5.1992 -0.1509 1.9888
-5.1934 -0.3375 1.9888
-5.1810 -0.5240 1.9888
-5.1618 -0.7099 1.9888
-5.1360 -0.8952 1.9888
-5.1034 -1.0795 1.9888
-5.0643 -1.2625 1.9888
-5.0185 -1.4442 1.9888
-4.9662 -1.6241 1.9888
-4.9074 -1.8021 1.9888
-4.8421 -1.9780 1.9888
-4.7706 -2.1515 1.9888
-4.6927 -2.3223 1.9888
-4.6087 -2.4903 1.9888
-4.5187 -2.6553 1.9888
-4.4227 -2.8169 1.9888
-4.3208 -2.9750 1.9888
-4.2133 -3.1293 1.9888
-4.1002 -3.2798 1.9888
-3.9816 -3.4260 1.9888
-3.8578 -3.5679 1.9888
-3.7289 -3.7053 1.9888
-3.5950 -3.8380 1.9888
-3.4564 -3.9658 1.9888
-3.3132 -4.0884 1.9888
-3.1656 -4.2058 1.9888
-3.0137 -4.3178 1.9888
-2.8579 -4.4243 1.9888
-2.6982 -4.5250 1.9888
-2.5350 -4.6199 1.9888
-2.3683 -4.7088 1.9888
-2.1986 -4.7915 1.9888
-0.8209 -1.9727 0.8059
-0.7500 -2.0014 0.8060
-0.6779 -2.0275 0.8061
-0.6050 -2.0509 0.8062
-0.5313 -2.0717 0.8063
-0.4568 -2.0898 0.8064
-0.3817 -2.1051 0.8064
-0.3061 -2.1177 0.8065
-0.2300 -2.1275 0.8066
-0.1537 -2.1345 0.8066
-0.1902 -5.2728 1.9888
-0.0005 -2.0015 0.8064
0.0712 -2.0002 0.8065
0.1428 -1.9963 0.8065
0.2142 -1.9897 0.8065
0.2853 -1.9806 0.8065
0.3560 -1.9688 0.8066
0.4262 -1.9545 0.8066
0.4959 -1.9376 0.8066
0.5648 -1.9182 0.8066
0.6330 -1.8963 0.8066
0.7004 -1.8719 0.8065
0.7668 -1.8450 0.8065
2.0520 -4.4778 1.9888
2.2105 -4.4001 1.9888
2.3659 -4.3167 1.9888
2.5183 -4.2278 1.9888
2.6672 -4.1334 1.9888
2.7119 -3.8892 1.9176
2.7345 -3.6366 1.8409
2.8550 -3.5262 1.8364
2.9787 -3.4207 1.8367
3.0986 -3.3109 1.8370
3.2144 -3.1969 1.8373
3.3260 -3.0787 1.8376
3.4332 -2.9566 1.8379
3.5358 -2.8307 1.8382
3.6338 -2.7012 1.8384
3.7270 -2.5682 1.8387
3.8153 -2.4320 1.8389
3.8985 -2.2927 1.8391
3.9766 -2.1506 1.8393
4.0495 -2.0057 1.8395
4.1170 -1.8584 1.8397
4.1791 -1.7087 1.8399
4.2357 -1.5569 1.8400
4.2867 -1.4033 1.8401
4.3320 -1.2479 1.8401
4.3715 -1.0910 1.8401
4.4053 -0.9329 1.8401
4.4333 -0.7737 1.8400
4.4558 -0.6138 1.8401
4.4737 -0.4533 1.8406
4.4873 -0.2924 1.8417
4.4953 -0.1312 1.8429
4.4992 0.0303 1.8448
4.4975 0.1919 1.8467
4.4895 0.3535 1.8485
4.4774 0.5148 1.8509
4.4563 0.6754 1.8521
4.4290 0.8350 1.8530
4.3957 0.9934 1.8538
4.3566 1.1505 1.8545
4.3231 1.3095 1.8601
4.2654 1.4613 1.8576
4.5095 1.7284 1.9907
4.4972 1.9117 2.0153
4.4247 2.0717 2.0159
4.3478 2.2296 2.0170
4.2646 2.3843 2.0179
4.1739 2.5346 2.0177
4.0778 2.6815 2.0174
3.9767 2.8249 2.0172
3.8705 2.9644 2.0170
3.7594 3.1001 2.0167
3.6437 3.2316 2.0164
3.5233 3.3588 2.0162
3.3986 3.4816 2.0159
3.2696 3.5998 2.0156
3.1365 3.7133 2.0153
2.9996 3.8219 2.0149
2.8589 3.9256 2.0146
2.7146 4.0241 2.0143
2.5671 4.1174 2.0139
2.4163 4.2053 2.0136
2.2626 4.2878 2.0132
0.8359 1.7324 0.7989
0.7728 1.7609 0.7988
0.7088 1.7870 0.7987
0.6439 1.8109 0.7986
0.5782 1.8325 0.7986
0.5118 1.8518 0.7985
0.4448 1.8687 0.7984
0.3772 1.8832 0.7983
0.3092 1.8953 0.7983
0.2407 1.9050 0.7982
0.1720 1.9123 0.7982
0.1031 1.9172 0.7981
0.0341 1.9196 0.7981
-0.0350 1.9196 0.7980
-0.1040 1.9172 0.7980
-0.1730 1.9124 0.7980
-0.2417 1.9051 0.7980
-0.3101 1.8954 0.7979
-0.3781 1.8833 0.7979
-0.4457 1.8688 0.7979
-0.5127 1.8519 0.7979
-0.5792 1.8326 0.7979
-0.6449 1.8111 0.7979
-0.7098 1.7872 0.7980
-0.7738 1.7610 0.7980
-2.1004 4.3482 2.0027
-2.2556 4.2703 2.0023
-2.4081 4.1870 2.0019
-2.5575 4.0983 2.0016
-2.7037 4.0044 2.0012
-2.8464 3.9053 2.0009
-2.9857 3.8013 2.0005
-3.1211 3.6923 2.0002
-3.2526 3.5786 1.9999
-3.3801 3.4603 1.9995
-3.5033 3.3375 1.9992
-3.6221 3.2104 1.9989
-3.7363 3.0791 1.9986
-3.8458 2.9438 1.9984
-3.9505 2.8047 1.9981
-4.0502 2.6619 1.9979
-4.1448 2.5156 1.9976
-4.2342 2.3660 1.9974
-4.3183 2.2133 1.9972
-4.3969 2.0576 1.9970
-4.4699 1.8992 1.9968
-4.5373 1.7382 1.9966
-4.5989 1.5748 1.9964
-4.6547 1.4093 1.9963
-4.7012 1.2410 1.9947
-4.7402 1.0708 1.9925
-4.7743 0.8996 1.9909
-4.8048 0.7279 1.9903
-4.8293 0.5551 1.9898
-4.8482 0.3815 1.9895
-4.8607 0.2074 1.9892
-4.8671 0.0328 1.9889
-4.8676 -0.1419 1.9888
-4.8621 -0.3167 1.9888
-4.8503 -0.4912 1.9888
-4.8322 -0.6653 1.9888
-4.8078 -0.8387 1.9888
-4.7772 -1.0111 1.9888
-4.7404 -1.1825 1.9888
-4.6974 -1.3524 1.9888
-4.6483 -1.5208 1.9888
-4.5932 -1.6874 1.9888
-4.5320 -1.8520 1.9888
-4.4649 -2.0143 1.9888
-4.3919 -2.1741 1.9888
-4.3131 -2.3313 1.9888
-4.2287 -2.4855 1.9888
-4.1388 -2.6367 1.9888
-4.0434 -2.7846 1.9888
-3.9426 -2.9290 1.9888
-3.8367 -3.0696 1.9888
-3.7257 -3.2064 1.9888
-3.6098 -3.3392 1.9888
-3.4891 -3.4676 1.9888
-3.3638 -3.5917 1.9888
-3.2340 -3.7112 1.9888
-3.0999 -3.8259 1.9888
-2.9617 -3.9356 1.9888
-2.8196 -4.0404 1.9888
-2.6738 -4.1399 1.9888
-2.5244 -4.2341 1.9888
-2.3716 -4.3228 1.9888
-2.2157 -4.4059 1.9888
-0.8331 -1.8160 0.8056
-0.7678 -1.8452 0.8057
-0.7014 -1.8720 0.8058
-0.6340 -1.8964 0.8059
-0.5658 -1.9183 0.8059
-0.4969 -1.9377 0.8060
-0.4272 -1.9546 0.8061
-0.3570 -1.9689 0.8062
-0.2863 -1.9806 0.8062
-0.2152 -1.9898 0.8063
-0.1438 -1.9963 0.8063
-0.0722 -2.0002 0.8064
-0.0005 -1.8777 0.8062
0.0668 -1.8765 0.8062
0.1339 -1.8728 0.8062
0.2009 -1.8667 0.8063
0.2676 -1.8581 0.8063
0.3339 -1.8471 0.8063
0.3998 -1.8337 0.8063
0.4651 -1.8178 0.8063
0.5298 -1.7996 0.8063
0.5938 -1.7791 0.8063
0.6570 -1.7562 0.8063
0.7193 -1.7311 0.8063
0.7806 -1.7037 0.8062
2.0743 -4.1299 1.9888
2.2203 -4.0518 1.9888
2.3633 -3.9683 1.9888
2.5031 -3.8798 1.9888
2.6396 -3.7863 1.9888
2.7070 -3.6007 1.9418
2.7209 -3.3613 1.8648
2.7953 -3.2108 1.8364
2.9074 -3.1074 1.8365
3.0162 -3.0004 1.8368
3.1209 -2.8895 1.8370
3.2215 -2.7750 1.8373
3.3179 -2.6569 1.8376
3.4099 -2.5354 1.8378
3.4974 -2.4107 1.8381
3.5803 -2.2829 1.8383
3.6585 -2.1522 1.8385
3.7319 -2.0189 1.8387
3.8003 -1.8830 1.8389
3.8638 -1.7447 1.8390
3.9222 -1.6043 1.8392
3.9753 -1.4619 1.8393
4.0233 -1.3177 1.8393
4.0659 -1.1719 1.8394
4.1031 -1.0247 1.8394
4.1350 -0.8763 1.8393
4.1614 -0.7269 1.8393
4.1824 -0.5768 1.8392
4.1985 -0.4261 1.8394
4.2101 -0.2750 1.8399
4.2171 -0.1237 1.8408
4.2189 0.0278 1.8419
4.2163 0.1793 1.8434
4.2079 0.3307 1.8447
4.1950 0.4818 1.8464
4.1756 0.6322 1.8476
4.1516 0.7821 1.8492
4.1208 0.9307 1.8501
4.0940 1.0806 1.8553
4.0433 1.2242 1.8520
4.2019 1.4390 1.9480
4.2786 1.6392 2.0106
4.2165 1.7918 2.0113
4.1489 1.9419 2.0120
4.0790 2.0911 2.0142
4.0053 2.2386 2.0171
3.9203 2.3800 2.0170
3.8302 2.5181 2.0168
3.7353 2.6528 2.0166
3.6357 2.7840 2.0164
3.5315 2.9115 2.0161
3.4228 3.0351 2.0159
3.3098 3.1547 2.0156
3.1927 3.2701 2.0154
3.0716 3.3813 2.0151
2.9467 3.4880 2.0148
2.8181 3.5902 2.0145
2.6860 3.6876 2.0142
2.5505 3.7803 2.0139
2.4119 3.8680 2.0135
2.2703 3.9508 2.0132
0.8441 1.5995 0.7992
0.7858 1.6283 0.7991
0.7265 1.6550 0.7990
0.6663 1.6797 0.7989
0.6053 1.7022 0.7989
0.5435 1.7225 0.7988
0.4811 1.7406 0.7987
0.4181 1.7565 0.7986
0.3546 1.7702 0.7986
0.2906 1.7816 0.7985
0.2263 1.7907 0.7985
0.1617 1.7976 0.7984
0.0969 1.8022 0.7984
0.0320 1.8045 0.7983
-0.0329 1.8045 0.7983
-0.0978 1.8022 0.7983
-0.1626 1.7976 0.7982
-0.2272 1.7908 0.7982
-0.2916 1.7816 0.7982
-0.3555 1.7702 0.7982
-0.4190 1.7566 0.7982
-0.4821 1.7407 0.7982
-0.5445 1.7226 0.7982
-0.6062 1.7023 0.7982
-0.6673 1.6798 0.7982
-0.7275 1.6552 0.7982
-0.7868 1.6284 0.7983
-2.1201 4.0129 2.0026
-2.2633 3.9345 2.0023
-2.4037 3.8512 2.0019
-2.5411 3.7629 2.0016
-2.6753 3.6697 2.0013
-2.8061 3.5719 2.0009
-2.9334 3.4695 2.0006
-3.0570 3.3625 2.0003
-3.1767 3.2513 2.0000
-3.2924 3.1359 1.9997
-3.4040 3.0164 1.9994
-3.5113 2.8930 1.9992
-3.6142 2.7658 1.9989
-3.7125 2.6350 1.9987
-3.8061 2.5008 1.9984
-3.8950 2.3632 1.9982
-3.9789 2.2226 1.9980
-4.0578 2.0791 1.9978
-4.1316 1.9327 1.9976
-4.2001 1.7838 1.9974
-4.2633 1.6325 1.9972
-4.3211 1.4790 1.9971
-4.3723 1.3231 1.9964
-4.4127 1.1641 1.9934
-4.4500 1.0045 1.9916
-4.4842 0.8443 1.9910
-4.5117 0.6828 1.9900
-4.5355 0.5206 1.9899
-4.5524 0.3576 1.9893
-4.5646 0.1941 1.9892
-4.5704 0.0301 1.9889
-4.5708 -0.1339 1.9888
-4.5654 -0.2980 1.9888
-4.5542 -0.4619 1.9888
-4.5371 -0.6253 1.9888
-4.5141 -0.7881 1.9888
-4.4852 -0.9500 1.9888
-4.4506 -1.1108 1.9888
-4.4101 -1.2704 1.9888
-4.3638 -1.4284 1.9888
-4.3119 -1.5848 1.9888
-4.2544 -1.7392 1.9888
-4.1913 -1.8915 1.9888
-4.1227 -2.0415 1.9888
-4.0487 -2.1889 1.9888
-3.9693 -2.3337 1.9888
-3.8848 -2.4755 1.9888
-3.7952 -2.6143 1.9888
-3.7005 -2.7497 1.9888
-3.6010 -2.8817 1.9888
-3.4968 -3.0100 1.9888
-3.3879 -3.1345 1.9888
-3.2746 -3.2550 1.9888
-3.1569 -3.3714 1.9888
-3.0350 -3.4834 1.9888
-2.9092 -3.5910 1.9888
-2.7795 -3.6940 1.9888
-2.6461 -3.7922 1.9888
-2.5092 -3.8856 1.9888
-2.3689 -3.9739 1.9888
-2.2256 -4.0571 1.9888
-0.8419 -1.6742 0.8053
-0.7816 -1.7038 0.8054
-0.7203 -1.7312 0.8055
-0.6580 -1.7564 0.8056
-0.5948 -1.7792 0.8056
-0.5308 -1.7997 0.8057
-0.4661 -1.8179 0.8058
-0.4008 -1.8337 0.8059
-0.3349 -1.8471 0.8059
-0.2685 -1.8581 0.8060
-0.2018 -1.8667 0.8060
-0.1349 -1.8728 0.8061
-0.0677 -1.8765 0.8061
-0.0005 -1.7664 0.8059
0.0628 -1.7652 0.8060
0.1259 -1.7617 0.8060
0.1889 -1.7560 0.8060
0.2516 -1.7479 0.8060
0.3140 -1.7376 0.8060
0.3760 -1.7249 0.8060
0.4375 -1.7101 0.8061
0.4983 -1.6930 0.8060
0.5585 -1.6737 0.8060
0.6179 -1.6522 0.8060
0.6765 -1.6286 0.8060
0.7342 -1.6028 0.8060
0.7909 -1.5750 0.8060
2.0891 -3.8131 1.9888
2.2237 -3.7347 1.9888
2.3553 -3.6515 1.9888
2.4838 -3.5636 1.9888
2.6089 -3.4711 1.9888
2.7018 -3.3384 1.9678
2.7149 -3.1191 1.8954
2.7371 -2.9260 1.8372
2.8379 -2.8237 1.8364
2.9363 -2.7192 1.8366
3.0310 -2.6115 1.8368
3.1217 -2.5004 1.8371
3.2083 -2.3861 1.8373
3.2907 -2.2688 1.8375
3.3687 -2.1486 1.8377
3.4424 -2.0257 1.8379
3.5115 -1.9003 1.8381
3.5760 -1.7724 1.8383
3.6357 -1.6423 1.8384
3.6907 -1.5102 1.8385
3.7408 -1.3762 1.8386
3.7860 -1.2406 1.8387
3.8262 -1.1034 1.8387
3.8613 -0.9649 1.8387
3.8914 -0.8253 1.8387
3.9164 -0.6847 1.8386
3.9362 -0.5434 1.8385
3.9512 -0.4016 1.8386
3.9615 -0.2593 1.8388
3.9673 -0.1169 1.8393
3.9685 0.0256 1.8401
3.9650 0.1681 1.8410
3.9564 0.3103 1.8419
3.9434 0.4523 1.8432
3.9251 0.5937 1.8443
3.9017 0.7344 1.8455
3.8733 0.8742 1.8466
3.8400 1.0130 1.8478
3.9663 1.2003 1.9290
4.0757 1.3951 2.0062
4.0227 1.5406 2.0071
3.9645 1.6841 2.0079
3.9019 1.8257 2.0090
3.8371 1.9665 2.0116
3.7674 2.1051 2.0144
3.6916 2.2406 2.0165
3.6069 2.3707 2.0163
3.5176 2.4976 2.0161
3.4238 2.6212 2.0159
3.3258 2.7413 2.0156
3.2235 2.8578 2.0154
3.1172 2.9705 2.0151
3.0070 3.0793 2.0149
2.8930 3.1841 2.0146
2.7754 3.2847 2.0144
2.6543 3.3810 2.0141
2.5300 3.4729 2.0138
2.4024 3.5602 2.0135
2.2719 3.6429 2.0132
2.1386 3.7209 2.0129
0.7954 1.5070 0.7994
0.7405 1.5342 0.7993
0.6846 1.5595 0.7992
0.6279 1.5827 0.7991
0.5704 1.6039 0.7990
0.5122 1.6231 0.7990
0.4534 1.6401 0.7989
0.3940 1.6551 0.7988
0.3341 1.6680 0.7988
0.2739 1.6788 0.7987
0.2133 1.6874 0.7987
0.1524 1.6939 0.7986
0.0913 1.6982 0.7986
0.0301 1.7004 0.7985
-0.0311 1.7004 0.7985
-0.0922 1.6983 0.7985
-0.1533 1.6939 0.7985
-0.2142 1.6875 0.7984
-0.2748 1.6789 0.7984
-0.3351 1.6681 0.7984
-0.3950 1.6552 0.7984
-0.4543 1.6402 0.7984
-0.5132 1.6232 0.7984
-0.5714 1.6040 0.7984
-0.6289 1.5828 0.7984
-0.6856 1.5596 0.7985
-0.7415 1.5343 0.7985
-0.7964 1.5072 0.7985
-2.1326 3.7066 2.0026
-2.2649 3.6280 2.0022
-2.3943 3.5448 2.0019
-2.5207 3.4570 2.0016
-2.6440 3.3648 2.0013
-2.7638 3.2682 2.0010
-2.8802 3.1675 2.0007
-2.9930 3.0626 2.0004
-3.1020 2.9538 2.0002
-3.2071 2.8412 1.9999
-3.3082 2.7249 1.9996
-3.4050 2.6051 1.9994
-3.4976 2.4818 1.9992
-3.5858 2.3553 1.9989
-3.6694 2.2257 1.9987
-3.7484 2.0932 1.9985
-3.8227 1.9579 1.9983
-3.8921 1.8200 1.9982
-3.9565 1.6797 1.9980
-4.0160 1.5372 1.9978
-4.0704 1.3925 1.9977
-4.1143 1.2444 1.9950
-4.1549 1.0954 1.9933
-4.1897 0.9451 1.9914
-4.2226 0.7944 1.9911
-4.2483 0.6423 1.9901
-4.2706 0.4896 1.9900
-4.2863 0.3361 1.9893
-4.2977 0.1821 1.9893
-4.3029 0.0277 1.9889
-4.3031 -0.1268 1.9888
-4.2980 -0.2812 1.9888
-4.2873 -0.4355 1.9888
-4.2711 -0.5893 1.9888
-4.2493 -0.7425 1.9888
-4.2221 -0.8949 1.9888
-4.1893 -1.0462 1.9888
-4.1511 -1.1964 1.9888
-4.1075 -1.3451 1.9888
-4.0585 -1.4922 1.9888
-4.0043 -1.6376 1.9888
-3.9448 -1.7808 1.9888
-3.8801 -1.9220 1.9888
-3.8104 -2.0607 1.9888
-3.7356 -2.1969 1.9888
-3.6560 -2.3303 1.9888
-3.5716 -2.4608 1.9888
-3.4825 -2.5883 1.9888
-3.3887 -2.7124 1.9888
-3.2906 -2.8331 1.9888
-3.1881 -2.9502 1.9888
-3.0814 -3.0636 1.9888
-2.9706 -3.1730 1.9888
-2.8559 -3.2784 1.9888
-2.7374 -3.3796 1.9888
-2.6153 -3.4764 1.9888
-2.4898 -3.5688 1.9888
-2.3609 -3.6566 1.9888
-2.2290 -3.7396 1.9888
-2.0941 -3.8178 1.9888
-0.7919 -1.5751 0.8051
-0.7352 -1.6030 0.8052
-0.6775 -1.6287 0.8053
-0.6189 -1.6523 0.8054
-0.5595 -1.6738 0.8054
-0.4993 -1.6931 0.8055
-0.4384 -1.7101 0.8056
-0.3770 -1.7250 0.8056
-0.3150 -1.7376 0.8057
-0.2526 -1.7479 0.8058
-0.1899 -1.7560 0.8058
-0.1269 -1.7618 0.8059
-0.0637 -1.7652 0.8059
-0.0005 -1.6655 0.8057
0.0591 -1.6644 0.8057
0.1187 -1.6612 0.8058
0.1781 -1.6557 0.8058
0.2372 -1.6481 0.8058
0.2960 -1.6384 0.8058
0.3545 -1.6265 0.8058
0.4124 -1.6125 0.8058
0.4698 -1.5964 0.8058
0.5265 -1.5782 0.8058
0.5826 -1.5580 0.8058
0.6378 -1.5357 0.8058
0.6922 -1.5115 0.8058
0.7457 -1.4853 0.8057
0.7982 -1.4572 0.8057
2.0972 -3.5230 1.9888
2.2213 -3.4445 1.9888
2.3426 -3.3617 1.9888
2.4606 -3.2745 1.9888
2.5755 -3.1831 1.9888
2.6869 -3.0877 1.9888
2.7086 -2.8962 1.9275
2.7197 -2.7068 1.8659
2.7695 -2.5654 1.8364
2.8585 -2.4635 1.8364
2.9439 -2.3586 1.8366
3.0256 -2.2509 1.8368
3.1034 -2.1403 1.8370
3.1770 -2.0270 1.8372
3.2465 -1.9111 1.8374
3.3118 -1.7928 1.8376
3.3726 -1.6722 1.8377
3.4291 -1.5496 1.8378
3.4810 -1.4250 1.8379
3.5283 -1.2987 1.8380
3.5710 -1.1707 1.8381
3.6090 -1.0413 1.8381
3.6422 -0.9107 1.8381
3.6707 -0.7790 1.8381
3.6943 -0.6465 1.8380
3.7131 -0.5132 1.8379
3.7272 -0.3794 1.8379
3.7367 -0.2452 1.8380
3.7417 -0.1109 1.8382
3.7424 0.0236 1.8387
3.7385 0.1579 1.8393
3.7302 0.2920 1.8401
3.7171 0.4258 1.8409
3.6994 0.5590 1.8418
3.6775 0.6917 1.8429
3.6624 0.8261 1.8499
3.7759 0.9955 1.9250
3.8861 1.1754 2.0023
3.8414 1.3143 2.0033
3.7916 1.4515 2.0041
3.7367 1.5867 2.0049
3.6796 1.7211 2.0070
3.6182 1.8537 2.0094
3.5521 1.9842 2.0119
3.4815 2.1125 2.0144
3.4042 2.2369 2.0158
3.3200 2.3567 2.0156
3.2316 2.4734 2.0154
3.1391 2.5869 2.0152
3.0426 2.6969 2.0149
2.9424 2.8033 2.0147
2.8384 2.9061 2.0145
2.7309 3.0051 2.0142
2.6199 3.1001 2.0140
2.5057 3.1911 2.0137
2.3883 3.2778 2.0134
2.2679 3.3604 2.0131
2.1448 3.4386 2.0128
0.8022 1.3955 0.7996
0.7512 1.4230 0.7995
0.6993 1.4487 0.7994
0.6465 1.4726 0.7994
0.5930 1.4945 0.7993
0.5387 1.5146 0.7992
0.4837 1.5327 0.7992
0.4282 1.5489 0.7991
0.3721 1.5630 0.7990
0.3156 1.5752 0.7990
0.2586 1.5854 0.7989
0.2014 1.5936 0.7989
0.1439 1.5997 0.7988
0.0862 1.6038 0.7988
0.0284 1.6058 0.7987
-0.0294 1.6058 0.7987
-0.0872 1.6038 0.7987
-0.1448 1.5997 0.7987
-0.2023 1.5936 0.7986
-0.2596 1.5854 0.7986
-0.3165 1.5753 0.7986
-0.3731 1.5631 0.7986
-0.4291 1.5489 0.7986
-0.4847 1.5328 0.7986
-0.5397 1.5147 0.7986
-0.5940 1.4946 0.7986
-0.6475 1.4727 0.7987
-0.7003 1.4488 0.7987
-0.7522 1.4231 0.7987
-0.8031 1.3956 0.7987
-2.1388 3.4253 2.0025
-2.2610 3.3466 2.0022
-2.3803 3.2637 2.0019
-2.4967 3.1766 2.0016
-2.6098 3.0855 2.0014
-2.7197 2.9903 2.0011
-2.8262 2.8913 2.0008
-2.9291 2.7885 2.0006
-3.0283 2.6821 2.0003
-3.1236 2.5723 2.0001
-3.2151 2.4590 1.9998
-3.3024 2.3426 1.9996
-3.3856 2.2232 1.9994
-3.4645 2.1008 1.9992
-3.5391 1.9756 1.9990
-3.6091 1.8479 1.9988
-3.6746 1.7177 1.9987
-3.7354 1.5852 1.9985
-3.7915 1.4506 1.9984
-3.8392 1.3128 1.9964
-3.8807 1.1731 1.9938
-3.9193 1.0327 1.9923
-3.9541 0.8914 1.9915
-3.9840 0.7489 1.9907
-4.0093 0.6055 1.9902
-4.0303 0.4614 1.9901
-4.0448 0.3165 1.9894
-4.0556 0.1712 1.9894
-4.0603 0.0256 1.9890
-4.0604 -0.1202 1.9888
-4.0554 -0.2659 1.9888
-4.0453 -0.4115 1.9888
-4.0299 -0.5566 1.9888
-4.0092 -0.7011 1.9888
-3.9834 -0.8449 1.9888
-3.9524 -0.9877 1.9888
-3.9163 -1.1293 1.9888
-3.8751 -1.2696 1.9888
-3.8288 -1.4084 1.9888
-3.7775 -1.5454 1.9888
-3.7213 -1.6805 1.9888
-3.6602 -1.8136 1.9888
-3.5944 -1.9445 1.9888
-3.5238 -2.0729 1.9888
-3.4486 -2.1987 1.9888
-3.3689 -2.3218 1.9888
-3.2848 -2.4419 1.9888
-3.1964 -2.5590 1.9888
-3.1037 -2.6728 1.9888
-3.0070 -2.7832 1.9888
-2.9063 -2.8901 1.9888
-2.8018 -2.9932 1.9888
-2.6936 -3.0926 1.9888
-2.5818 -3.1880 1.9888
-2.4666 -3.2793 1.9888
-2.3482 -3.3663 1.9888
-2.2266 -3.4490 1.9888
-2.1022 -3.5273 1.9888
-0.7992 -1.4573 0.8048
-0.7467 -1.4854 0.8049
-0.6932 -1.5116 0.8050
-0.6388 -1.5358 0.8051
-0.5836 -1.5581 0.8052
-0.5275 -1.5783 0.8052
-0.4708 -1.5965 0.8053
-0.4134 -1.6126 0.8054
-0.3554 -1.6266 0.8054
-0.2970 -1.6384 0.8055
-0.2382 -1.6482 0.8056
-0.1790 -1.6558 0.8056
-0.1197 -1.6612 0.8056
-0.0601 -1.6644 0.8057
-0.0005 -1.5737 0.8055
0.0559 -1.5727 0.8055
0.1121 -1.5696 0.8056
0.1682 -1.5645 0.8056
0.2241 -1.5573 0.8056
0.2797 -1.5481 0.8056
0.3349 -1.5369 0.8056
0.3896 -1.5237 0.8056
0.4438 -1.5085 0.8056
0.4974 -1.4913 0.8056
0.5504 -1.4722 0.8056
0.6026 -1.4512 0.8056
0.6540 -1.4283 0.8056
0.7045 -1.4036 0.8055
0.7541 -1.3770 0.8055
0.8027 -1.3487 0.8055
2.0993 -3.2560 1.9888
2.2139 -3.1777 1.9888
2.3255 -3.0954 1.9888
2.4341 -3.0090 1.9888
2.5394 -2.9189 1.9888
2.6414 -2.8250 1.9888
2.7020 -2.6898 1.9613
2.7126 -2.5133 1.9031
2.7228 -2.3472 1.8507
2.7824 -2.2298 1.8364
2.8593 -2.1278 1.8364
2.9327 -2.0232 1.8365
3.0024 -1.9161 1.8367
3.0681 -1.8066 1.8369
3.1298 -1.6948 1.8371
3.1873 -1.5809 1.8372
3.2407 -1.4650 1.8373
3.2898 -1.3473 1.8374
3.3346 -1.2279 1.8375
3.3750 -1.1070 1.8375
3.4110 -0.9848 1.8376
3.4425 -0.8613 1.8376
3.4694 -0.7369 1.8375
3.4919 -0.6116 1.8375
3.5097 -0.4856 1.8374
3.5230 -0.3591 1.8373
3.5320 -0.2323 1.8374
3.5365 -0.1053 1.8374
3.5368 0.0217 1.8377
3.5329 0.1487 1.8381
3.5245 0.2754 1.8386
3.5121 0.4018 1.8393
3.4955 0.5277 1.8402
3.5226 0.6620 1.8667
3.6257 0.8172 1.9365
3.7073 0.9768 1.9985
3.6701 1.1095 1.9996
3.6281 1.2408 2.0006
3.5811 1.3703 2.0014
3.5308 1.4987 2.0030
3.4771 1.6258 2.0052
3.4188 1.7510 2.0074
3.3561 1.8742 2.0097
3.2891 1.9952 2.0120
3.2178 2.1138 2.0144
3.1397 2.2282 2.0151
3.0561 2.3386 2.0149
2.9687 2.4459 2.0147
2.8776 2.5500 2.0145
2.7828 2.6508 2.0143
2.6845 2.7480 2.0141
2.5828 2.8417 2.0138
2.4779 2.9316 2.0136
2.3699 3.0177 2.0134
2.2590 3.0999 2.0131
2.1452 3.1780 2.0128
0.8063 1.2924 0.7998
0.7590 1.3202 0.7998
0.7108 1.3463 0.7997
0.6617 1.3706 0.7996
0.6118 1.3932 0.7995
0.5611 1.4140 0.7994
0.5097 1.4330 0.7994
0.4577 1.4501 0.7993
0.4052 1.4654 0.7993
0.3521 1.4789 0.7992
0.2986 1.4904 0.7991
0.2447 1.5000 0.7991
0.1906 1.5078 0.7990
0.1361 1.5136 0.7990
0.0816 1.5174 0.7990
0.0269 1.5194 0.7989
-0.0278 1.5194 0.7989
-0.0825 1.5175 0.7989
-0.1371 1.5136 0.7989
-0.1915 1.5078 0.7988
-0.2457 1.5001 0.7988
-0.2995 1.4904 0.7988
-0.3530 1.4789 0.7988
-0.4061 1.4655 0.7988
-0.4587 1.4502 0.7988
-0.5107 1.4331 0.7988
-0.5621 1.4141 0.7988
-0.6127 1.3933 0.7988
-0.6627 1.3707 0.7989
-0.7118 1.3464 0.7989
-0.7600 1.3203 0.7989
-0.8073 1.2925 0.7990
-2.1392 3.1657 2.0025
-2.2521 3.0872 2.0022
-2.3621 3.0048 2.0020
-2.4692 2.9185 2.0017
-2.5731 2.8284 2.0014
-2.6738 2.7347 2.0012
-2.7711 2.6375 2.0009
-2.8649 2.5368 2.0007
-2.9551 2.4328 2.0005
-3.0416 2.3257 2.0003
-3.1242 2.2156 2.0000
-3.2029 2.1025 1.9998
-3.2775 1.9867 1.9997
-3.3479 1.8683 1.9995
-3.4141 1.7474 1.9993
-3.4760 1.6242 1.9991
-3.5335 1.4989 1.9990
-3.5842 1.3707 1.9976
-3.6283 1.2401 1.9951
-3.6696 1.1087 1.9937
-3.7053 0.9757 1.9918
-3.7393 0.8424 1.9916
-3.7666 0.7074 1.9904
-3.7913 0.5720 1.9903
-3.8105 0.4357 1.9899
-3.8246 0.2987 1.9894
-3.8345 0.1613 1.9893
-3.8390 0.0236 1.9890
-3.8390 -0.1143 1.9888
-3.8342 -0.2520 1.9888
-3.8245 -0.3896 1.9888
-3.8099 -0.5268 1.9888
-3.7903 -0.6634 1.9888
-3.7658 -0.7993 1.9888
-3.7364 -0.9343 1.9888
-3.7022 -1.0681 1.9888
-3.6631 -1.2007 1.9888
-3.6193 -1.3319 1.9888
-3.5708 -1.4614 1.9888
-3.5176 -1.5891 1.9888
-3.4598 -1.7149 1.9888
-3.3975 -1.8385 1.9888
-3.3307 -1.9599 1.9888
-3.2596 -2.0788 1.9888
-3.1842 -2.1950 1.9888
-3.1047 -2.3085 1.9888
-3.0210 -2.4191 1.9888
-2.9334 -2.5267 1.9888
-2.8419 -2.6310 1.9888
-2.7467 -2.7319 1.9888
-2.6479 -2.8294 1.9888
-2.5456 -2.9233 1.9888
-2.4400 -3.0134 1.9888
-2.3311 -3.0996 1.9888
-2.2191 -3.1818 1.9888
-2.1043 -3.2600 1.9888
-0.8037 -1.3488 0.8046
-0.7551 -1.3771 0.8047
-0.7055 -1.4037 0.8048
-0.6550 -1.4284 0.8049
-0.6036 -1.4513 0.8049
-0.5514 -1.4723 0.8050
-0.4984 -1.4914 0.8051
-0.4448 -1.5085 0.8051
-0.3906 -1.5237 0.8052
-0.3358 -1.5369 0.8053
-0.2806 -1.5481 0.8053
-0.2250 -1.5573 0.8054
-0.1692 -1.5645 0.8054
-0.1131 -1.5696 0.8055
-0.0568 -1.5727 0.8055
-0.0005 -1.4897 0.8053
0.0528 -1.4887 0.8054
0.1061 -1.4858 0.8054
0.1592 -1.4809 0.8054
0.2121 -1.4741 0.8054
0.2647 -1.4654 0.8054
0.3169 -1.4548 0.8054
0.3687 -1.4423 0.8054
0.4200 -1.4280 0.8054
0.4708 -1.4117 0.8054
0.5209 -1.3937 0.8054
0.5703 -1.3738 0.8054
0.6190 -1.3521 0.8054
0.6668 -1.3287 0.8054
0.7138 -1.3036 0.8053
0.7598 -1.2768 0.8053
0.8047 -1.2484 0.8053
2.0960 -3.0092 1.9888
2.2017 -2.9313 1.9888
2.3046 -2.8496 1.9888
2.4044 -2.7643 1.9888
2.5010 -2.6754 1.9888
2.5943 -2.5832 1.9888
2.6842 -2.4876 1.9888
2.7051 -2.3325 1.9419
2.7141 -2.1757 1.8919
2.7249 -2.0283 1.8482
2.7769 -1.9162 1.8364
2.8426 -1.8147 1.8364
2.9046 -1.7110 1.8365
2.9631 -1.6051 1.8366
3.0176 -1.4973 1.8367
3.0682 -1.3876 1.8368
3.1147 -1.2761 1.8369
3.1572 -1.1631 1.8370
3.1955 -1.0487 1.8370
3.2296 -0.9330 1.8371
3.2595 -0.8161 1.8371
3.2851 -0.6983 1.8370
3.3064 -0.5796 1.8370
3.3234 -0.4604 1.8369
3.3361 -0.3406 1.8368
3.3444 -0.2205 1.8368
3.3488 -0.1003 1.8368
3.3488 0.0200 1.8369
3.3451 0.1402 1.8373
3.3373 0.2602 1.8379
3.3453 0.3822 1.8495
3.4168 0.5153 1.8989
3.4979 0.6568 1.9567
3.5391 0.7971 1.9953
3.5084 0.9239 1.9964
3.4730 1.0494 1.9972
3.4331 1.1735 1.9981
3.3894 1.2964 1.9994
3.3427 1.4183 2.0015
3.2916 1.5385 2.0035
3.2363 1.6570 2.0057
3.1767 1.7735 2.0078
3.1130 1.8878 2.0099
3.0453 2.0000 2.0121
2.9736 2.1098 2.0142
2.8952 2.2149 2.0145
2.8125 2.3167 2.0144
2.7262 2.4153 2.0142
2.6364 2.5108 2.0139
2.5433 2.6030 2.0137
2.4471 2.6918 2.0135
2.3477 2.7770 2.0133
2.2454 2.8586 2.0130
2.1403 2.9366 2.0128
0.8080 1.1968 0.8000
0.7642 1.2247 0.8000
0.7194 1.2511 0.7999
0.6737 1.2758 0.7998
0.6271 1.2989 0.7997
0.5798 1.3203 0.7997
0.5318 1.3401 0.7996
0.4831 1.3581 0.7995
0.4339 1.3743 0.7995
0.3840 1.3888 0.7994
0.3337 1.4016 0.7993
0.2830 1.4125 0.7993
0.2320 1.4217 0.7993
0.1806 1.4290 0.7992
0.1290 1.4345 0.7992
0.0773 1.4382 0.7991
0.0255 1.4400 0.7991
-0.0264 1.4400 0.7991
-0.0782 1.4382 0.7990
-0.1300 1.4345 0.7990
-0.1815 1.4290 0.7990
-0.2329 1.4217 0.7990
-0.2840 1.4126 0.7990
-0.3347 1.4016 0.7990
-0.3850 1.3889 0.7990
-0.4348 1.3744 0.7990
-0.4841 1.3581 0.7990
-0.5328 1.3401 0.7990
-0.5808 1.3204 0.7990
-0.6281 1.2990 0.7990
-0.6746 1.2759 0.7991
-0.7203 1.2512 0.7991
-0.7651 1.2248 0.7991
-0.8090 1.1969 0.7992
-2.1344 2.9252 2.0025
-2.2386 2.8471 2.0022
-2.3401 2.7653 2.0020
-2.4386 2.6799 2.0017
-2.5340 2.5911 2.0015
-2.6262 2.4989 2.0013
-2.7151 2.4035 2.0010
-2.8005 2.3049 2.0008
-2.8824 2.2034 2.0006
-2.9607 2.0990 2.0004
-3.0352 1.9918 2.0002
-3.1058 1.8821 2.0001
-3.1725 1.7698 1.9999
-3.2352 1.6553 1.9997
-3.2938 1.5385 1.9996
-3.3469 1.4191 1.9987
-3.3932 1.2970 1.9963
-3.4359 1.1737 1.9943
-3.4746 1.0492 1.9927
-3.5101 0.9237 1.9919
-3.5418 0.7973 1.9914
-3.5681 0.6696 1.9904
-3.5913 0.5412 1.9903
-3.6089 0.4120 1.9896
-3.6227 0.2823 1.9895
-3.6318 0.1522 1.9892
-3.6362 0.0218 1.9890
-3.6360 -0.1088 1.9888
-3.6314 -0.2393 1.9888
-3.6222 -0.3696 1.9888
-3.6083 -0.4995 1.9888
-3.5896 -0.6289 1.9888
-3.5664 -0.7575 1.9888
-3.5385 -0.8853 1.9888
-3.5060 -1.0121 1.9888
-3.4690 -1.1376 1.9888
-3.4274 -1.2618 1.9888
-3.3814 -1.3844 1.9888
-3.3309 -1.5053 1.9888
-3.2762 -1.6244 1.9888
-3.2171 -1.7415 1.9888
-3.1538 -1.8563 1.9888
-3.0865 -1.9689 1.9888
-3.0150 -2.0790 1.9888
-2.9396 -2.1864 1.9888
-2.8604 -2.2911 1.9888
-2.7774 -2.3928 1.9888
-2.6908 -2.4916 1.9888
-2.6006 -2.5871 1.9888
-2.5070 -2.6794 1.9888
-2.4101 -2.7682 1.9888
-2.3101 -2.8535 1.9888
-2.2070 -2.9351 1.9888
-2.1010 -3.0129 1.9888
-0.8057 -1.2485 0.8044
-0.7608 -1.2769 0.8045
-0.7148 -1.3037 0.8046
-0.6678 -1.3288 0.8046
-0.6200 -1.3522 0.8047
-0.5713 -1.3739 0.8048
-0.5219 -1.3937 0.8049
-0.4718 -1.4118 0.8049
-0.4210 -1.4280 0.8050
-0.3697 -1.4424 0.8050
-0.3179 -1.4549 0.8051
-0.2656 -1.4655 0.8051
-0.2130 -1.4742 0.8052
-0.1601 -1.4809 0.8052
-0.1070 -1.4858 0.8053
-0.0538 -1.4887 0.8053
-0.0005 -1.4124 0.8052
0.0501 -1.4114 0.8052
0.1005 -1.4087 0.8052
0.1509 -1.4041 0.8052
0.2010 -1.3977 0.8053
0.2509 -1.3894 0.8053
0.3004 -1.3794 0.8053
0.3495 -1.3675 0.8053
0.3982 -1.3539 0.8053
0.4463 -1.3386 0.8053
0.4938 -1.3214 0.8053
0.5407 -1.3026 0.8052
0.5868 -1.2821 0.8052
0.6322 -1.2599 0.8052
0.6767 -1.2361 0.8052
0.7203 -1.2107 0.8051
0.7629 -1.1838 0.8051
0.8045 -1.1553 0.8051
2.0878 -2.7802 1.9888
2.1854 -2.7028 1.9888
2.2800 -2.6220 1.9888
2.3717 -2.5377 1.9888
2.4602 -2.4503 1.9888
2.5455 -2.3597 1.9888
2.6274 -2.2661 1.9888
2.6973 -2.1629 1.9825
2.7059 -2.0148 1.9352
2.7136 -1.8732 1.8923
2.7230 -1.7389 1.8549
2.7548 -1.6232 1.8364
2.8100 -1.5228 1.8364
2.8616 -1.4205 1.8364
2.9174 -1.3200 1.8415
2.9536 -1.2107 1.8365
2.9939 -1.1035 1.8365
3.0302 -0.9950 1.8366
3.0626 -0.8853 1.8366
3.0910 -0.7745 1.8366
3.1154 -0.6627 1.8366
3.1357 -0.5503 1.8365
3.1519 -0.4371 1.8365
3.1722 -0.3244 1.8412
3.1721 -0.2097 1.8364
3.1764 -0.0956 1.8365
3.1767 0.0185 1.8367
3.2007 0.1337 1.8530
3.2594 0.2536 1.8920
3.3213 0.3789 1.9354
3.3944 0.5113 1.9883
3.3801 0.6341 1.9929
3.3549 0.7551 1.9936
3.3258 0.8752 1.9946
3.2923 0.9942 1.9954
3.2546 1.1120 1.9964
3.2141 1.2288 1.9982
3.1696 1.3443 2.0001
3.1211 1.4583 2.0021
3.0684 1.5705 2.0040
3.0118 1.6808 2.0060
2.9512 1.7892 2.0080
2.8868 1.8954 2.0100
2.8186 1.9993 2.0120
2.7467 2.1008 2.0140
2.6685 2.1976 2.0140
2.5866 2.2912 2.0138
2.5015 2.3819 2.0136
2.4133 2.4694 2.0134
2.3219 2.5537 2.0132
2.2277 2.6346 2.0130
2.1307 2.7121 2.0127
0.8076 1.1078 0.8002
0.7669 1.1358 0.8002
0.7253 1.1623 0.8001
0.6828 1.1873 0.8000
0.6395 1.2108 0.7999
0.5953 1.2328 0.7999
0.5504 1.2531 0.7998
0.5048 1.2719 0.7997
0.4586 1.2890 0.7997
0.4118 1.3044 0.7996
0.3645 1.3182 0.7995
0.3168 1.3303 0.7995
0.2686 1.3407 0.7994
0.2202 1.3494 0.7994
0.1714 1.3563 0.7994
0.1225 1.3616 0.7993
0.0734 1.3651 0.7993
0.0242 1.3668 0.7993
-0.0251 1.3668 0.7992
-0.0743 1.3651 0.7992
-0.1234 1.3616 0.7992
-0.1724 1.3564 0.7992
-0.2211 1.3494 0.7992
-0.2696 1.3407 0.7991
-0.3177 1.3303 0.7991
-0.3655 1.3182 0.7991
-0.4128 1.3045 0.7991
-0.4596 1.2890 0.7992
-0.5058 1.2719 0.7992
-0.5514 1.2532 0.7992
-0.5963 1.2328 0.7992
-0.6404 1.2109 0.7992
-0.6838 1.1874 0.7993
-0.7263 1.1624 0.7993
-0.7679 1.1359 0.7993
-0.8086 1.1079 0.7994
-2.1248 2.7017 2.0025
-2.2211 2.6240 2.0023
-2.3145 2.5429 2.0020
-2.4051 2.4586 2.0018
-2.4926 2.3711 2.0016
-2.5769 2.2805 2.0014
-2.6580 2.1870 2.0012
-2.7357 2.0906 2.0010
-2.8099 1.9915 2.0008
-2.8806 1.8898 2.0006
-2.9476 1.7856 2.0004
-3.0109 1.6790 2.0003
-3.0703 1.5703 2.0001
-3.1252 1.4591 1.9995
-3.1734 1.3450 1.9973
-3.2176 1.2293 1.9951
-3.2591 1.1127 1.9939
-3.2955 0.9945 1.9921
-3.3303 0.8758 1.9919
-3.3592 0.7556 1.9908
-3.3852 0.6347 1.9905
-3.4072 0.5129 1.9904
-3.4235 0.3903 1.9895
-3.4368 0.2673 1.9895
-3.4451 0.1438 1.9891
-3.4493 0.0201 1.9890
