ply
format ascii 1.0
element vertex 2177
property float32 x
property float32 y
property float32 z
end_header
7.1316 4.6985 2.0315
6.9496 4.9456 2.0301
6.7583 5.1849 2.0285
6.5618 5.4194 2.0278
6.3570 5.6464 2.0271
6.1443 5.8656 2.0262
5.9240 6.0768 2.0253
5.6964 6.2797 2.0244
5.4619 6.4741 2.0233
5.2207 6.6597 2.0223
4.9732 6.8363 2.0211
4.7197 7.0036 2.0200
4.4606 7.1616 2.0187
4.1963 7.3100 2.0174
3.9270 7.4487 2.0161
3.6532 7.5775 2.0147
3.3752 7.6963 2.0133
3.0935 7.8049 2.0118
2.8082 7.9033 2.0103
2.5200 7.9913 2.0087
2.2290 8.0688 2.0072
1.9358 8.1359 2.0055
1.6406 8.1924 2.0039
1.3439 8.2383 2.0022
1.0465 8.2777 2.0015
0.7481 8.3066 2.0008
0.4489 8.3249 2.0001
0.1494 8.3327 1.9993
-0.1501 8.3299 1.9986
-0.4492 8.3166 1.9979
-0.7475 8.2928 1.9972
-1.0448 8.2585 1.9964
-1.3406 8.2137 1.9957
-1.6346 8.1586 1.9950
-1.9264 8.0933 1.9943
-2.2156 8.0177 1.9936
-2.5020 7.9320 1.9929
-2.7852 7.8363 1.9922
-3.0648 7.7307 1.9915
-3.3405 7.6153 1.9909
-3.6119 7.4904 1.9902
-3.8788 7.3560 1.9895
-4.1409 7.2123 1.9889
-4.3977 7.0594 1.9883
-4.6490 6.8976 1.9876
-4.8945 6.7271 1.9870
-5.1339 6.5480 1.9864
-5.3668 6.3606 1.9859
-5.5931 6.1650 1.9853
-5.8124 5.9616 1.9848
-6.0245 5.7506 1.9842
-6.2291 5.5321 1.9837
-6.4259 5.3066 1.9832
-6.6147 5.0741 1.9828
-6.7953 4.8351 1.9823
-6.9673 4.5898 1.9819
-7.1308 4.3384 1.9814
-7.2853 4.0814 1.9811
-7.4307 3.8189 1.9807
-7.5668 3.5514 1.9803
-7.6934 3.2791 1.9800
-7.8105 3.0023 1.9797
-7.9188 2.7219 1.9797
-8.0172 2.4375 1.9797
-8.1054 2.1496 1.9797
-8.1833 1.8586 1.9797
-8.2508 1.5647 1.9797
-8.3077 1.2684 1.9797
-8.3541 0.9701 1.9797
-8.2985 0.6628 1.9582
-7.7669 0.3404 1.8273
-7.7799 0.0614 1.8273
-7.7829 -0.2181 1.8273
-7.7758 -0.4976 1.8273
-7.7587 -0.7770 1.8273
-7.7315 -1.0557 1.8273
-7.6943 -1.3335 1.8273
-7.6470 -1.6099 1.8273
-7.6033 -1.8880 1.8306
-7.5353 -2.1609 1.8304
-7.4573 -2.4314 1.8302
-7.3695 -2.6989 1.8299
-7.2718 -2.9632 1.8297
-7.1646 -3.2239 1.8294
-7.0478 -3.4806 1.8291
-6.9216 -3.7330 1.8287
-6.7862 -3.9806 1.8284
-6.6418 -4.2233 1.8280
-6.4886 -4.4606 1.8276
-6.3272 -4.6925 1.8273
-6.2172 -4.9663 1.8448
-6.2076 -5.3345 1.8965
-6.1970 -5.7243 1.9537
-6.0707 -6.0253 1.9797
-5.8536 -6.2423 1.9797
-5.6287 -6.4513 1.9797
-5.3962 -6.6521 1.9797
-5.1564 -6.8444 1.9797
-4.9097 -7.0279 1.9797
-4.6563 -7.2023 1.9797
-4.3967 -7.3674 1.9797
-4.1311 -7.5230 1.9797
-3.8599 -7.6688 1.9797
-3.5835 -7.8046 1.9797
-3.3022 -7.9303 1.9797
-3.0165 -8.0456 1.9797
-2.7266 -8.1504 1.9797
-2.4331 -8.2446 1.9797
-2.1363 -8.3279 1.9797
-1.8365 -8.4004 1.9797
-1.5343 -8.4619 1.9797
-1.2300 -8.5122 1.9797
-0.9240 -8.5514 1.9797
-0.6168 -8.5794 1.9797
-0.3088 -8.5960 1.9797
-0.0004 -7.7941 1.9797
0.2791 -7.7888 1.9797
0.5581 -7.7733 1.9797
0.8364 -7.7476 1.9797
1.1135 -7.7117 1.9797
1.3891 -7.6658 1.9797
1.6628 -7.6098 1.9797
1.9342 -7.5438 1.9797
2.2030 -7.4681 1.9797
2.4688 -7.3826 1.9797
2.6964 -7.1946 1.9545
2.7597 -6.6298 1.8273
2.9952 -6.5257 1.8276
3.2274 -6.4142 1.8282
3.4553 -6.2942 1.8288
3.6786 -6.1660 1.8294
3.8971 -6.0297 1.8300
4.1104 -5.8855 1.8306
3.6157 -4.8008 1.5332
3.6258 -4.4710 1.4692
3.8183 -4.3776 1.4832
4.1072 -4.3811 1.5341
5.0922 -5.0556 1.8341
5.2819 -4.8804 1.8390
5.4688 -4.7009 1.8452
5.6476 -4.5127 1.8507
5.8188 -4.3168 1.8558
5.9832 -4.1144 1.8610
6.1364 -3.9032 1.8650
6.2752 -3.6821 1.8670
6.4056 -3.4559 1.8688
6.5273 -3.2247 1.8705
6.6403 -2.9891 1.8721
6.7442 -2.7493 1.8735
5.4330 -1.9906 1.4894
5.4337 -1.7724 1.4722
5.7656 -1.6543 1.5461
7.0672 -1.7559 1.8782
7.1241 -1.5008 1.8791
7.1714 -1.2438 1.8798
7.2088 -0.9852 1.8804
7.2365 -0.7256 1.8809
7.2542 -0.4651 1.8813
7.2622 -0.2043 1.8815
7.2602 0.0565 1.8816
7.2417 0.3166 1.8798
7.2405 0.5775 1.8850
7.2062 0.8361 1.8839
7.1621 1.0928 1.8827
7.1083 1.3474 1.8813
7.0455 1.5995 1.8799
6.9750 1.8492 1.8789
6.8955 2.0959 1.8777
6.8070 2.3391 1.8765
6.7114 2.5793 1.8757
7.1604 3.0513 2.0317
7.0389 3.3031 2.0309
6.9083 3.5500 2.0299
6.7690 3.7917 2.0289
6.6210 4.0279 2.0278
6.4645 4.2581 2.0265
6.2973 4.4804 2.0244
6.1273 4.6999 2.0238
5.9496 4.9129 2.0232
5.7644 5.1192 2.0225
5.5720 5.3184 2.0217
5.3727 5.5104 2.0209
5.1667 5.6950 2.0200
4.9544 5.8718 2.0191
4.7360 6.0406 2.0181
4.5119 6.2014 2.0171
4.2823 6.3538 2.0160
4.0476 6.4977 2.0149
3.8081 6.6330 2.0138
3.5640 6.7595 2.0126
3.3158 6.8770 2.0113
3.0638 6.9854 2.0100
2.8083 7.0846 2.0087
2.5496 7.1746 2.0073
2.2881 7.2551 2.0059
2.0241 7.3262 2.0045
1.7579 7.3877 2.0030
1.4907 7.4434 2.0025
1.2218 7.4891 2.0018
0.9514 7.5252 2.0012
0.6801 7.5517 2.0005
0.4081 7.5686 1.9999
0.1358 7.5759 1.9992
-0.1365 7.5737 1.9986
-0.4085 7.5618 1.9979
-0.6798 7.5403 1.9973
-0.9502 7.5093 1.9966
-1.2192 7.4688 1.9960
-1.4865 7.4188 1.9953
-1.7519 7.3595 1.9947
-2.0150 7.2908 1.9940
-2.2755 7.2129 1.9934
-2.5330 7.1260 1.9928
-2.7873 7.0300 1.9921
-3.0381 6.9251 1.9915
-3.2850 6.8115 1.9909
-3.5277 6.6893 1.9903
-3.7660 6.5585 1.9897
-3.9996 6.4195 1.9892
-4.2281 6.2723 1.9886
-4.4513 6.1171 1.9881
-4.6690 5.9542 1.9875
-4.8808 5.7836 1.9870
-5.0865 5.6057 1.9865
-5.2858 5.4206 1.9860
-5.4785 5.2286 1.9855
-5.6644 5.0298 1.9850
-5.8432 4.8245 1.9846
-6.0147 4.6131 1.9842
-6.1787 4.3956 1.9837
-6.3350 4.1724 1.9834
-6.4833 3.9437 1.9830
-6.6236 3.7098 1.9826
-6.7555 3.4711 1.9823
-6.8790 3.2277 1.9820
-6.9938 2.9800 1.9817
-7.0999 2.7283 1.9814
-7.1970 2.4729 1.9811
-7.2850 2.2141 1.9809
-7.3639 1.9521 1.9807
-7.4335 1.6874 1.9805
-7.4937 1.4203 1.9803
-7.5444 1.1511 1.9802
-7.5842 0.8799 1.9797
-7.6161 0.6074 1.9797
-7.4319 0.3249 1.9262
-7.0804 0.0551 1.8322
-7.0638 -0.1987 1.8273
-7.0569 -0.4524 1.8273
-7.0409 -0.7059 1.8273
-7.0158 -0.9587 1.8273
-6.9816 -1.2107 1.8273
-6.9382 -1.4615 1.8273
-6.8859 -1.7106 1.8273
-6.8290 -1.9592 1.8285
-6.7579 -2.2042 1.8283
-6.6780 -2.4465 1.8281
-6.5892 -2.6858 1.8278
-6.4917 -2.9219 1.8276
-6.3856 -3.1544 1.8273
-6.2721 -3.3834 1.8273
-6.2168 -3.6474 1.8471
-6.2098 -3.9494 1.8848
-6.2021 -4.2644 1.9266
-6.1935 -4.5942 1.9728
-6.0490 -4.8328 1.9797
-5.8748 -5.0492 1.9797
-5.6927 -5.2594 1.9797
-5.5031 -5.4627 1.9797
-5.3061 -5.6590 1.9797
-5.1019 -5.8484 1.9797
-4.8910 -6.0302 1.9797
-4.6735 -6.2042 1.9797
-4.4497 -6.3703 1.9797
-4.2199 -6.5281 1.9797
-3.9845 -6.6775 1.9797
-3.7437 -6.8183 1.9797
-3.4978 -6.9502 1.9797
-3.2473 -7.0731 1.9797
-2.9923 -7.1868 1.9797
-2.7333 -7.2911 1.9797
-2.4707 -7.3860 1.9797
-2.2046 -7.4712 1.9797
-1.9357 -7.5466 1.9797
-1.6640 -7.6122 1.9797
-1.3902 -7.6678 1.9797
-1.1145 -7.7133 1.9797
-0.8373 -7.7488 1.9797
-0.5589 -7.7741 1.9797
-0.2798 -7.7892 1.9797
-0.0004 -7.1183 1.9797
0.2548 -7.1134 1.9797
0.5096 -7.0993 1.9797
0.7637 -7.0759 1.9797
1.0168 -7.0432 1.9797
1.2685 -7.0013 1.9797
1.5185 -6.9503 1.9797
1.7664 -6.8903 1.9797
2.0119 -6.8211 1.9797
2.2546 -6.7431 1.9797
2.4944 -6.6564 1.9797
2.6963 -6.4784 1.9548
2.7352 -5.9600 1.8273
2.9465 -5.8568 1.8275
3.1546 -5.7473 1.8280
3.3585 -5.6303 1.8286
3.5580 -5.5058 1.8291
3.7528 -5.3742 1.8296
3.5979 -4.7778 1.6701
3.6087 -4.4505 1.6006
3.8023 -4.3599 1.6168
4.0816 -4.3545 1.6688
4.6473 -4.6146 1.8320
4.8087 -4.4439 1.8324
4.9645 -4.2682 1.8332
5.1147 -4.0876 1.8342
5.2667 -3.9080 1.8382
5.4156 -3.7249 1.8433
5.5561 -3.5348 1.8477
5.6884 -3.3385 1.8517
5.8129 -3.1368 1.8555
5.9299 -2.9303 1.8591
6.0389 -2.7192 1.8626
5.4191 -2.2098 1.6468
5.4202 -1.9866 1.6254
5.4212 -1.7690 1.6066
5.7128 -1.6398 1.6755
6.4333 -1.5991 1.8700
6.4852 -1.3669 1.8708
6.5284 -1.1330 1.8714
6.5627 -0.8977 1.8720
6.5880 -0.6613 1.8724
6.6045 -0.4242 1.8728
6.6120 -0.1868 1.8730
6.6106 0.0507 1.8731
6.6003 0.2878 1.8730
6.5874 0.5247 1.8747
6.5596 0.7603 1.8745
6.5231 0.9946 1.8743
6.4778 1.2271 1.8739
6.4237 1.4576 1.8733
6.3611 1.6857 1.8726
6.2905 1.9113 1.8720
6.2118 2.1339 1.8713
6.1254 2.3534 1.8706
6.5378 2.7852 2.0270
6.4282 3.0157 2.0264
6.3095 3.2415 2.0256
6.1827 3.4625 2.0246
6.0478 3.6784 2.0235
5.9017 3.8866 2.0211
5.7534 4.0926 2.0204
5.5984 4.2935 2.0198
5.4364 4.4884 2.0193
5.2676 4.6772 2.0186
5.0921 4.8596 2.0179
4.9103 5.0355 2.0172
4.7224 5.2045 2.0164
4.5287 5.3665 2.0156
4.3294 5.5212 2.0147
4.1248 5.6686 2.0137
3.9152 5.8084 2.0128
3.7009 5.9404 2.0117
3.4822 6.0646 2.0107
3.2593 6.1807 2.0096
3.0325 6.2886 2.0084
2.8022 6.3883 2.0073
2.5687 6.4795 2.0060
2.3322 6.5623 2.0048
2.0936 6.6376 2.0039
1.8528 6.7057 2.0033
1.6099 6.7651 2.0027
1.3652 6.8158 2.0021
1.1189 6.8579 2.0015
0.8714 6.8912 2.0009
0.6229 6.9157 2.0003
0.3738 6.9314 1.9997
0.1244 6.9383 1.9991
-0.1251 6.9364 1.9985
-0.3742 6.9256 1.9979
-0.6227 6.9061 1.9973
-0.8704 6.8779 1.9967
-1.1168 6.8409 1.9962
-1.3618 6.7952 1.9956
-1.6049 6.7409 1.9950
-1.8459 6.6781 1.9944
-2.0846 6.6069 1.9938
-2.3205 6.5273 1.9932
-2.5535 6.4394 1.9927
-2.7832 6.3433 1.9921
-3.0094 6.2392 1.9915
-3.2318 6.1272 1.9910
-3.4501 6.0075 1.9905
-3.6640 5.8800 1.9899
-3.8733 5.7452 1.9894
-4.0778 5.6030 1.9889
-4.2771 5.4537 1.9884
-4.4711 5.2974 1.9879
-4.6595 5.1343 1.9875
-4.8420 4.9647 1.9870
-5.0184 4.7886 1.9866
-5.1886 4.6065 1.9861
-5.3523 4.4183 1.9857
-5.5092 4.2245 1.9853
-5.6593 4.0252 1.9850
-5.8022 3.8207 1.9846
-5.9379 3.6111 1.9843
-6.0662 3.3968 1.9839
-6.1868 3.1781 1.9836
-6.2996 2.9551 1.9833
-6.4046 2.7281 1.9831
-6.5014 2.4975 1.9828
-6.5901 2.2636 1.9826
-6.6704 2.0265 1.9824
-6.7424 1.7866 1.9822
-6.8058 1.5442 1.9820
-6.8606 1.2995 1.9818
-6.9067 1.0530 1.9817
-6.9385 0.8042 1.9800
-6.9662 0.5548 1.9797
-6.9860 0.3046 1.9797
-6.9969 0.0537 1.9797
-6.7895 -0.1917 1.9205
-6.6202 -0.4252 1.8746
-6.4919 -0.6515 1.8425
-6.4150 -0.8774 1.8273
-6.3833 -1.1077 1.8273
-6.3434 -1.3369 1.8273
-6.2952 -1.5646 1.8273
-6.2388 -1.7906 1.8273
-6.2195 -2.0292 1.8407
-6.2142 -2.2773 1.8610
-6.2099 -2.5319 1.8846
-6.2049 -2.7936 1.9112
-6.1994 -3.0631 1.9411
-6.1932 -3.3417 1.9743
-6.0892 -3.5733 1.9797
-5.9603 -3.7914 1.9797
-5.8235 -4.0049 1.9797
-5.6789 -4.2132 1.9797
-5.5269 -4.4164 1.9797
-5.3675 -4.6140 1.9797
-5.2009 -4.8058 1.9797
-5.0275 -4.9914 1.9797
-4.8473 -5.1707 1.9797
-4.6607 -5.3434 1.9797
-4.4678 -5.5092 1.9797
-4.2690 -5.6680 1.9797
-4.0645 -5.8195 1.9797
-3.8545 -5.9635 1.9797
-3.6393 -6.0998 1.9797
-3.4193 -6.2282 1.9797
-3.1947 -6.3485 1.9797
-2.9657 -6.4606 1.9797
-2.7328 -6.5643 1.9797
-2.4963 -6.6595 1.9797
-2.2563 -6.7460 1.9797
-2.0134 -6.8237 1.9797
-1.7677 -6.8925 1.9797
-1.5197 -6.9523 1.9797
-1.2696 -7.0030 1.9797
-1.0178 -7.0446 1.9797
-0.7646 -7.0769 1.9797
-0.5104 -7.1000 1.9797
-0.2556 -7.1138 1.9797
-0.0004 -6.5437 1.9797
0.2342 -6.5393 1.9797
0.4684 -6.5263 1.9797
0.7020 -6.5048 1.9797
0.9346 -6.4749 1.9797
1.1660 -6.4364 1.9797
1.3958 -6.3896 1.9797
1.6237 -6.3344 1.9797
1.8494 -6.2710 1.9797
2.0726 -6.1994 1.9797
2.2930 -6.1198 1.9797
2.5103 -6.0322 1.9797
2.6956 -5.8744 1.9589
2.7228 -5.4128 1.8369
2.8991 -5.2825 1.8273
3.0865 -5.1750 1.8278
3.2698 -5.0606 1.8283
3.4489 -4.9397 1.8288
3.5257 -4.6826 1.7800
3.5793 -4.4150 1.7266
3.7805 -4.3357 1.7482
4.0115 -4.2805 1.7836
4.2712 -4.2419 1.8310
4.4196 -4.0850 1.8314
4.5621 -3.9229 1.8318
4.6985 -3.7557 1.8321
4.8288 -3.5837 1.8325
4.9534 -3.4077 1.8331
5.0721 -3.2276 1.8339
5.1846 -3.0436 1.8348
5.3002 -2.8609 1.8392
5.4072 -2.6727 1.8428
5.5059 -2.4798 1.8460
5.4061 -2.2051 1.7858
5.4074 -1.9825 1.7626
5.4085 -1.7655 1.7421
5.6603 -1.6254 1.8043
5.8792 -1.4621 1.8572
5.9294 -1.2505 1.8588
5.9711 -1.0370 1.8601
6.0042 -0.8220 1.8611
6.0287 -0.6058 1.8618
6.0445 -0.3889 1.8623
6.0516 -0.1716 1.8625
6.0500 0.0457 1.8624
6.0472 0.2630 1.8643
6.0345 0.4800 1.8656
6.0136 0.6964 1.8668
5.9829 0.9115 1.8673
5.9429 1.1251 1.8673
5.8950 1.3370 1.8672
5.8397 1.5469 1.8671
5.7767 1.7545 1.8670
5.7059 1.9594 1.8667
5.6274 2.1614 1.8662
6.0076 2.5586 2.0226
5.9080 2.7710 2.0223
5.8000 2.9790 2.0218
5.6836 3.1823 2.0208
5.5578 3.3796 2.0189
5.4260 3.5727 2.0174
5.2905 3.7627 2.0169
5.1483 3.9476 2.0165
4.9996 4.1271 2.0159
4.8446 4.3010 2.0153
4.6836 4.4690 2.0147
4.5166 4.6311 2.0140
4.3441 4.7868 2.0133
4.1661 4.9361 2.0125
3.9830 5.0788 2.0117
3.7951 5.2147 2.0109
3.6025 5.3437 2.0100
3.4055 5.4655 2.0090
3.2044 5.5801 2.0081
2.9994 5.6873 2.0070
2.7910 5.7870 2.0060
2.5792 5.8791 2.0049
2.3652 5.9655 2.0045
2.1483 6.0440 2.0039
1.9288 6.1147 2.0034
1.7071 6.1776 2.0029
1.4833 6.2325 2.0024
1.2579 6.2795 2.0018
1.0310 6.3184 2.0013
0.8029 6.3493 2.0007
0.5740 6.3721 2.0002
0.3444 6.3867 1.9996
0.1146 6.3932 1.9991
-0.1153 6.3916 1.9985
-0.3449 6.3818 1.9980
-0.5739 6.3639 1.9974
-0.8022 6.3380 1.9969
-1.0293 6.3040 1.9963
-1.2551 6.2620 1.9958
-1.4792 6.2120 1.9952
-1.7013 6.1542 1.9947
-1.9213 6.0886 1.9941
-2.1388 6.0152 1.9936
-2.3535 5.9343 1.9931
-2.5653 5.8458 1.9926
-2.7737 5.7498 1.9921
-2.9787 5.6466 1.9916
-3.1799 5.5362 1.9911
-3.3770 5.4187 1.9906
-3.5700 5.2944 1.9901
-3.7584 5.1633 1.9896
-3.9420 5.0256 1.9892
-4.1208 4.8815 1.9887
-4.2943 4.7312 1.9883
-4.4625 4.5748 1.9879
-4.6250 4.4125 1.9875
-4.7817 4.2445 1.9871
-4.9325 4.0711 1.9867
-5.0770 3.8924 1.9864
-5.2152 3.7086 1.9860
-5.3468 3.5200 1.9857
-5.4717 3.3268 1.9854
-5.5897 3.1293 1.9851
-5.7007 2.9276 1.9848
-5.8045 2.7221 1.9845
-5.9010 2.5129 1.9843
-5.9900 2.3004 1.9840
-6.0715 2.0847 1.9838
-6.1453 1.8662 1.9836
-6.2114 1.6452 1.9834
-6.2696 1.4218 1.9833
-6.3198 1.1964 1.9831
-6.3567 0.9684 1.9813
-6.3879 0.7396 1.9804
-6.4127 0.5100 1.9799
-6.4302 0.2796 1.9798
-6.4396 0.0487 1.9797
-6.4410 -0.1826 1.9797
-6.4341 -0.4139 1.9797
-6.4189 -0.6450 1.9797
-6.3640 -0.8711 1.9700
-6.2909 -1.0924 1.9571
-6.2384 -1.3155 1.9531
-6.2066 -1.5433 1.9581
-6.1937 -1.7784 1.9718
-6.1539 -2.0085 1.9797
-6.0812 -2.2293 1.9797
-6.0006 -2.4473 1.9797
-5.9121 -2.6625 1.9797
-5.8159 -2.8743 1.9797
-5.7120 -3.0827 1.9797
-5.6005 -3.2873 1.9797
-5.4817 -3.4878 1.9797
-5.3557 -3.6839 1.9797
-5.2226 -3.8754 1.9797
-5.0826 -4.0621 1.9797
-4.9358 -4.2436 1.9797
-4.7825 -4.4198 1.9797
-4.6228 -4.5903 1.9797
-4.4570 -4.7551 1.9797
-4.2853 -4.9137 1.9797
-4.1079 -5.0660 1.9797
-3.9249 -5.2119 1.9797
-3.7368 -5.3510 1.9797
-3.5436 -5.4833 1.9797
-3.3458 -5.6084 1.9797
-3.1434 -5.7263 1.9797
-2.9368 -5.8369 1.9797
-2.7264 -5.9398 1.9797
-2.5122 -6.0350 1.9797
-2.2947 -6.1224 1.9797
-2.0741 -6.2019 1.9797
-1.8508 -6.2732 1.9797
-1.6249 -6.3364 1.9797
-1.3969 -6.3913 1.9797
-1.1670 -6.4378 1.9797
-0.9355 -6.4760 1.9797
-0.7028 -6.5057 1.9797
-0.4692 -6.5269 1.9797
-0.2349 -6.5396 1.9797
-0.0004 -6.0488 1.9797
0.2164 -6.0447 1.9797
0.4329 -6.0328 1.9797
0.6488 -6.0129 1.9797
0.8638 -5.9853 1.9797
1.0777 -5.9498 1.9797
1.2901 -5.9065 1.9797
1.5007 -5.8556 1.9797
1.7094 -5.7971 1.9797
1.9157 -5.7310 1.9797
2.1195 -5.6575 1.9797
2.3204 -5.5766 1.9797
2.5182 -5.4885 1.9797
2.6942 -5.3567 1.9663
2.7154 -4.9486 1.8516
2.8524 -4.7831 1.8273
3.0217 -4.6773 1.8277
3.1871 -4.5655 1.8281
3.3484 -4.4478 1.8285
3.5053 -4.3243 1.8290
3.6575 -4.1952 1.8294
3.8049 -4.0607 1.8298
3.9473 -3.9208 1.8301
4.0844 -3.7760 1.8305
4.2162 -3.6262 1.8309
4.3424 -3.4717 1.8312
4.4629 -3.3128 1.8315
4.5775 -3.1497 1.8318
4.6860 -2.9825 1.8321
4.7884 -2.8116 1.8324
4.8844 -2.6371 1.8326
4.9750 -2.4597 1.8333
5.0590 -2.2792 1.8338
5.1363 -2.0958 1.8344
5.2087 -1.9103 1.8355
5.2786 -1.7237 1.8381
5.3409 -1.5344 1.8404
5.3948 -1.3423 1.8422
5.4408 -1.1481 1.8436
5.4790 -0.9522 1.8448
5.5094 -0.7549 1.8458
5.5319 -0.5565 1.8464
5.5466 -0.3575 1.8469
5.5612 -0.1583 1.8497
5.5647 0.0414 1.8512
5.5654 0.2414 1.8541
5.5577 0.4414 1.8567
5.5387 0.6407 1.8578
5.5153 0.8397 1.8599
5.4803 1.0369 1.8605
5.4380 1.2327 1.8609
5.3896 1.4270 1.8617
5.3324 1.6189 1.8618
5.2679 1.8084 1.8618
5.1969 1.9954 1.8618
5.5508 2.3634 2.0187
5.4595 2.5599 2.0186
5.3607 2.7527 2.0183
5.2516 2.9397 2.0167
5.1352 3.1220 2.0147
5.0165 3.3024 2.0144
4.8915 3.4782 2.0140
4.7603 3.6494 2.0135
4.6230 3.8156 2.0131
4.4799 3.9766 2.0125
4.3312 4.1322 2.0119
4.1770 4.2822 2.0113
4.0177 4.4265 2.0106
3.8533 4.5649 2.0099
3.6842 4.6971 2.0092
3.5105 4.8231 2.0084
3.3325 4.9426 2.0076
3.1505 5.0556 2.0067
2.9646 5.1619 2.0058
2.7759 5.2628 2.0054
2.5837 5.3567 2.0049
2.3884 5.4438 2.0045
2.1903 5.5238 2.0040
1.9895 5.5966 2.0035
1.7863 5.6623 2.0030
1.5810 5.7207 2.0026
1.3738 5.7717 2.0021
1.1650 5.8154 2.0016
0.9549 5.8516 2.0011
0.7437 5.8803 2.0005
0.5316 5.9015 2.0000
0.3190 5.9152 1.9995
0.1061 5.9214 1.9990
-0.1068 5.9200 1.9985
-0.3195 5.9110 1.9980
-0.5317 5.8946 1.9975
-0.7431 5.8706 1.9970
-0.9536 5.8392 1.9965
-1.1627 5.8004 1.9960
-1.3703 5.7541 1.9954
-1.5762 5.7006 1.9949
-1.7799 5.6399 1.9944
-1.9814 5.5720 1.9940
-2.1804 5.4970 1.9935
-2.3765 5.4150 1.9930
-2.5697 5.3261 1.9925
-2.7596 5.2305 1.9921
-2.9459 5.1282 1.9916
-3.1286 5.0194 1.9911
-3.3073 4.9042 1.9907
-3.4818 4.7827 1.9903
-3.6519 4.6551 1.9899
-3.8175 4.5216 1.9894
-3.9782 4.3822 1.9890
-4.1339 4.2373 1.9887
-4.2844 4.0869 1.9883
-4.4296 3.9312 1.9879
-4.5691 3.7705 1.9876
-4.7029 3.6049 1.9872
-4.8308 3.4346 1.9869
-4.9526 3.2598 1.9866
-5.0682 3.0808 1.9863
-5.1774 2.8978 1.9860
-5.2801 2.7109 1.9858
-5.3761 2.5205 1.9855
-5.4653 2.3267 1.9853
-5.5476 2.1298 1.9851
-5.6229 1.9300 1.9849
-5.6911 1.7276 1.9847
-5.7521 1.5228 1.9845
-5.8057 1.3159 1.9844
-5.8495 1.1066 1.9834
-5.8815 0.8953 1.9810
-5.9122 0.6838 1.9806
-5.9346 0.4713 1.9801
-5.9502 0.2581 1.9798
-5.9588 0.0444 1.9798
-5.9596 -0.1696 1.9797
-5.9529 -0.3836 1.9797
-5.9385 -0.5974 1.9797
-5.9165 -0.8105 1.9797
-5.8868 -1.0229 1.9797
-5.8495 -1.2341 1.9797
-5.8046 -1.4440 1.9797
-5.7521 -1.6522 1.9797
-5.6921 -1.8585 1.9797
-5.6246 -2.0626 1.9797
-5.5499 -2.2642 1.9797
-5.4678 -2.4631 1.9797
-5.3786 -2.6589 1.9797
-5.2823 -2.8515 1.9797
-5.1791 -3.0406 1.9797
-5.0691 -3.2259 1.9797
-4.9524 -3.4071 1.9797
-4.8291 -3.5841 1.9797
-4.6995 -3.7566 1.9797
-4.5637 -3.9243 1.9797
-4.4218 -4.0871 1.9797
-4.2740 -4.2447 1.9797
-4.1206 -4.3968 1.9797
-3.9618 -4.5434 1.9797
-3.7976 -4.6841 1.9797
-3.6284 -4.8188 1.9797
-3.4544 -4.9473 1.9797
-3.2758 -5.0694 1.9797
-3.0928 -5.1851 1.9797
-2.9057 -5.2940 1.9797
-2.7147 -5.3960 1.9797
-2.5201 -5.4911 1.9797
-2.3221 -5.5790 1.9797
-2.1211 -5.6597 1.9797
-1.9171 -5.7331 1.9797
-1.7107 -5.7989 1.9797
-1.5019 -5.8573 1.9797
-1.2911 -5.9080 1.9797
-1.0787 -5.9510 1.9797
-0.8647 -5.9862 1.9797
-0.6496 -6.0137 1.9797
-0.4337 -6.0332 1.9797
-0.2172 -6.0450 1.9797
-0.0004 -5.6176 1.9797
0.2009 -5.6138 1.9797
0.4020 -5.6027 1.9797
0.6025 -5.5844 1.9797
0.8021 -5.5587 1.9797
1.0007 -5.5258 1.9797
1.1980 -5.4857 1.9797
1.3936 -5.4384 1.9797
1.5874 -5.3841 1.9797
1.7790 -5.3229 1.9797
1.9683 -5.2546 1.9797
2.1549 -5.1796 1.9797
2.3386 -5.0979 1.9797
2.5192 -5.0095 1.9797
2.6923 -4.9071 1.9766
2.7119 -4.5482 1.8706
2.8059 -4.3439 1.8273
2.9592 -4.2396 1.8275
3.1089 -4.1304 1.8279
3.2546 -4.0157 1.8283
3.3960 -3.8959 1.8287
3.5329 -3.7710 1.8290
3.6651 -3.6412 1.8294
3.7925 -3.5067 1.8297
3.9150 -3.3677 1.8301
4.0322 -3.2243 1.8304
4.1441 -3.0768 1.8307
4.2506 -2.9254 1.8309
4.3515 -2.7702 1.8312
4.4466 -2.6115 1.8315
4.5359 -2.4495 1.8317
4.6192 -2.2844 1.8319
4.6964 -2.1165 1.8321
4.7675 -1.9459 1.8323
4.8322 -1.7729 1.8325
4.8906 -1.5976 1.8326
4.9424 -1.4205 1.8326
4.9876 -1.2415 1.8326
5.0261 -1.0612 1.8326
5.0595 -0.8799 1.8330
5.0896 -0.6979 1.8346
5.1161 -0.5153 1.8372
5.1382 -0.3318 1.8407
5.1550 -0.1474 1.8445
5.1601 0.0378 1.8466
5.1564 0.2231 1.8479
5.1458 0.4081 1.8492
5.1287 0.5927 1.8505
5.1078 0.7770 1.8527
5.0777 0.9601 1.8541
5.0396 1.1418 1.8549
4.9946 1.3218 1.8556
4.9430 1.5001 1.8561
4.8847 1.6762 1.8566
4.8206 1.8503 1.8572
5.1517 2.1928 2.0148
5.0675 2.3755 2.0148
4.9762 2.5546 2.0147
4.8735 2.7274 2.0124
4.7696 2.8991 2.0121
4.6596 3.0668 2.0118
4.5437 3.2303 2.0114
4.4220 3.3894 2.0110
4.2946 3.5439 2.0106
4.1619 3.6936 2.0101
4.0239 3.8384 2.0095
3.8809 3.9779 2.0089
3.7330 4.1122 2.0083
3.5804 4.2410 2.0077
3.4234 4.3640 2.0070
3.2626 4.4819 2.0065
3.0979 4.5941 2.0061
2.9294 4.7003 2.0057
2.7573 4.8004 2.0053
2.5818 4.8943 2.0049
2.4032 4.9819 2.0045
2.2216 5.0629 2.0040
0.8096 2.0415 0.7962
0.7355 2.0687 0.7961
0.6604 2.0933 0.7960
1.4707 5.3211 2.0023
1.2780 5.3687 2.0018
1.0838 5.4094 2.0013
0.8883 5.4433 2.0009
0.6918 5.4701 2.0004
0.4946 5.4900 1.9999
0.2968 5.5028 1.9994
0.0987 5.5086 1.9990
-0.0994 5.5074 1.9985
-0.2973 5.4991 1.9980
-0.4947 5.4839 1.9975
-0.6915 5.4617 1.9971
-0.8873 5.4325 1.9966
-1.0819 5.3964 1.9961
-1.2751 5.3535 1.9956
-1.4666 5.3037 1.9952
-0.6608 2.0935 0.7958
-0.7358 2.0689 0.7959
-0.8100 2.0417 0.7959
-2.2114 5.0380 1.9934
-2.3911 4.9554 1.9929
-2.5678 4.8664 1.9925
-2.7412 4.7712 1.9921
-2.9112 4.6699 1.9916
-3.0775 4.5627 1.9912
-3.2398 4.4496 1.9908
-3.3981 4.3309 1.9904
-3.5521 4.2066 1.9901
-3.7016 4.0769 1.9897
-3.8465 3.9420 1.9893
-3.9865 3.8020 1.9890
-4.1215 3.6571 1.9886
-4.2512 3.5075 1.9883
-4.3757 3.3534 1.9880
-4.4946 3.1949 1.9877
-4.6078 3.0322 1.9874
-4.7153 2.8656 1.9871
-4.8168 2.6953 1.9869
-4.9122 2.5214 1.9866
-5.0014 2.3441 1.9864
-5.0842 2.1638 1.9862
-5.1607 1.9806 1.9860
-5.2306 1.7947 1.9858
-5.2939 1.6064 1.9856
-5.3504 1.4158 1.9855
-5.4002 1.2233 1.9853
-5.4359 1.0277 1.9826
-5.4682 0.8318 1.9812
-5.4953 0.6350 1.9804
-5.5171 0.4375 1.9803
-5.5311 0.2392 1.9799
-5.5389 0.0406 1.9799
-5.5392 -0.1583 1.9797
-5.5328 -0.3572 1.9797
-5.5193 -0.5559 1.9797
-5.4987 -0.7539 1.9797
-5.4709 -0.9513 1.9797
-5.4360 -1.1475 1.9797
-5.3940 -1.3425 1.9797
-5.3451 -1.5359 1.9797
-5.2892 -1.7276 1.9797
-5.2263 -1.9172 1.9797
-5.1567 -2.1044 1.9797
-5.0803 -2.2891 1.9797
-4.9972 -2.4710 1.9797
-4.9076 -2.6499 1.9797
-4.8116 -2.8254 1.9797
-4.7092 -2.9975 1.9797
-4.6007 -3.1658 1.9797
-4.4860 -3.3301 1.9797
-4.3655 -3.4902 1.9797
-4.2392 -3.6460 1.9797
-4.1073 -3.7971 1.9797
-3.9700 -3.9433 1.9797
-3.8274 -4.0846 1.9797
-3.6798 -4.2206 1.9797
-3.5272 -4.3512 1.9797
-3.3700 -4.4762 1.9797
-3.2083 -4.5955 1.9797
-3.0424 -4.7088 1.9797
-2.8724 -4.8161 1.9797
-2.6986 -4.9172 1.9797
-2.5212 -5.0119 1.9797
-2.3404 -5.1001 1.9797
-2.1565 -5.1817 1.9797
-1.9697 -5.2566 1.9797
-1.7804 -5.3246 1.9797
-1.5886 -5.3858 1.9797
-1.3947 -5.4399 1.9797
-1.1990 -5.4869 1.9797
-1.0017 -5.5268 1.9797
-0.8030 -5.5595 1.9797
-0.6033 -5.5850 1.9797
-0.4028 -5.6032 1.9797
-0.2017 -5.6140 1.9797
-0.0004 -5.2382 1.9797
0.1873 -5.2347 1.9797
0.1531 -2.1338 0.8086
0.2294 -2.1267 0.8085
0.3054 -2.1169 0.8085
0.3810 -2.1043 0.8085
0.4561 -2.0890 0.8085
0.5306 -2.0709 0.8084
0.6043 -2.0501 0.8084
0.6773 -2.0267 0.8083
0.7493 -2.0005 0.8082
0.8202 -1.9718 0.8082
2.1806 -4.7541 1.9797
2.3490 -4.6718 1.9797
2.5143 -4.5834 1.9797
2.6763 -4.4892 1.9797
2.7081 -4.1931 1.8913
2.7592 -3.9537 1.8273
2.8983 -3.8511 1.8273
3.0341 -3.7443 1.8277
3.1659 -3.6326 1.8281
3.2936 -3.5162 1.8284
3.4169 -3.3952 1.8287
3.5357 -3.2699 1.8290
3.6499 -3.1403 1.8293
3.7593 -3.0067 1.8296
3.8637 -2.8692 1.8299
3.9630 -2.7281 1.8302
4.0571 -2.5834 1.8304
4.1459 -2.4355 1.8307
4.2292 -2.2845 1.8309
4.3070 -2.1306 1.8311
4.3791 -1.9740 1.8313
4.4454 -1.8150 1.8315
4.5059 -1.6537 1.8316
4.5604 -1.4903 1.8317
4.6088 -1.3251 1.8317
4.6511 -1.1583 1.8317
4.6872 -0.9902 1.8317
4.7175 -0.8210 1.8317
4.7430 -0.6510 1.8322
4.7647 -0.4805 1.8337
4.7821 -0.3094 1.8358
4.7936 -0.1376 1.8381
4.7992 0.0346 1.8404
4.8010 0.2071 1.8437
4.7916 0.3794 1.8450
4.7753 0.5513 1.8461
4.7527 0.7224 1.8471
4.7237 0.8926 1.8480
4.6889 1.0618 1.8490
4.6479 1.2295 1.8500
4.6010 1.3957 1.8509
4.5477 1.5600 1.8517
4.6870 1.7985 1.9344
4.7994 2.0423 2.0107
4.7217 2.2128 2.0110
4.6354 2.3791 2.0103
4.5445 2.5427 2.0101
4.4478 2.7029 2.0098
4.3454 2.8594 2.0095
4.2374 3.0120 2.0092
4.1241 3.1605 2.0088
4.0055 3.3047 2.0083
3.8818 3.4445 2.0079
3.7537 3.5800 2.0076
3.6208 3.7108 2.0073
3.4834 3.8367 2.0070
3.3417 3.9576 2.0066
3.1958 4.0732 2.0063
3.0459 4.1836 2.0059
2.8922 4.2885 2.0056
2.7350 4.3878 2.0052
2.5744 4.4814 2.0048
2.4106 4.5691 2.0045
2.2439 4.6510 2.0041
0.8248 1.8794 0.7967
0.7565 1.9073 0.7966
0.6872 1.9328 0.7965
0.6171 1.9558 0.7964
0.5463 1.9763 0.7963
0.4748 1.9943 0.7963
0.4027 2.0097 0.7962
0.3301 2.0227 0.7962
0.2571 2.0330 0.7961
0.1839 2.0408 0.7961
0.1103 2.0460 0.7961
0.0367 2.0486 0.7961
-0.0370 2.0486 0.7960
-0.1106 2.0460 0.7960
-0.1842 2.0408 0.7960
-0.2574 2.0331 0.7961
-0.3304 2.0227 0.7961
-0.4030 2.0098 0.7961
-0.4751 1.9944 0.7961
-0.5466 1.9764 0.7962
-0.6175 1.9559 0.7962
-0.6876 1.9329 0.7963
-0.7568 1.9075 0.7964
-0.8252 1.8796 0.7964
-2.2334 4.6279 1.9933
-2.3985 4.5448 1.9929
-2.5604 4.4558 1.9925
-2.7192 4.3612 1.9921
-2.8745 4.2610 1.9917
-3.0261 4.1554 1.9913
-3.1739 4.0445 1.9910
-3.3177 3.9284 1.9906
-3.4574 3.8072 1.9903
-3.5926 3.6812 1.9899
-3.7233 3.5504 1.9896
-3.8494 3.4150 1.9893
-3.9705 3.2752 1.9890
-4.0867 3.1313 1.9887
-4.1977 2.9832 1.9884
-4.3034 2.8313 1.9881
-4.4036 2.6756 1.9879
-4.4983 2.5165 1.9876
-4.5873 2.3540 1.9874
-4.6705 2.1885 1.9872
-4.7478 2.0200 1.9870
-4.8191 1.8489 1.9868
-4.8843 1.6752 1.9866
-4.9433 1.4994 1.9865
-4.9960 1.3214 1.9863
-5.0376 1.1406 1.9843
-5.0722 0.9584 1.9822
-5.1038 0.7757 1.9814
-5.1288 0.5920 1.9806
-5.1490 0.4077 1.9804
-5.1617 0.2227 1.9800
-5.1687 0.0373 1.9799
-5.1688 -0.1484 1.9797
-5.1626 -0.3339 1.9797
-5.1499 -0.5192 1.9797
-5.1304 -0.7041 1.9797
-5.1043 -0.8881 1.9797
-5.0716 -1.0712 1.9797
-5.0324 -1.2531 1.9797
-4.9865 -1.4335 1.9797
-4.9342 -1.6123 1.9797
-4.8755 -1.7890 1.9797
-4.8103 -1.9637 1.9797
-4.7389 -2.1359 1.9797
-4.6613 -2.3055 1.9797
-4.5776 -2.4723 1.9797
-4.4879 -2.6360 1.9797
-4.3923 -2.7964 1.9797
-4.2910 -2.9533 1.9797
-4.1840 -3.1065 1.9797
-4.0715 -3.2558 1.9797
-3.9536 -3.4009 1.9797
-3.8305 -3.5417 1.9797
-3.7023 -3.6781 1.9797
-3.5693 -3.8097 1.9797
-3.4315 -3.9365 1.9797
-3.2892 -4.0582 1.9797
-3.1426 -4.1747 1.9797
-2.9917 -4.2858 1.9797
-2.8369 -4.3915 1.9797
-2.6784 -4.4914 1.9797
-2.5163 -4.5856 1.9797
-2.3508 -4.6738 1.9797
-2.1822 -4.7560 1.9797
-0.8206 -1.9720 0.8079
-0.7496 -2.0007 0.8080
-0.6776 -2.0268 0.8081
-0.6047 -2.0502 0.8082
-0.5309 -2.0710 0.8083
-0.4565 -2.0891 0.8083
-0.3814 -2.1044 0.8084
-0.3057 -2.1170 0.8084
-0.2297 -2.1268 0.8085
-0.1534 -2.1338 0.8085
-0.1881 -5.2349 1.9797
-0.0002 -2.0008 0.8081
0.0715 -1.9995 0.8081
0.1431 -1.9956 0.8081
0.2145 -1.9890 0.8081
0.2856 -1.9799 0.8081
0.3563 -1.9681 0.8081
0.4266 -1.9538 0.8081
0.4962 -1.9369 0.8080
0.5652 -1.9175 0.8080
0.6334 -1.8956 0.8079
0.7007 -1.8712 0.8078
0.7671 -1.8443 0.8078
2.0403 -4.4489 1.9797
2.1980 -4.3719 1.9797
2.3527 -4.2893 1.9797
2.5043 -4.2012 1.9797
2.6525 -4.1077 1.9797
2.7039 -3.8751 1.9136
2.7242 -3.6203 1.8355
2.8387 -3.5036 1.8273
2.9618 -3.3989 1.8275
3.0813 -3.2900 1.8278
3.1967 -3.1769 1.8281
3.3079 -3.0597 1.8284
3.4147 -2.9385 1.8287
3.5171 -2.8135 1.8290
3.6148 -2.6849 1.8293
3.7078 -2.5529 1.8295
3.7959 -2.4176 1.8297
3.8790 -2.2793 1.8300
3.9570 -2.1380 1.8302
4.0299 -1.9941 1.8304
4.0974 -1.8476 1.8305
4.1595 -1.6988 1.8307
4.2162 -1.5479 1.8308
4.2672 -1.3951 1.8309
4.3126 -1.2405 1.8309
4.3523 -1.0845 1.8309
4.3863 -0.9272 1.8308
4.4145 -0.7688 1.8308
4.4377 -0.6096 1.8310
4.4560 -0.4499 1.8316
4.4702 -0.2897 1.8328
4.4793 -0.1291 1.8343
4.4830 0.0318 1.8360
4.4823 0.1928 1.8382
4.4741 0.3538 1.8397
4.4621 0.5146 1.8421
4.4415 0.6746 1.8433
4.4144 0.8337 1.8441
4.3815 0.9916 1.8449
4.3428 1.1483 1.8456
4.2987 1.3035 1.8464
4.3209 1.4817 1.8785
4.5520 1.7461 2.0058
4.4860 1.9083 2.0065
4.4138 2.0679 2.0070
4.3389 2.2263 2.0089
4.2540 2.3796 2.0087
4.1637 2.5296 2.0085
4.0681 2.6763 2.0083
3.9673 2.8194 2.0081
3.8615 2.9587 2.0078
3.7509 3.0941 2.0076
3.6355 3.2253 2.0073
3.5156 3.3524 2.0070
3.3912 3.4750 2.0067
3.2626 3.5930 2.0064
3.1299 3.7063 2.0061
2.9934 3.8147 2.0058
2.8530 3.9182 2.0055
2.7092 4.0165 2.0051
2.5620 4.1096 2.0048
2.4116 4.1974 2.0044
2.2582 4.2797 2.0041
0.8362 1.7331 0.7971
0.7731 1.7615 0.7970
0.7091 1.7877 0.7969
0.6442 1.8116 0.7968
0.5785 1.8332 0.7968
0.5121 1.8524 0.7967
0.4451 1.8693 0.7966
0.3775 1.8839 0.7966
0.3095 1.8960 0.7965
0.2411 1.9057 0.7965
0.1724 1.9130 0.7965
0.1034 1.9179 0.7965
0.0344 1.9203 0.7964
-0.0347 1.9203 0.7964
-0.1037 1.9179 0.7964
-0.1727 1.9130 0.7964
-0.2414 1.9058 0.7964
-0.3098 1.8960 0.7965
-0.3778 1.8839 0.7965
-0.4454 1.8694 0.7965
-0.5124 1.8525 0.7966
-0.5788 1.8333 0.7966
-0.6445 1.8117 0.7967
-0.7095 1.7878 0.7967
-0.7735 1.7617 0.7968
-2.0930 4.3363 1.9936
-2.2476 4.2584 1.9932
-2.3994 4.1750 1.9928
-2.5482 4.0863 1.9925
-2.6937 3.9925 1.9921
-2.8358 3.8935 1.9918
-2.9743 3.7895 1.9914
-3.1090 3.6806 1.9911
-3.2398 3.5671 1.9908
-3.3666 3.4489 1.9904
-3.4890 3.3264 1.9901
-3.6071 3.1995 1.9898
-3.7206 3.0685 1.9896
-3.8294 2.9335 1.9893
-3.9333 2.7947 1.9890
-4.0323 2.6523 1.9888
-4.1262 2.5064 1.9885
-4.2148 2.3573 1.9883
-4.2982 2.2050 1.9881
-4.3760 2.0499 1.9879
-4.4484 1.8920 1.9877
-4.5151 1.7316 1.9875
-4.5760 1.5689 1.9874
-4.6312 1.4041 1.9872
-4.6787 1.2369 1.9863
-4.7156 1.0671 1.9835
-4.7490 0.8967 1.9818
-4.7797 0.7259 1.9816
-4.8029 0.5538 1.9807
-4.8217 0.3812 1.9806
-4.8333 0.2079 1.9801
-4.8394 0.0343 1.9798
-4.8395 -0.1395 1.9797
-4.8336 -0.3132 1.9797
-4.8215 -0.4867 1.9797
-4.8032 -0.6597 1.9797
-4.7786 -0.8320 1.9797
-4.7479 -1.0034 1.9797
-4.7110 -1.1737 1.9797
-4.6680 -1.3425 1.9797
-4.6189 -1.5098 1.9797
-4.5637 -1.6752 1.9797
-4.5027 -1.8387 1.9797
-4.4357 -1.9998 1.9797
-4.3630 -2.1585 1.9797
-4.2845 -2.3146 1.9797
-4.2005 -2.4677 1.9797
-4.1109 -2.6178 1.9797
-4.0160 -2.7646 1.9797
-3.9157 -2.9079 1.9797
-3.8103 -3.0475 1.9797
-3.6999 -3.1833 1.9797
-3.5847 -3.3150 1.9797
-3.4647 -3.4425 1.9797
-3.3401 -3.5656 1.9797
-3.2111 -3.6842 1.9797
-3.0779 -3.7980 1.9797
-2.9406 -3.9070 1.9797
-2.7995 -4.0109 1.9797
-2.6546 -4.1097 1.9797
-2.5062 -4.2032 1.9797
-2.3545 -4.2913 1.9797
-2.1996 -4.3738 1.9797
-0.8328 -1.8153 0.8075
-0.7675 -1.8445 0.8076
-0.7011 -1.8713 0.8076
-0.6337 -1.8957 0.8077
-0.5655 -1.9176 0.8078
-0.4965 -1.9370 0.8079
-0.4269 -1.9539 0.8079
-0.3566 -1.9682 0.8080
-0.2859 -1.9799 0.8080
-0.2148 -1.9891 0.8081
-0.1434 -1.9956 0.8081
-0.0718 -1.9995 0.8081
-0.0002 -1.8771 0.8078
0.0671 -1.8758 0.8078
0.1342 -1.8721 0.8078
0.2012 -1.8660 0.8078
0.2679 -1.8574 0.8077
0.3342 -1.8464 0.8077
0.4001 -1.8330 0.8077
0.4655 -1.8171 0.8077
0.5302 -1.7990 0.8076
0.5941 -1.7784 0.8076
0.6573 -1.7556 0.8075
0.7196 -1.7304 0.8074
0.7809 -1.7030 0.8074
2.0628 -4.1038 1.9797
2.2081 -4.0263 1.9797
2.3504 -3.9436 1.9797
2.4895 -3.8559 1.9797
2.6254 -3.7632 1.9797
2.6994 -3.5880 1.9378
2.7136 -3.3499 1.8611
2.7797 -3.1905 1.8273
2.8914 -3.0878 1.8273
2.9997 -2.9817 1.8276
3.1041 -2.8717 1.8279
3.2044 -2.7580 1.8282
3.3005 -2.6408 1.8284
3.3922 -2.5201 1.8287
3.4795 -2.3963 1.8289
3.5622 -2.2693 1.8291
3.6403 -2.1395 1.8293
3.7136 -2.0070 1.8295
3.7820 -1.8719 1.8297
3.8454 -1.7345 1.8299
3.9038 -1.5949 1.8300
3.9570 -1.4533 1.8301
4.0050 -1.3099 1.8301
4.0477 -1.1648 1.8302
4.0851 -1.0184 1.8302
4.1170 -0.8708 1.8301
4.1436 -0.7221 1.8300
4.1650 -0.5727 1.8301
4.1816 -0.4227 1.8303
4.1936 -0.2723 1.8309
4.2012 -0.1216 1.8320
4.2032 0.0293 1.8330
4.2012 0.1802 1.8346
4.1931 0.3310 1.8359
4.1806 0.4816 1.8376
4.1616 0.6316 1.8389
4.1377 0.7809 1.8404
4.1073 0.9290 1.8413
4.0716 1.0761 1.8422
4.0699 1.2336 1.8611
4.2769 1.4661 1.9795
4.2674 1.6363 2.0018
4.2056 1.7885 2.0025
4.1382 1.9383 2.0031
4.0703 2.0879 2.0061
3.9951 2.2342 2.0081
3.9103 2.3752 2.0079
3.8206 2.5130 2.0077
3.7261 2.6474 2.0075
3.6269 2.7784 2.0072
3.5230 2.9056 2.0070
3.4148 3.0290 2.0067
3.3022 3.1484 2.0065
3.1855 3.2636 2.0062
3.0648 3.3745 2.0059
2.9402 3.4810 2.0056
2.8119 3.5830 2.0053
2.6802 3.6803 2.0050
2.5451 3.7727 2.0047
2.4069 3.8603 2.0044
2.2656 3.9429 2.0040
0.8444 1.6001 0.7975
0.7861 1.6290 0.7974
0.7268 1.6557 0.7973
0.6666 1.6804 0.7972
0.6056 1.7028 0.7972
0.5438 1.7232 0.7971
0.4814 1.7413 0.7970
0.4184 1.7572 0.7970
0.3549 1.7708 0.7969
0.2909 1.7822 0.7969
0.2266 1.7914 0.7968
0.1620 1.7983 0.7968
0.0972 1.8029 0.7968
0.0323 1.8052 0.7968
-0.0326 1.8052 0.7968
-0.0975 1.8029 0.7968
-0.1623 1.7983 0.7968
-0.2269 1.7914 0.7968
-0.2912 1.7823 0.7968
-0.3552 1.7709 0.7968
-0.4187 1.7573 0.7969
-0.4817 1.7414 0.7969
-0.5442 1.7233 0.7969
-0.6059 1.7030 0.7970
-0.6669 1.6805 0.7970
-0.7271 1.6559 0.7971
-0.7864 1.6291 0.7972
-2.1123 4.0014 1.9935
-2.2550 3.9231 1.9932
-2.3948 3.8398 1.9928
-2.5315 3.7515 1.9925
-2.6650 3.6585 1.9921
-2.7952 3.5607 1.9918
-2.9218 3.4584 1.9915
-3.0447 3.3517 1.9912
-3.1638 3.2406 1.9909
-3.2788 3.1254 1.9906
-3.3897 3.0061 1.9903
-3.4964 2.8830 1.9901
-3.5986 2.7561 1.9898
-3.6962 2.6257 1.9896
-3.7892 2.4918 1.9893
-3.8773 2.3547 1.9891
-3.9606 2.2145 1.9889
-4.0388 2.0714 1.9887
-4.1119 1.9256 1.9885
-4.1798 1.7772 1.9883
-4.2424 1.6265 1.9882
-4.2996 1.4736 1.9880
-4.3514 1.3187 1.9879
-4.3915 1.1604 1.9850
-4.4282 1.0015 1.9832
-4.4606 0.8417 1.9820
-4.4880 0.6810 1.9811
-4.5109 0.5196 1.9808
-4.5280 0.3574 1.9805
-4.5391 0.1947 1.9801
-4.5445 0.0317 1.9798
-4.5446 -0.1315 1.9797
-4.5389 -0.2947 1.9797
-4.5275 -0.4576 1.9797
-4.5101 -0.6200 1.9797
-4.4870 -0.7818 1.9797
-4.4580 -0.9427 1.9797
-4.4233 -1.1025 1.9797
-4.3828 -1.2610 1.9797
-4.3366 -1.4181 1.9797
-4.2847 -1.5734 1.9797
-4.2273 -1.7268 1.9797
-4.1643 -1.8780 1.9797
-4.0960 -2.0270 1.9797
-4.0222 -2.1734 1.9797
-3.9432 -2.3171 1.9797
-3.8591 -2.4580 1.9797
-3.7698 -2.5957 1.9797
-3.6757 -2.7302 1.9797
-3.5767 -2.8612 1.9797
-3.4730 -2.9886 1.9797
-3.3647 -3.1122 1.9797
-3.2520 -3.2318 1.9797
-3.1351 -3.3473 1.9797
-3.0140 -3.4585 1.9797
-2.8889 -3.5653 1.9797
-2.7600 -3.6675 1.9797
-2.6275 -3.7650 1.9797
-2.4914 -3.8577 1.9797
-2.3521 -3.9454 1.9797
-2.2097 -4.0280 1.9797
-0.8416 -1.6736 0.8070
-0.7813 -1.7032 0.8071
-0.7200 -1.7305 0.8072
-0.6577 -1.7557 0.8073
-0.5945 -1.7785 0.8074
-0.5305 -1.7990 0.8075
-0.4658 -1.8172 0.8075
-0.4004 -1.8330 0.8076
-0.3346 -1.8465 0.8076
-0.2682 -1.8574 0.8077
-0.2015 -1.8660 0.8077
-0.1345 -1.8721 0.8077
-0.0674 -1.8758 0.8078
-0.0002 -1.7657 0.8074
0.0631 -1.7645 0.8074
0.1263 -1.7611 0.8074
0.1892 -1.7553 0.8074
0.2520 -1.7472 0.8074
0.3144 -1.7369 0.8074
0.3763 -1.7243 0.8074
0.4378 -1.7094 0.8073
0.4986 -1.6923 0.8073
0.5588 -1.6730 0.8072
0.6183 -1.6515 0.8072
0.6769 -1.6279 0.8071
0.7346 -1.6022 0.8071
0.7912 -1.5743 0.8070
2.0778 -3.7894 1.9797
2.2117 -3.7116 1.9797
2.3427 -3.6291 1.9797
2.4706 -3.5419 1.9797
2.5953 -3.4501 1.9797
2.6946 -3.3270 1.9638
2.7080 -3.1087 1.8916
2.7278 -2.9136 1.8318
2.8226 -2.8062 1.8273
2.9206 -2.7025 1.8274
3.0150 -2.5955 1.8277
3.1054 -2.4852 1.8279
3.1918 -2.3717 1.8281
3.2740 -2.2552 1.8283
3.3518 -2.1358 1.8286
3.4253 -2.0137 1.8287
3.4943 -1.8890 1.8289
3.5587 -1.7620 1.8291
3.6185 -1.6326 1.8292
3.6734 -1.5013 1.8293
3.7236 -1.3681 1.8294
3.7688 -1.2331 1.8295
3.8090 -1.0967 1.8295
3.8443 -0.9589 1.8295
3.8745 -0.8200 1.8295
3.8996 -0.6801 1.8294
3.9196 -0.5394 1.8293
3.9350 -0.3983 1.8294
3.9457 -0.2567 1.8298
3.9519 -0.1149 1.8303
3.9536 0.0270 1.8312
3.9504 0.1690 1.8321
3.9425 0.3108 1.8333
3.9296 0.4522 1.8344
3.9115 0.5931 1.8355
3.8886 0.7334 1.8367
3.8607 0.8728 1.8379
3.8613 1.0200 1.8553
4.0323 1.2217 1.9580
4.0644 1.3927 1.9975
4.0118 1.5378 1.9983
3.9540 1.6810 1.9991
3.8929 1.8228 2.0008
3.8285 1.9634 2.0035
3.7592 2.1018 2.0062
3.6819 2.2359 2.0073
3.5975 2.3657 2.0071
3.5086 2.4924 2.0069
3.4152 2.6157 2.0067
3.3175 2.7356 2.0065
3.2156 2.8518 2.0062
3.1097 2.9643 2.0060
2.9999 3.0729 2.0057
2.8862 3.1774 2.0055
2.7690 3.2778 2.0052
2.6483 3.3739 2.0049
2.5242 3.4656 2.0046
2.3971 3.5528 2.0043
2.2669 3.6353 2.0040
2.1339 3.7132 2.0037
0.7957 1.5077 0.7978
0.7408 1.5349 0.7977
0.6849 1.5601 0.7976
0.6282 1.5834 0.7975
0.5707 1.6046 0.7975
0.5125 1.6237 0.7974
0.4537 1.6408 0.7973
0.3943 1.6558 0.7973
0.3345 1.6687 0.7972
0.2742 1.6795 0.7972
0.2136 1.6881 0.7972
0.1527 1.6946 0.7971
0.0916 1.6989 0.7971
0.0305 1.7011 0.7971
-0.0308 1.7011 0.7971
-0.0919 1.6989 0.7971
-0.1530 1.6946 0.7971
-0.2139 1.6881 0.7971
-0.2745 1.6795 0.7971
-0.3348 1.6688 0.7971
-0.3946 1.6559 0.7972
-0.4540 1.6409 0.7972
-0.5128 1.6238 0.7972
-0.5710 1.6047 0.7973
-0.6285 1.5835 0.7973
-0.6853 1.5603 0.7974
-0.7411 1.5350 0.7975
-0.7961 1.5078 0.7975
-2.1246 3.6956 1.9935
-2.2563 3.6171 1.9931
-2.3851 3.5339 1.9928
-2.5109 3.4463 1.9925
-2.6335 3.3542 1.9922
-2.7528 3.2578 1.9919
-2.8685 3.1572 1.9916
-2.9807 3.0525 1.9913
-3.0891 2.9439 1.9911
-3.1935 2.8316 1.9908
-3.2939 2.7155 1.9906
-3.3902 2.5960 1.9903
-3.4821 2.4731 1.9901
-3.5697 2.3469 1.9899
-3.6527 2.2177 1.9896
-3.7311 2.0856 1.9894
-3.8047 1.9508 1.9893
-3.8735 1.8134 1.9891
-3.9374 1.6736 1.9889
-3.9963 1.5316 1.9888
-4.0502 1.3875 1.9886
-4.0950 1.2405 1.9866
-4.1338 1.0918 1.9843
-4.1680 0.9421 1.9823
-4.2004 0.7921 1.9821
-4.2256 0.6407 1.9810
-4.2476 0.4887 1.9809
-4.2628 0.3360 1.9803
-4.2738 0.1828 1.9802
-4.2787 0.0293 1.9798
-4.2787 -0.1244 1.9797
-4.2732 -0.2780 1.9797
-4.2624 -0.4313 1.9797
-4.2460 -0.5843 1.9797
-4.2241 -0.7365 1.9797
-4.1967 -0.8880 1.9797
-4.1639 -1.0384 1.9797
-4.1257 -1.1876 1.9797
-4.0821 -1.3354 1.9797
-4.0332 -1.4815 1.9797
-3.9791 -1.6259 1.9797
-3.9198 -1.7682 1.9797
-3.8553 -1.9084 1.9797
-3.7858 -2.0462 1.9797
-3.7114 -2.1814 1.9797
-3.6321 -2.3140 1.9797
-3.5481 -2.4435 1.9797
-3.4594 -2.5700 1.9797
-3.3662 -2.6933 1.9797
-3.2685 -2.8131 1.9797
-3.1666 -2.9294 1.9797
-3.0605 -3.0420 1.9797
-2.9504 -3.1506 1.9797
-2.8364 -3.2552 1.9797
-2.7186 -3.3557 1.9797
-2.5973 -3.4518 1.9797
-2.4725 -3.5435 1.9797
-2.3445 -3.6307 1.9797
-2.2134 -3.7132 1.9797
-2.0794 -3.7908 1.9797
-0.7916 -1.5745 0.8067
-0.7349 -1.6023 0.8068
-0.6772 -1.6280 0.8069
-0.6186 -1.6516 0.8070
-0.5592 -1.6731 0.8071
-0.4990 -1.6924 0.8071
-0.4381 -1.7095 0.8072
-0.3766 -1.7243 0.8073
-0.3147 -1.7369 0.8073
-0.2523 -1.7473 0.8073
-0.1895 -1.7553 0.8074
-0.1266 -1.7611 0.8074
-0.0634 -1.7645 0.8074
-0.0002 -1.6648 0.8071
0.0595 -1.6637 0.8071
0.1190 -1.6605 0.8071
0.1784 -1.6550 0.8071
0.2375 -1.6474 0.8071
0.2964 -1.6377 0.8071
0.3548 -1.6258 0.8071
0.4127 -1.6118 0.8070
0.4701 -1.5957 0.8070
0.5269 -1.5775 0.8069
0.5829 -1.5573 0.8069
0.6382 -1.5350 0.8068
0.6926 -1.5108 0.8068
0.7460 -1.4846 0.8067
0.7985 -1.4565 0.8066
2.0861 -3.5013 1.9797
2.2097 -3.4235 1.9797
2.3304 -3.3413 1.9797
2.4480 -3.2549 1.9797
2.5623 -3.1642 1.9797
2.6733 -3.0694 1.9797
2.7020 -2.8867 1.9237
2.7134 -2.6981 1.8622
2.7548 -2.5496 1.8273
2.8435 -2.4484 1.8273
2.9287 -2.3443 1.8274
3.0102 -2.2373 1.8276
3.0877 -2.1274 1.8278
3.1612 -2.0148 1.8280
3.2305 -1.8997 1.8282
3.2956 -1.7821 1.8284
3.3564 -1.6623 1.8285
3.4128 -1.5403 1.8287
3.4647 -1.4164 1.8288
3.5120 -1.2908 1.8288
3.5547 -1.1636 1.8289
3.5927 -1.0349 1.8289
3.6261 -0.9049 1.8289
3.6546 -0.7739 1.8289
3.6784 -0.6420 1.8288
3.6974 -0.5093 1.8287
3.7117 -0.3762 1.8287
3.7215 -0.2426 1.8289
3.7270 -0.1088 1.8292
3.7280 0.0250 1.8297
3.7245 0.1588 1.8304
3.7165 0.2925 1.8312
3.7037 0.4257 1.8320
3.6936 0.5596 1.8365
3.6650 0.6907 1.8342
3.6954 0.8349 1.8640
3.8284 1.0108 1.9489
3.8749 1.1735 1.9936
3.8305 1.3120 1.9946
3.7810 1.4488 1.9954
3.7270 1.5839 1.9964
3.6707 1.7183 1.9988
3.6097 1.8506 2.0012
3.5440 1.9809 2.0038
3.4737 2.1090 2.0063
3.3951 2.2321 2.0066
3.3112 2.3516 2.0064
3.2232 2.4681 2.0062
3.1310 2.5813 2.0060
3.0349 2.6910 2.0058
2.9350 2.7973 2.0056
2.8314 2.8998 2.0053
2.7242 2.9986 2.0051
2.6136 3.0934 2.0048
2.4997 3.1841 2.0045
2.3827 3.2708 2.0043
2.2627 3.3531 2.0040
2.1398 3.4311 2.0037
0.8025 1.3962 0.7981
0.7515 1.4237 0.7980
0.6996 1.4494 0.7979
0.6469 1.4733 0.7979
0.5933 1.4952 0.7978
0.5390 1.5153 0.7977
0.4841 1.5334 0.7977
0.4285 1.5495 0.7976
0.3724 1.5637 0.7975
0.3159 1.5759 0.7975
0.2590 1.5861 0.7975
0.2017 1.5942 0.7974
0.1442 1.6004 0.7974
0.0865 1.6044 0.7974
0.0288 1.6065 0.7974
-0.0291 1.6065 0.7974
-0.0868 1.6045 0.7974
-0.1445 1.6004 0.7974
-0.2020 1.5943 0.7974
-0.2593 1.5861 0.7974
-0.3162 1.5759 0.7974
-0.3727 1.5638 0.7974
-0.4288 1.5496 0.7975
-0.4844 1.5335 0.7975
-0.5393 1.5154 0.7976
-0.5936 1.4953 0.7976
-0.6472 1.4734 0.7977
-0.7000 1.4495 0.7977
-0.7519 1.4238 0.7978
-0.8028 1.3963 0.7979
-2.1304 3.4148 1.9934
-2.2521 3.3363 1.9931
-2.3708 3.2535 1.9928
-2.4866 3.1665 1.9925
-2.5992 3.0755 1.9923
-2.7085 2.9805 1.9920
-2.8144 2.8817 1.9917
-2.9167 2.7791 1.9915
-3.0153 2.6730 1.9912
-3.1101 2.5634 1.9910
-3.2009 2.4505 1.9908
-3.2877 2.3345 1.9905
-3.3703 2.2153 1.9903
-3.4487 2.0933 1.9901
-3.5226 1.9686 1.9899
-3.5921 1.8413 1.9898
-3.6570 1.7115 1.9896
-3.7173 1.5795 1.9894
-3.7729 1.4454 1.9893
-3.8215 1.3087 1.9880
-3.8625 1.1695 1.9854
-3.9005 1.0297 1.9838
-3.9337 0.8886 1.9824
-3.9642 0.7470 1.9821
-3.9880 0.6041 1.9811
-4.0086 0.4607 1.9810
-4.0228 0.3165 1.9803
-4.0332 0.1720 1.9802
-4.0376 0.0271 1.9798
-4.0375 -0.1179 1.9797
-4.0323 -0.2628 1.9797
-4.0219 -0.4075 1.9797
-4.0064 -0.5518 1.9797
-3.9856 -0.6955 1.9797
-3.9597 -0.8384 1.9797
-3.9287 -0.9803 1.9797
-3.8926 -1.1210 1.9797
-3.8514 -1.2604 1.9797
-3.8052 -1.3983 1.9797
-3.7540 -1.5344 1.9797
-3.6980 -1.6687 1.9797
-3.6371 -1.8009 1.9797
-3.5715 -1.9309 1.9797
-3.5012 -2.0584 1.9797
-3.4264 -2.1834 1.9797
-3.3471 -2.3056 1.9797
-3.2634 -2.4249 1.9797
-3.1754 -2.5411 1.9797
-3.0832 -2.6542 1.9797
-2.9870 -2.7638 1.9797
-2.8869 -2.8699 1.9797
-2.7830 -2.9723 1.9797
-2.6754 -3.0710 1.9797
-2.5643 -3.1657 1.9797
-2.4498 -3.2563 1.9797
-2.3321 -3.3428 1.9797
-2.2114 -3.4250 1.9797
-2.0877 -3.5027 1.9797
-0.7989 -1.4566 0.8064
-0.7464 -1.4847 0.8065
-0.6929 -1.5109 0.8066
-0.6385 -1.5352 0.8067
-0.5833 -1.5574 0.8067
-0.5272 -1.5776 0.8068
-0.4704 -1.5958 0.8069
-0.4131 -1.6119 0.8069
-0.3551 -1.6259 0.8070
-0.2967 -1.6377 0.8070
-0.2379 -1.6475 0.8070
-0.1787 -1.6551 0.8071
-0.1193 -1.6605 0.8071
-0.0598 -1.6637 0.8071
-0.0002 -1.5730 0.8069
0.0562 -1.5720 0.8069
0.1124 -1.5689 0.8069
0.1685 -1.5638 0.8069
0.2244 -1.5566 0.8068
0.2800 -1.5474 0.8068
0.3352 -1.5362 0.8068
0.3899 -1.5230 0.8068
0.4441 -1.5078 0.8067
0.4978 -1.4906 0.8067
0.5507 -1.4715 0.8066
0.6029 -1.4505 0.8066
0.6543 -1.4276 0.8065
0.7049 -1.4029 0.8065
0.7544 -1.3763 0.8064
0.8030 -1.3480 0.8063
2.0884 -3.2362 1.9797
2.2025 -3.1585 1.9797
2.3137 -3.0768 1.9797
2.4218 -2.9912 1.9797
2.5267 -2.9017 1.9797
2.6283 -2.8085 1.9797
2.6958 -2.6811 1.9574
2.7065 -2.5054 1.8993
2.7163 -2.3393 1.8467
2.7681 -2.2162 1.8273
2.8448 -2.1149 1.8273
2.9180 -2.0109 1.8274
2.9875 -1.9046 1.8276
3.0530 -1.7958 1.8277
3.1146 -1.6847 1.8279
3.1720 -1.5714 1.8280
3.2254 -1.4562 1.8281
3.2744 -1.3391 1.8282
3.3192 -1.2204 1.8283
3.3596 -1.1002 1.8283
3.3956 -0.9786 1.8284
3.4272 -0.8558 1.8284
3.4542 -0.7319 1.8283
3.4768 -0.6073 1.8283
3.4948 -0.4819 1.8282
3.5082 -0.3560 1.8281
3.5175 -0.2298 1.8282
3.5222 -0.1033 1.8283
3.5230 0.0232 1.8287
3.5194 0.1496 1.8292
3.5113 0.2759 1.8297
3.4995 0.4018 1.8306
3.4858 0.5277 1.8329
3.5636 0.6711 1.8860
3.6682 0.8283 1.9566
3.6963 0.9754 1.9898
3.6594 1.1077 1.9909
3.6176 1.2386 1.9918
3.5709 1.3678 1.9927
3.5218 1.4962 1.9947
3.4684 1.6231 1.9970
3.4105 1.7480 1.9992
3.3481 1.8710 2.0015
3.2815 1.9918 2.0039
3.2103 2.1101 2.0062
3.1311 2.2233 2.0060
3.0479 2.3334 2.0058
2.9609 2.4405 2.0056
2.8700 2.5444 2.0054
2.7756 2.6449 2.0052
2.6777 2.7419 2.0049
2.5763 2.8353 2.0047
2.4718 2.9251 2.0045
2.3641 3.0110 2.0042
2.2535 3.0929 2.0039
2.1400 3.1709 2.0037
0.8066 1.2931 0.7984
0.7593 1.3209 0.7983
0.7111 1.3469 0.7982
0.6620 1.3713 0.7982
0.6121 1.3939 0.7981
0.5614 1.4147 0.7980
0.5100 1.4337 0.7980
0.4581 1.4508 0.7979
0.4055 1.4661 0.7978
0.3524 1.4795 0.7978
0.2989 1.4911 0.7978
0.2450 1.5007 0.7977
0.1909 1.5084 0.7977
0.1365 1.5142 0.7977
0.0819 1.5181 0.7976
0.0272 1.5201 0.7976
-0.0275 1.5201 0.7976
-0.0822 1.5181 0.7976
-0.1368 1.5143 0.7976
-0.1912 1.5085 0.7976
-0.2453 1.5007 0.7976
-0.2992 1.4911 0.7977
-0.3527 1.4796 0.7977
-0.4058 1.4662 0.7977
-0.4584 1.4509 0.7978
-0.5104 1.4337 0.7978
-0.5617 1.4148 0.7979
-0.6124 1.3940 0.7979
-0.6623 1.3714 0.7980
-0.7114 1.3471 0.7980
-0.7597 1.3210 0.7981
-0.8069 1.2932 0.7982
-2.1306 3.1558 1.9934
-2.2430 3.0775 1.9931
-2.3525 2.9952 1.9928
-2.4590 2.9091 1.9926
-2.5624 2.8192 1.9923
-2.6626 2.7257 1.9921
-2.7593 2.6286 1.9918
-2.8526 2.5282 1.9916
-2.9422 2.4245 1.9914
-3.0281 2.3177 1.9912
-3.1102 2.2079 1.9909
-3.1883 2.0952 1.9908
-3.2624 1.9798 1.9906
-3.3323 1.8617 1.9904
-3.3980 1.7413 1.9902
-3.4594 1.6185 1.9901
-3.5164 1.4936 1.9899
-3.5680 1.3664 1.9893
-3.6115 1.2363 1.9867
-3.6516 1.1052 1.9849
-3.6868 0.9727 1.9830
-3.7200 0.8399 1.9825
-3.7475 0.7057 1.9816
-3.7712 0.5708 1.9812
-3.7906 0.4352 1.9811
-3.8038 0.2988 1.9803
-3.8136 0.1621 1.9803
-3.8177 0.0251 1.9798
-3.8174 -0.1120 1.9797
-3.8125 -0.2490 1.9797
-3.8026 -0.3858 1.9797
-3.7878 -0.5222 1.9797
-3.7681 -0.6580 1.9797
-3.7436 -0.7931 1.9797
-3.7142 -0.9273 1.9797
-3.6800 -1.0603 1.9797
-3.6410 -1.1921 1.9797
-3.5972 -1.3224 1.9797
-3.5488 -1.4511 1.9797
-3.4958 -1.5780 1.9797
-3.4382 -1.7029 1.9797
-3.3761 -1.8257 1.9797
-3.3096 -1.9463 1.9797
-3.2388 -2.0644 1.9797
-3.1638 -2.1799 1.9797
-3.0846 -2.2926 1.9797
-3.0014 -2.4024 1.9797
-2.9143 -2.5092 1.9797
-2.8233 -2.6128 1.9797
-2.7286 -2.7131 1.9797
-2.6304 -2.8098 1.9797
-2.5287 -2.9030 1.9797
-2.4236 -2.9925 1.9797
-2.3154 -3.0782 1.9797
-2.2042 -3.1598 1.9797
-2.0900 -3.2375 1.9797
-0.8034 -1.3481 0.8061
-0.7548 -1.3764 0.8062
-0.7052 -1.4030 0.8062
-0.6547 -1.4277 0.8063
-0.6033 -1.4506 0.8064
-0.5510 -1.4716 0.8065
-0.4981 -1.4907 0.8065
-0.4445 -1.5078 0.8066
-0.3902 -1.5230 0.8067
-0.3355 -1.5362 0.8067
-0.2803 -1.5475 0.8067
-0.2247 -1.5566 0.8068
-0.1688 -1.5638 0.8068
-0.1127 -1.5689 0.8068
-0.0565 -1.5720 0.8068
-0.0002 -1.4890 0.8066
0.0532 -1.4880 0.8066
0.1064 -1.4851 0.8066
0.1595 -1.4802 0.8066
0.2124 -1.4735 0.8066
0.2650 -1.4648 0.8066
0.3172 -1.4541 0.8065
0.3690 -1.4416 0.8065
0.4204 -1.4273 0.8065
0.4711 -1.4110 0.8064
0.5212 -1.3930 0.8064
0.5707 -1.3731 0.8063
0.6193 -1.3515 0.8063
0.6672 -1.3281 0.8062
0.7141 -1.3029 0.8062
0.7601 -1.2761 0.8061
0.8051 -1.2477 0.8060
2.0854 -2.9911 1.9797
2.1907 -2.9138 1.9797
2.2931 -2.8327 1.9797
2.3925 -2.7480 1.9797
2.4887 -2.6598 1.9797
2.5817 -2.5681 1.9797
2.6713 -2.4732 1.9797
2.6994 -2.3253 1.9381
2.7086 -2.1690 1.8882
2.7170 -2.0203 1.8430
2.7630 -1.9046 1.8273
2.8286 -1.8037 1.8273
2.8904 -1.7006 1.8273
2.9487 -1.5954 1.8274
3.0032 -1.4882 1.8276
3.0537 -1.3792 1.8277
3.1002 -1.2683 1.8277
3.1426 -1.1559 1.8278
3.1809 -1.0421 1.8278
3.2150 -0.9270 1.8279
3.2450 -0.8107 1.8279
3.2707 -0.6935 1.8278
3.2921 -0.5755 1.8278
3.3092 -0.4567 1.8277
3.3220 -0.3375 1.8276
3.3306 -0.2180 1.8276
3.3352 -0.0983 1.8277
3.3354 0.0215 1.8278
3.3323 0.1412 1.8284
3.3247 0.2608 1.8290
3.3720 0.3867 1.8621
3.4501 0.5218 1.9151
3.5383 0.6659 1.9768
3.5282 0.7962 1.9867
3.4977 0.9225 1.9876
3.4626 1.0477 1.9885
3.4230 1.1715 1.9894
3.3803 1.2943 1.9911
3.3340 1.4160 1.9932
3.2832 1.5359 1.9953
3.2282 1.6541 1.9974
3.1689 1.7704 1.9995
3.1056 1.8845 2.0017
3.0382 1.9965 2.0039
2.9660 2.1055 2.0056
2.8872 2.2099 2.0054
2.8048 2.3114 2.0052
2.7188 2.4098 2.0050
2.6294 2.5051 2.0048
2.5367 2.5971 2.0046
2.4407 2.6856 2.0044
2.3417 2.7707 2.0041
2.2397 2.8521 2.0039
2.1350 2.9298 2.0036
0.8083 1.1975 0.7987
0.7645 1.2254 0.7986
0.7197 1.2518 0.7985
0.6740 1.2765 0.7984
0.6275 1.2996 0.7984
0.5802 1.3210 0.7983
0.5321 1.3407 0.7982
0.4835 1.3587 0.7982
0.4342 1.3750 0.7981
0.3843 1.3895 0.7981
0.3341 1.4023 0.7980
0.2833 1.4132 0.7980
0.2323 1.4223 0.7979
0.1809 1.4297 0.7979
0.1294 1.4352 0.7979
0.0776 1.4388 0.7979
0.0258 1.4407 0.7979
-0.0261 1.4407 0.7979
-0.0779 1.4389 0.7979
-0.1296 1.4352 0.7979
-0.1812 1.4297 0.7979
-0.2326 1.4224 0.7979
-0.2836 1.4132 0.7979
-0.3344 1.4023 0.7979
-0.3847 1.3896 0.7980
-0.4345 1.3751 0.7980
-0.4838 1.3588 0.7980
-0.5325 1.3408 0.7981
-0.5805 1.3211 0.7981
-0.6278 1.2997 0.7982
-0.6743 1.2766 0.7983
-0.7200 1.2519 0.7983
-0.7648 1.2255 0.7984
-0.8087 1.1976 0.7985
-2.1256 2.9160 1.9934
-2.2294 2.8380 1.9931
-2.3303 2.7563 1.9929
-2.4283 2.6711 1.9926
-2.5232 2.5825 1.9924
-2.6148 2.4905 1.9922
-2.7032 2.3953 1.9919
-2.7881 2.2971 1.9917
-2.8695 2.1958 1.9915
-2.9473 2.0917 1.9913
-3.0213 1.9849 1.9911
-3.0914 1.8755 1.9910
-3.1577 1.7637 1.9908
-3.2199 1.6495 1.9906
-3.2780 1.5332 1.9905
-3.3319 1.4148 1.9903
-3.3777 1.2931 1.9879
-3.4194 1.1700 1.9856
-3.4582 1.0461 1.9843
-3.4922 0.9209 1.9828
-3.5241 0.7951 1.9826
-3.5494 0.6679 1.9813
-3.5724 0.5402 1.9812
-3.5903 0.4117 1.9809
-3.6031 0.2826 1.9804
-3.6123 0.1531 1.9803
-3.6161 0.0233 1.9799
-3.6158 -0.1065 1.9797
-3.6110 -0.2363 1.9797
-3.6016 -0.3659 1.9797
-3.5875 -0.4951 1.9797
-3.5688 -0.6237 1.9797
