ply
format ascii 1.0
element vertex 2176
property float32 x
property float32 y
property float32 z
end_header
3.2403 8.1840 2.0688
2.9444 8.2951 2.0688
2.6448 8.3954 2.0688
2.3417 8.4850 2.0688
2.0356 8.5636 2.0688
1.7269 8.6311 2.0688
1.4160 8.6876 2.0688
1.1032 8.7327 2.0688
0.7890 8.7666 2.0688
0.4738 8.7891 2.0687
0.1580 8.8004 2.0687
-0.1580 8.8002 2.0687
-0.4738 8.7888 2.0687
-0.7889 8.7660 2.0686
-1.1031 8.7319 2.0686
-1.4158 8.6866 2.0686
-1.7267 8.6300 2.0685
-2.0353 8.5624 2.0685
-2.3414 8.4837 2.0685
-2.6443 8.3940 2.0685
-2.9439 8.2936 2.0684
-3.2397 8.1825 2.0684
-3.5313 8.0609 2.0684
-3.8184 7.9290 2.0684
-4.1006 7.7868 2.0684
-4.3774 7.6346 2.0684
-4.6487 7.4725 2.0684
-4.9139 7.3009 2.0684
-5.1728 7.1198 2.0684
-5.4251 6.9295 2.0684
-5.6703 6.7303 2.0684
-5.9083 6.5224 2.0684
-6.1386 6.3061 2.0684
-6.3610 6.0817 2.0684
-6.5752 5.8495 2.0684
-6.7810 5.6097 2.0684
-6.9780 5.3627 2.0684
-7.1660 5.1087 2.0684
-7.3448 4.8482 2.0684
-7.5141 4.5814 2.0684
-7.6737 4.3088 2.0684
-7.8234 4.0305 2.0684
-7.9631 3.7471 2.0684
-8.0925 3.4589 2.0684
-8.2114 3.1661 2.0684
-8.3198 2.8693 2.0684
-8.4175 2.5689 2.0684
-8.5043 2.2650 2.0684
-8.5801 1.9583 2.0684
-8.6449 1.6490 2.0684
-8.6985 1.3377 2.0684
-8.7409 1.0246 2.0684
-8.7721 0.7101 2.0684
-8.7920 0.3948 2.0684
-8.8005 0.0789 2.0684
-8.7977 -0.2370 2.0684
-8.7835 -0.5526 2.0684
-8.7580 -0.8676 2.0684
-8.7212 -1.1814 2.0684
-8.6732 -1.4938 2.0684
-8.6140 -1.8041 2.0684
-8.5437 -2.1122 2.0684
-8.4624 -2.4175 2.0684
-8.3702 -2.7197 2.0684
-8.2672 -3.0184 2.0684
-8.1535 -3.3132 2.0684
-8.0294 -3.6038 2.0684
-7.8948 -3.8897 2.0684
-7.7501 -4.1706 2.0684
-7.5954 -4.4461 2.0684
-7.4310 -4.7159 2.0684
-7.2569 -4.9796 2.0684
-7.0735 -5.2369 2.0684
-6.8810 -5.4874 2.0684
-6.6795 -5.7309 2.0684
-6.4695 -5.9670 2.0684
-6.2512 -6.1954 2.0684
-6.0248 -6.4158 2.0684
-5.7906 -6.6279 2.0684
-5.5490 -6.8315 2.0684
-5.3002 -7.0263 2.0684
-5.0445 -7.2120 2.0684
-4.7824 -7.3885 2.0684
-4.5141 -7.5554 2.0684
-4.2400 -7.7126 2.0684
-3.9604 -7.8598 2.0684
-3.6757 -7.9969 2.0684
-3.3863 -8.1237 2.0684
-3.0925 -8.2400 2.0684
-2.7947 -8.3458 2.0684
-2.4934 -8.4407 2.0684
-2.1888 -8.5248 2.0684
-1.8814 -8.5979 2.0684
-1.5715 -8.6598 2.0684
-1.2597 -8.7107 2.0684
-0.9462 -8.7503 2.0684
-0.6314 -8.7786 2.0684
-0.3159 -8.7956 2.0684
0.0000 -7.9890 2.0684
0.2868 -7.9839 2.0684
0.5732 -7.9684 2.0684
0.8589 -7.9427 2.0684
1.1434 -7.9068 2.0684
1.4265 -7.8606 2.0684
1.7077 -7.8044 2.0684
1.9868 -7.7381 2.0684
2.2633 -7.6617 2.0684
2.5368 -7.5755 2.0684
2.8071 -7.4796 2.0684
3.0738 -7.3740 2.0684
3.3365 -7.2589 2.0684
3.5949 -7.1345 2.0684
3.8487 -7.0008 2.0684
4.0975 -6.8582 2.0684
4.3411 -6.7067 2.0684
4.5790 -6.5465 2.0684
4.7007 -6.2316 2.0210
4.7163 -5.8064 1.9368
4.8690 -5.5730 1.9160
5.0659 -5.3946 1.9160
5.2562 -5.2093 1.9160
5.4399 -5.0173 1.9160
5.6164 -4.8188 1.9160
5.7858 -4.6140 1.9160
5.9477 -4.4034 1.9160
6.1019 -4.1870 1.9160
6.2483 -3.9653 1.9160
6.3866 -3.7385 1.9160
6.5166 -3.5068 1.9160
6.6383 -3.2706 1.9160
6.7514 -3.0302 1.9160
6.8476 -2.7825 1.9137
6.8505 -2.5012 1.8882
6.8534 -2.2268 1.8658
6.8563 -1.9586 1.8462
6.8591 -1.6956 1.8294
6.8618 -1.4371 1.8152
6.8153 -1.1737 1.7905
6.8530 -0.9283 1.7905
6.8819 -0.6817 1.7905
6.3378 -0.3988 1.6442
6.4728 -0.1744 1.6765
6.9153 0.0621 1.7905
7.3977 0.3322 1.9173
7.3746 0.5970 1.9157
7.3392 0.8603 1.9133
7.2933 1.1216 1.9106
7.2406 1.3812 1.9085
7.1804 1.6389 1.9069
7.6256 2.0310 2.0433
7.5448 2.3025 2.0424
7.4616 2.5734 2.0436
7.3731 2.8429 2.0460
7.2741 3.1091 2.0482
7.1638 3.3710 2.0499
7.0410 3.6274 2.0508
6.9045 3.8769 2.0503
6.7512 4.1163 2.0473
6.6082 4.3620 2.0502
6.4624 4.6072 2.0550
6.3083 4.8480 2.0600
6.1460 5.0844 2.0653
5.9735 5.3141 2.0701
5.7793 5.5256 2.0703
5.5779 5.7301 2.0705
5.3670 5.9249 2.0699
5.1503 6.1130 2.0697
4.9261 6.2922 2.0691
4.6966 6.4643 2.0689
4.4611 6.6281 2.0687
4.2203 6.7840 2.0687
3.9741 6.9311 2.0687
3.7228 7.0693 2.0687
3.4666 7.1985 2.0687
3.2060 7.3183 2.0688
2.9412 7.4286 2.0688
2.6727 7.5294 2.0688
2.4007 7.6206 2.0688
2.1256 7.7018 2.0688
1.8478 7.7732 2.0688
1.5675 7.8345 2.0688
1.2853 7.8858 2.0688
1.0014 7.9268 2.0688
0.7162 7.9575 2.0688
0.4301 7.9780 2.0687
0.1434 7.9882 2.0687
-0.1434 7.9881 2.0687
-0.4301 7.9777 2.0687
-0.7161 7.9570 2.0686
-1.0013 7.9260 2.0686
-1.2851 7.8849 2.0686
-1.5673 7.8336 2.0686
-1.8475 7.7722 2.0685
-2.1253 7.7008 2.0685
-2.4003 7.6194 2.0685
-2.6722 7.5283 2.0685
-2.9407 7.4274 2.0684
-3.2054 7.3170 2.0684
-3.4660 7.1972 2.0684
-3.7221 7.0682 2.0684
-3.9735 6.9300 2.0684
-4.2197 6.7829 2.0684
-4.4604 6.6271 2.0684
-4.6955 6.4627 2.0684
-4.9244 6.2900 2.0684
-5.1471 6.1092 2.0684
-5.3630 5.9205 2.0684
-5.5721 5.7242 2.0684
-5.7740 5.5205 2.0684
-5.9684 5.3097 2.0684
-6.1552 5.0920 2.0684
-6.3340 4.8678 2.0684
-6.5047 4.6373 2.0684
-6.6670 4.4008 2.0684
-6.8206 4.1586 2.0684
-6.9655 3.9111 2.0684
-7.1015 3.6586 2.0684
-7.2282 3.4013 2.0684
-7.3457 3.1396 2.0684
-7.4536 2.8739 2.0684
-7.5520 2.6045 2.0684
-7.6406 2.3318 2.0684
-7.7194 2.0560 2.0684
-7.7883 1.7776 2.0684
-7.8471 1.4969 2.0684
-7.8958 1.2142 2.0684
-7.9343 0.9300 2.0684
-7.9626 0.6446 2.0684
-7.9806 0.3584 2.0684
-7.9883 0.0717 2.0684
-7.9857 -0.2151 2.0684
-7.9729 -0.5017 2.0684
-7.9498 -0.7875 2.0684
-7.9164 -1.0724 2.0684
-7.8728 -1.3559 2.0684
-7.8191 -1.6376 2.0684
-7.7552 -1.9172 2.0684
-7.6814 -2.1944 2.0684
-7.5977 -2.4687 2.0684
-7.5042 -2.7398 2.0684
-7.4011 -3.0074 2.0684
-7.2883 -3.2712 2.0684
-7.1662 -3.5307 2.0684
-7.0349 -3.7857 2.0684
-6.8945 -4.0358 2.0684
-6.7452 -4.2807 2.0684
-6.5872 -4.5200 2.0684
-6.4207 -4.7536 2.0684
-6.2459 -4.9810 2.0684
-6.0631 -5.2020 2.0684
-5.8725 -5.4163 2.0684
-5.6743 -5.6236 2.0684
-5.4688 -5.8237 2.0684
-5.2562 -6.0162 2.0684
-5.0368 -6.2011 2.0684
-4.8110 -6.3779 2.0684
-4.5790 -6.5465 2.0684
-4.3410 -6.7066 2.0684
-4.0975 -6.8581 2.0684
-3.8487 -7.0008 2.0684
-3.5949 -7.1344 2.0684
-3.3365 -7.2589 2.0684
-3.0738 -7.3740 2.0684
-2.8071 -7.4796 2.0684
-2.5368 -7.5755 2.0684
-2.2633 -7.6617 2.0684
-1.9868 -7.7380 2.0684
-1.7077 -7.8044 2.0684
-1.4265 -7.8606 2.0684
-1.1434 -7.9068 2.0684
-0.8588 -7.9427 2.0684
-0.5732 -7.9684 2.0684
-0.2868 -7.9839 2.0684
0.0000 -7.3068 2.0684
0.2623 -7.3021 2.0684
0.5242 -7.2879 2.0684
0.7855 -7.2644 2.0684
1.0458 -7.2316 2.0684
1.3047 -7.1894 2.0684
1.5619 -7.1379 2.0684
1.8171 -7.0772 2.0684
2.0700 -7.0074 2.0684
2.3202 -6.9286 2.0684
2.5674 -6.8408 2.0684
2.8113 -6.7443 2.0684
3.0516 -6.6390 2.0684
3.2879 -6.5252 2.0684
3.5200 -6.4030 2.0684
3.7476 -6.2725 2.0684
3.9704 -6.1339 2.0684
4.1880 -5.9874 2.0684
4.4002 -5.8332 2.0684
4.6068 -5.6715 2.0684
4.7005 -5.3801 2.0224
4.7140 -5.0199 1.9494
4.8074 -4.7644 1.9160
4.9753 -4.5888 1.9160
5.1368 -4.4073 1.9160
5.2917 -4.2200 1.9160
5.4398 -4.0273 1.9160
5.5808 -3.8295 1.9160
5.7147 -3.6267 1.9160
5.8412 -3.4192 1.9160
5.9601 -3.2073 1.9160
6.0714 -2.9913 1.9160
6.1749 -2.7714 1.9160
6.2704 -2.5480 1.9160
6.3578 -2.3213 1.9160
6.4510 -2.0961 1.9202
6.5224 -1.8633 1.9203
6.5852 -1.6280 1.9203
6.6392 -1.3905 1.9203
6.6844 -1.1512 1.9201
6.7205 -0.9104 1.9199
6.7476 -0.6684 1.9195
6.3378 -0.3988 1.7977
6.4728 -0.1744 1.8331
6.7750 0.0608 1.9180
6.7665 0.3039 1.9175
6.7491 0.5464 1.9169
6.7230 0.7880 1.9163
6.6882 1.0285 1.9156
6.6443 1.2674 1.9149
6.8675 1.5674 1.9941
7.0306 1.8725 2.0597
6.9552 2.1226 2.0586
6.8756 2.3713 2.0590
6.7862 2.6166 2.0590
6.6854 2.8574 2.0582
6.5717 3.0924 2.0561
6.4510 3.3235 2.0544
6.3390 3.5593 2.0581
6.2191 3.7918 2.0620
6.0913 4.0208 2.0663
5.9525 4.2436 2.0695
5.7968 4.4549 2.0697
5.6338 4.6606 2.0699
5.4624 4.8595 2.0698
5.2842 5.0522 2.0697
5.0986 5.2377 2.0693
4.9065 5.4165 2.0690
4.7085 5.5886 2.0688
4.5045 5.7537 2.0687
4.2951 5.9117 2.0687
4.0801 6.0620 2.0687
3.8599 6.2046 2.0687
3.6347 6.3392 2.0687
3.4048 6.4656 2.0687
3.1705 6.5837 2.0687
2.9322 6.6933 2.0687
2.6900 6.7942 2.0687
2.4444 6.8864 2.0687
2.1956 6.9697 2.0687
1.9440 7.0441 2.0687
1.6899 7.1093 2.0688
1.4337 7.1654 2.0688
1.1755 7.2123 2.0688
0.9159 7.2498 2.0688
0.6550 7.2779 2.0687
0.3934 7.2967 2.0687
0.1312 7.3060 2.0687
-0.1312 7.3059 2.0687
-0.3933 7.2964 2.0686
-0.6550 7.2775 2.0686
-0.9158 7.2492 2.0686
-1.1754 7.2116 2.0686
-1.4335 7.1647 2.0686
-1.6898 7.1085 2.0685
-1.9438 7.0432 2.0685
-2.1954 6.9688 2.0685
-2.4441 6.8855 2.0685
-2.6896 6.7932 2.0684
-2.9317 6.6922 2.0684
-3.1700 6.5827 2.0684
-3.4043 6.4646 2.0684
-3.6342 6.3383 2.0684
-3.8593 6.2037 2.0684
-4.0796 6.0612 2.0684
-4.2945 5.9108 2.0684
-4.5039 5.7529 2.0684
-4.7075 5.5875 2.0684
-4.9051 5.4149 2.0684
-5.0963 5.2354 2.0684
-5.2809 5.0491 2.0684
-5.4588 4.8562 2.0684
-5.6296 4.6572 2.0684
-5.7931 4.4521 2.0684
-5.9492 4.2413 2.0684
-6.0976 4.0250 2.0684
-6.2382 3.8035 2.0684
-6.3707 3.5771 2.0684
-6.4950 3.3461 2.0684
-6.6110 3.1108 2.0684
-6.7184 2.8715 2.0684
-6.8171 2.6285 2.0684
-6.9071 2.3821 2.0684
-6.9882 2.1327 2.0684
-7.0602 1.8804 2.0684
-7.1232 1.6258 2.0684
-7.1770 1.3691 2.0684
-7.2215 1.1105 2.0684
-7.2567 0.8506 2.0684
-7.2826 0.5896 2.0684
-7.2991 0.3278 2.0684
-7.3061 0.0655 2.0684
-7.3038 -0.1968 2.0684
-7.2920 -0.4588 2.0684
-7.2709 -0.7203 2.0684
-7.2403 -0.9808 2.0684
-7.2005 -1.2401 2.0684
-7.1513 -1.4978 2.0684
-7.0930 -1.7535 2.0684
-7.0255 -2.0070 2.0684
-6.9489 -2.2579 2.0684
-6.8634 -2.5059 2.0684
-6.7690 -2.7506 2.0684
-6.6659 -2.9918 2.0684
-6.5543 -3.2292 2.0684
-6.4341 -3.4624 2.0684
-6.3057 -3.6911 2.0684
-6.1691 -3.9151 2.0684
-6.0246 -4.1340 2.0684
-5.8724 -4.3476 2.0684
-5.7125 -4.5556 2.0684
-5.5453 -4.7578 2.0684
-5.3710 -4.9538 2.0684
-5.1897 -5.1434 2.0684
-5.0017 -5.3264 2.0684
-4.8073 -5.5024 2.0684
-4.6067 -5.6715 2.0684
-4.4002 -5.8332 2.0684
-4.1879 -5.9874 2.0684
-3.9703 -6.1339 2.0684
-3.7476 -6.2724 2.0684
-3.5200 -6.4029 2.0684
-3.2879 -6.5252 2.0684
-3.0516 -6.6390 2.0684
-2.8113 -6.7443 2.0684
-2.5674 -6.8408 2.0684
-2.3202 -6.9286 2.0684
-2.0700 -7.0074 2.0684
-1.8171 -7.0772 2.0684
-1.5619 -7.1379 2.0684
-1.3047 -7.1893 2.0684
-1.0457 -7.2315 2.0684
-0.7855 -7.2644 2.0684
-0.5242 -7.2879 2.0684
-0.2623 -7.3021 2.0684
0.0000 -6.7251 2.0684
0.2414 -6.7207 2.0684
0.4825 -6.7078 2.0684
0.7230 -6.6861 2.0684
0.9625 -6.6558 2.0684
1.2008 -6.6170 2.0684
1.4376 -6.5697 2.0684
1.6725 -6.5138 2.0684
1.9052 -6.4496 2.0684
2.1355 -6.3770 2.0684
2.3630 -6.2963 2.0684
2.5875 -6.2074 2.0684
2.8087 -6.1105 2.0684
3.0262 -6.0057 2.0684
3.2398 -5.8932 2.0684
3.4493 -5.7731 2.0684
3.6543 -5.6456 2.0684
3.8546 -5.5108 2.0684
4.0499 -5.3689 2.0684
4.2400 -5.2200 2.0684
4.4247 -5.0645 2.0684
4.6036 -4.9024 2.0684
4.6982 -4.6563 2.0345
4.7100 -4.3442 1.9708
4.7312 -4.0593 1.9174
4.8809 -3.8924 1.9201
5.0067 -3.7067 1.9160
5.1365 -3.5246 1.9160
5.2597 -3.3379 1.9160
5.3762 -3.1470 1.9160
5.4857 -2.9520 1.9160
5.5881 -2.7532 1.9160
5.6833 -2.5508 1.9160
5.7712 -2.3451 1.9160
5.8595 -2.1394 1.9186
5.9330 -1.9278 1.9188
5.9987 -1.7137 1.9188
6.0564 -1.4973 1.9189
6.1061 -1.2788 1.9188
6.1478 -1.0588 1.9187
6.1812 -0.8373 1.9186
6.2065 -0.6148 1.9183
6.2234 -0.3916 1.9180
6.2322 -0.1679 1.9176
6.2328 0.0559 1.9171
6.2252 0.2795 1.9167
6.2095 0.5027 1.9161
6.1857 0.7251 1.9156
6.1642 0.9479 1.9182
6.4181 1.2243 2.0097
6.5520 1.4954 2.0671
6.4924 1.7292 2.0665
6.4230 1.9602 2.0655
6.3416 2.1871 2.0633
6.2492 2.4095 2.0601
6.1670 2.6358 2.0628
6.0772 2.8597 2.0658
5.9791 3.0804 2.0688
5.8652 3.2933 2.0690
5.7439 3.5022 2.0692
5.6151 3.7064 2.0694
5.4782 3.9054 2.0694
5.3344 4.0995 2.0693
5.1835 4.2881 2.0692
5.0259 4.4711 2.0691
4.8618 4.6483 2.0689
4.6915 4.8195 2.0688
4.5151 4.9845 2.0686
4.3333 5.1433 2.0687
4.1459 5.2956 2.0687
3.9532 5.4410 2.0687
3.7553 5.5794 2.0687
3.5526 5.7107 2.0687
3.3453 5.8345 2.0687
3.1338 5.9508 2.0687
2.9181 6.0595 2.0687
2.6987 6.1604 2.0687
2.4759 6.2533 2.0687
2.2498 6.3382 2.0687
2.0208 6.4148 2.0687
1.7893 6.4832 2.0687
1.5554 6.5433 2.0687
1.3195 6.5949 2.0687
1.0819 6.6381 2.0687
0.8430 6.6726 2.0687
0.6029 6.6985 2.0687
0.3620 6.7158 2.0687
0.1207 6.7244 2.0687
-0.1207 6.7243 2.0687
-0.3620 6.7156 2.0686
-0.6028 6.6982 2.0686
-0.8429 6.6722 2.0686
-1.0818 6.6375 2.0686
-1.3194 6.5943 2.0686
-1.5552 6.5427 2.0685
-1.7891 6.4826 2.0685
-2.0206 6.4141 2.0685
-2.2495 6.3374 2.0685
-2.4755 6.2525 2.0685
-2.6984 6.1595 2.0684
-2.9177 6.0586 2.0684
-3.1333 5.9500 2.0684
-3.3449 5.8337 2.0684
-3.5521 5.7099 2.0684
-3.7548 5.5787 2.0684
-3.9526 5.4403 2.0684
-4.1454 5.2949 2.0684
-4.3328 5.1427 2.0684
-4.5146 4.9839 2.0684
-4.6906 4.8186 2.0684
-4.8605 4.6471 2.0684
-5.0242 4.4696 2.0684
-5.1814 4.2864 2.0684
-5.3320 4.0977 2.0684
-5.4756 3.9036 2.0684
-5.6122 3.7046 2.0684
-5.7416 3.5007 2.0684
-5.8636 3.2924 2.0684
-5.9780 3.0798 2.0684
-6.0847 2.8632 2.0684
-6.1836 2.6429 2.0684
-6.2745 2.4193 2.0684
-6.3573 2.1925 2.0684
-6.4319 1.9629 2.0684
-6.4982 1.7307 2.0684
-6.5561 1.4964 2.0684
-6.6056 1.2600 2.0684
-6.6466 1.0221 2.0684
-6.6790 0.7829 2.0684
-6.7028 0.5426 2.0684
-6.7180 0.3017 2.0684
-6.7245 0.0603 2.0684
-6.7224 -0.1811 2.0684
-6.7115 -0.4223 2.0684
-6.6921 -0.6629 2.0684
-6.6640 -0.9027 2.0684
-6.6273 -1.1414 2.0684
-6.5820 -1.3785 2.0684
-6.5283 -1.6139 2.0684
-6.4662 -1.8472 2.0684
-6.3957 -2.0781 2.0684
-6.3170 -2.3064 2.0684
-6.2302 -2.5317 2.0684
-6.1353 -2.7537 2.0684
-6.0325 -2.9721 2.0684
-5.9219 -3.1868 2.0684
-5.8037 -3.3973 2.0684
-5.6780 -3.6034 2.0684
-5.5450 -3.8049 2.0684
-5.4049 -4.0015 2.0684
-5.2578 -4.1930 2.0684
-5.1039 -4.3790 2.0684
-4.9434 -4.5594 2.0684
-4.7766 -4.7339 2.0684
-4.6036 -4.9023 2.0684
-4.4246 -5.0644 2.0684
-4.2400 -5.2200 2.0684
-4.0499 -5.3688 2.0684
-3.8545 -5.5107 2.0684
-3.6543 -5.6456 2.0684
-3.4492 -5.7731 2.0684
-3.2398 -5.8932 2.0684
-3.0262 -6.0057 2.0684
-2.8086 -6.1105 2.0684
-2.5875 -6.2074 2.0684
-2.3630 -6.2962 2.0684
-2.1355 -6.3770 2.0684
-1.9052 -6.4496 2.0684
-1.6724 -6.5138 2.0684
-1.4375 -6.5696 2.0684
-1.2008 -6.6170 2.0684
-0.9625 -6.6558 2.0684
-0.7230 -6.6861 2.0684
-0.4825 -6.7078 2.0684
-0.2414 -6.7208 2.0684
0.0000 -6.2228 2.0684
0.2234 -6.2188 2.0684
0.4465 -6.2067 2.0684
0.6690 -6.1867 2.0684
0.8906 -6.1587 2.0684
1.1111 -6.1228 2.0684
1.3302 -6.0789 2.0684
1.5475 -6.0273 2.0684
1.7629 -5.9679 2.0684
1.9760 -5.9007 2.0684
2.1865 -5.8260 2.0684
2.3942 -5.7437 2.0684
2.5989 -5.6541 2.0684
2.8002 -5.5572 2.0684
2.9978 -5.4531 2.0684
3.1916 -5.3419 2.0684
3.3813 -5.2239 2.0684
3.5667 -5.0992 2.0684
3.7474 -4.9679 2.0684
3.9233 -4.8301 2.0684
4.0942 -4.6862 2.0684
4.2597 -4.5363 2.0684
4.4198 -4.3804 2.0684
4.5742 -4.2189 2.0684
4.6943 -4.0276 2.0560
4.7046 -3.7518 2.0002
4.7140 -3.4900 1.9496
4.7529 -3.2614 1.9160
4.8669 -3.0886 1.9160
4.9746 -2.9119 1.9160
5.0759 -2.7315 1.9160
5.1707 -2.5475 1.9160
5.2588 -2.3603 1.9160
5.3435 -2.1714 1.9172
5.4185 -1.9783 1.9174
5.4864 -1.7827 1.9175
5.5471 -1.5846 1.9176
5.6004 -1.3845 1.9176
5.6464 -1.1826 1.9176
5.6849 -0.9791 1.9175
5.7160 -0.7743 1.9174
5.7395 -0.5686 1.9172
5.7555 -0.3621 1.9169
5.7638 -0.1553 1.9166
5.7646 0.0517 1.9163
5.7578 0.2586 1.9159
5.7446 0.4650 1.9158
5.8818 0.6894 1.9685
6.1052 0.9389 2.0533
6.1107 1.1656 2.0678
6.0647 1.3842 2.0678
6.0090 1.6005 2.0671
5.9505 1.8160 2.0681
5.8820 2.0286 2.0682
5.8060 2.2387 2.0685
5.7225 2.4459 2.0687
5.6315 2.6499 2.0689
5.5333 2.8507 2.0691
5.4274 3.0474 2.0690
5.3145 3.2403 2.0690
5.1945 3.4288 2.0690
5.0679 3.6129 2.0689
4.9347 3.7923 2.0688
4.7956 3.9672 2.0689
4.6498 4.1365 2.0687
4.4980 4.3005 2.0686
4.3408 4.4592 2.0686
4.1779 4.6122 2.0686
4.0097 4.7592 2.0686
3.8362 4.9000 2.0687
3.6579 5.0346 2.0687
3.4748 5.1627 2.0687
3.2873 5.2841 2.0687
3.0955 5.3987 2.0687
2.8997 5.5063 2.0687
2.7002 5.6069 2.0687
2.4972 5.7002 2.0687
2.2909 5.7862 2.0687
2.0818 5.8647 2.0687
1.8699 5.9357 2.0687
1.6556 5.9990 2.0687
1.4392 6.0546 2.0687
1.2210 6.1023 2.0687
1.0011 6.1422 2.0687
0.7800 6.1742 2.0687
0.5579 6.1982 2.0687
0.3350 6.2142 2.0687
0.1117 6.2221 2.0687
-0.1117 6.2221 2.0687
-0.3350 6.2140 2.0686
-0.5578 6.1979 2.0686
-0.7799 6.1738 2.0686
-1.0010 6.1418 2.0686
-1.2209 6.1019 2.0686
-1.4391 6.0540 2.0685
-1.6555 5.9984 2.0685
-1.8697 5.9351 2.0685
-2.0815 5.8641 2.0685
-2.2907 5.7855 2.0685
-2.4968 5.6995 2.0684
-2.6998 5.6062 2.0684
-2.8993 5.5056 2.0684
-3.0951 5.3980 2.0684
-3.2868 5.2834 2.0684
-3.4744 5.1620 2.0684
-3.6574 5.0340 2.0684
-3.8358 4.8994 2.0684
-4.0092 4.7586 2.0684
-4.1774 4.6116 2.0684
-4.3403 4.4587 2.0684
-4.4975 4.3001 2.0684
-4.6490 4.1358 2.0684
-4.7945 3.9663 2.0684
-4.9337 3.7916 2.0684
-5.0667 3.6121 2.0684
-5.1931 3.4279 2.0684
-5.3128 3.2393 2.0684
-5.4256 3.0465 2.0684
-5.5315 2.8497 2.0684
-5.6303 2.6494 2.0684
-5.7217 2.4455 2.0684
-5.8058 2.2386 2.0684
-5.8824 2.0287 2.0684
-5.9515 1.8163 2.0684
-6.0129 1.6015 2.0684
-6.0665 1.3846 2.0684
-6.1123 1.1659 2.0684
-6.1502 0.9458 2.0684
-6.1802 0.7244 2.0684
-6.2022 0.5021 2.0684
-6.2163 0.2791 2.0684
-6.2223 0.0558 2.0684
-6.2203 -0.1676 2.0684
-6.2103 -0.3908 2.0684
-6.1922 -0.6134 2.0684
-6.1662 -0.8353 2.0684
-6.1323 -1.0561 2.0684
-6.0904 -1.2756 2.0684
-6.0407 -1.4934 2.0684
-5.9832 -1.7092 2.0684
-5.9180 -1.9229 2.0684
-5.8452 -2.1341 2.0684
-5.7648 -2.3426 2.0684
-5.6770 -2.5480 2.0684
-5.5819 -2.7501 2.0684
-5.4796 -2.9487 2.0684
-5.3702 -3.1435 2.0684
-5.2539 -3.3343 2.0684
-5.1309 -3.5207 2.0684
-5.0012 -3.7027 2.0684
-4.8651 -3.8798 2.0684
-4.7227 -4.0519 2.0684
-4.5742 -4.2189 2.0684
-4.4198 -4.3803 2.0684
-4.2597 -4.5362 2.0684
-4.0941 -4.6862 2.0684
-3.9233 -4.8301 2.0684
-3.7474 -4.9678 2.0684
-3.5666 -5.0992 2.0684
-3.3813 -5.2239 2.0684
-3.1916 -5.3419 2.0684
-2.9978 -5.4530 2.0684
-2.8001 -5.5571 2.0684
-2.5989 -5.6541 2.0684
-2.3942 -5.7437 2.0684
-2.1865 -5.8260 2.0684
-1.9760 -5.9007 2.0684
-1.7629 -5.9678 2.0684
-1.5475 -6.0273 2.0684
-1.3302 -6.0789 2.0684
-1.1111 -6.1228 2.0684
-0.8906 -6.1587 2.0684
-0.6690 -6.1867 2.0684
-0.4464 -6.2067 2.0684
-0.2234 -6.2188 2.0684
0.0000 -5.7842 2.0684
0.2076 -5.7805 2.0684
0.4150 -5.7693 2.0684
0.6218 -5.7507 2.0684
0.8279 -5.7247 2.0684
1.0328 -5.6913 2.0684
1.2364 -5.6505 2.0684
1.4385 -5.6025 2.0684
1.6387 -5.5472 2.0684
1.8367 -5.4849 2.0684
2.0324 -5.4154 2.0684
2.2255 -5.3390 2.0684
2.4157 -5.2556 2.0684
2.6028 -5.1655 2.0684
2.7866 -5.0688 2.0684
2.9667 -4.9655 2.0684
3.1430 -4.8558 2.0684
3.3153 -4.7398 2.0684
3.4833 -4.6178 2.0684
3.6468 -4.4897 2.0684
3.8056 -4.3559 2.0684
3.9595 -4.2165 2.0684
4.1083 -4.0717 2.0684
4.2518 -3.9216 2.0684
4.3899 -3.7664 2.0684
4.5222 -3.6064 2.0684
4.6488 -3.4417 2.0684
4.6977 -3.2235 2.0374
4.7059 -2.9865 1.9931
4.7133 -2.7590 1.9530
4.7284 -2.5445 1.9202
4.8063 -2.3680 1.9160
4.8882 -2.1939 1.9160
4.9643 -2.0172 1.9162
5.0339 -1.8379 1.9163
5.0969 -1.6561 1.9164
5.1532 -1.4721 1.9165
5.2027 -1.2862 1.9165
5.2455 -1.0986 1.9165
5.2813 -0.9096 1.9164
5.3103 -0.7194 1.9163
5.3323 -0.5282 1.9162
5.3561 -0.3370 1.9191
5.3558 -0.1443 1.9160
5.3935 0.0484 1.9288
5.5159 0.2477 1.9745
5.6629 0.4584 2.0317
5.7439 0.6733 2.0681
5.7159 0.8790 2.0681
5.6804 1.0836 2.0680
5.6382 1.2868 2.0681
5.5888 1.4885 2.0683
5.5322 1.6883 2.0685
5.4682 1.8859 2.0685
5.3974 2.0811 2.0687
5.3193 2.2735 2.0687
5.2346 2.4632 2.0689
5.1427 2.6495 2.0688
5.0442 2.8323 2.0688
4.9391 3.0114 2.0687
4.8280 3.1869 2.0688
4.7103 3.3580 2.0687
4.5866 3.5248 2.0686
4.4570 3.6871 2.0686
4.3218 3.8448 2.0686
4.1810 3.9974 2.0686
4.0348 4.1449 2.0686
3.8835 4.2871 2.0686
3.7271 4.4238 2.0686
3.5659 4.5547 2.0686
3.4001 4.6798 2.0686
3.2299 4.7988 2.0687
3.0556 4.9117 2.0687
2.8773 5.0182 2.0687
2.6953 5.1183 2.0687
2.5099 5.2117 2.0687
2.3212 5.2985 2.0687
0.8097 2.0452 0.7866
0.7356 2.0724 0.7864
0.6606 2.0970 0.7862
1.5389 5.5762 2.0687
1.3378 5.6278 2.0687
1.1349 5.6722 2.0687
0.9306 5.7093 2.0687
0.7250 5.7391 2.0687
0.5185 5.7614 2.0687
0.3114 5.7762 2.0687
0.1038 5.7836 2.0687
-0.1038 5.7836 2.0687
-0.3114 5.7761 2.0686
-0.5185 5.7611 2.0686
-0.7250 5.7388 2.0686
-0.9305 5.7090 2.0686
-1.1348 5.6718 2.0686
-1.3377 5.6274 2.0685
-1.5388 5.5757 2.0685
-0.6606 2.0971 0.7863
-0.7357 2.0725 0.7865
-0.8098 2.0453 0.7867
-2.3209 5.2979 2.0685
-2.5096 5.2111 2.0684
-2.6950 5.1176 2.0684
-2.8769 5.0176 2.0684
-3.0552 4.9111 2.0684
-3.2295 4.7983 2.0684
-3.3997 4.6792 2.0684
-3.5655 4.5542 2.0684
-3.7266 4.4232 2.0684
-3.8830 4.2866 2.0684
-4.0344 4.1445 2.0684
-4.1806 3.9970 2.0684
-4.3214 3.8444 2.0684
-4.4566 3.6868 2.0684
-4.5861 3.5244 2.0684
-4.7096 3.3575 2.0684
-4.8271 3.1863 2.0684
-4.9384 3.0110 2.0684
-5.0433 2.8318 2.0684
-5.1417 2.6489 2.0684
-5.2335 2.4626 2.0684
-5.3185 2.2732 2.0684
-5.3967 2.0808 2.0684
-5.4679 1.8858 2.0684
-5.5321 1.6883 2.0684
-5.5891 1.4886 2.0684
-5.6390 1.2870 2.0684
-5.6815 1.0838 2.0684
-5.7168 0.8791 2.0684
-5.7447 0.6734 2.0684
-5.7651 0.4667 2.0684
-5.7782 0.2595 2.0684
-5.7838 0.0519 2.0684
-5.7819 -0.1558 2.0684
-5.7726 -0.3632 2.0684
-5.7559 -0.5702 2.0684
-5.7317 -0.7764 2.0684
-5.7001 -0.9817 2.0684
-5.6612 -1.1857 2.0684
-5.6150 -1.3881 2.0684
-5.5616 -1.5888 2.0684
-5.5010 -1.7874 2.0684
-5.4333 -1.9837 2.0684
-5.3586 -2.1775 2.0684
-5.2769 -2.3684 2.0684
-5.1885 -2.5563 2.0684
-5.0934 -2.7409 2.0684
-4.9918 -2.9220 2.0684
-4.8837 -3.0993 2.0684
-4.7693 -3.2726 2.0684
-4.6487 -3.4417 2.0684
-4.5222 -3.6064 2.0684
-4.3898 -3.7664 2.0684
-4.2518 -3.9215 2.0684
-4.1083 -4.0716 2.0684
-3.9595 -4.2165 2.0684
-3.8056 -4.3559 2.0684
-3.6468 -4.4897 2.0684
-3.4833 -4.6177 2.0684
-3.3153 -4.7398 2.0684
-3.1430 -4.8557 2.0684
-2.9667 -4.9654 2.0684
-2.7865 -5.0687 2.0684
-2.6028 -5.1655 2.0684
-2.4157 -5.2556 2.0684
-2.2255 -5.3389 2.0684
-2.0324 -5.4154 2.0684
-1.8367 -5.4849 2.0684
-1.6386 -5.5473 2.0684
-1.4385 -5.6025 2.0684
-1.2364 -5.6505 2.0684
-1.0328 -5.6913 2.0684
-0.8278 -5.7247 2.0684
-0.6218 -5.7507 2.0684
-0.4150 -5.7693 2.0684
-0.2076 -5.7805 2.0684
0.0000 -5.3976 2.0684
0.1938 -5.3942 2.0684
0.1532 -2.1300 0.8183
0.2296 -2.1230 0.8183
0.3056 -2.1132 0.8182
0.3812 -2.1006 0.8181
0.4563 -2.0853 0.8180
0.5308 -2.0672 0.8178
0.6045 -2.0464 0.8177
0.6774 -2.0229 0.8175
0.7494 -1.9968 0.8173
0.8204 -1.9681 0.8171
2.2543 -4.9044 2.0684
2.4289 -4.8203 2.0684
2.6003 -4.7300 2.0684
2.7684 -4.6336 2.0684
2.9330 -4.5312 2.0684
3.0937 -4.4230 2.0684
3.2505 -4.3091 2.0684
3.4031 -4.1897 2.0684
3.5513 -4.0648 2.0684
3.6949 -3.9347 2.0684
3.8338 -3.7995 2.0684
3.9677 -3.6595 2.0684
4.0965 -3.5147 2.0684
4.2200 -3.3654 2.0684
4.3381 -3.2117 2.0684
4.4506 -3.0539 2.0684
4.5573 -2.8922 2.0684
4.6582 -2.7267 2.0684
4.6965 -2.5273 2.0438
4.7029 -2.3171 2.0091
4.7119 -2.1148 1.9792
4.7271 -1.9209 1.9553
4.7492 -1.7340 1.9375
4.7812 -1.5535 1.9265
4.8198 -1.3769 1.9209
4.8617 -1.2019 1.9192
4.9073 -1.0278 1.9214
4.9574 -0.8538 1.9277
5.0168 -0.6796 1.9401
5.0872 -0.5040 1.9590
5.1671 -0.3251 1.9840
5.2584 -0.1417 2.0158
5.3634 0.0481 2.0554
5.3918 0.2421 2.0683
5.3795 0.4355 2.0683
5.3603 0.6283 2.0682
5.3343 0.8203 2.0682
5.3016 1.0113 2.0683
5.2621 1.2010 2.0684
5.2159 1.3892 2.0685
5.1627 1.5756 2.0685
5.1030 1.7599 2.0686
5.0365 1.9420 2.0686
4.9638 2.1216 2.0687
4.8843 2.2983 2.0686
4.7988 2.4722 2.0687
4.7068 2.6430 2.0686
4.6089 2.8101 2.0687
4.5049 2.9736 2.0686
4.3953 3.1334 2.0686
4.2800 3.2892 2.0686
4.1591 3.4407 2.0686
4.0330 3.5878 2.0686
3.9016 3.7303 2.0686
3.7652 3.8679 2.0686
3.6239 4.0006 2.0686
3.4780 4.1281 2.0686
3.3276 4.2503 2.0686
3.1728 4.3670 2.0686
3.0141 4.4781 2.0686
2.8514 4.5834 2.0686
2.6850 4.6828 2.0687
2.5152 4.7762 2.0687
2.3421 4.8634 2.0687
0.8249 1.8831 0.7879
0.7566 1.9110 0.7876
0.6874 1.9364 0.7875
0.6173 1.9594 0.7873
0.5464 1.9799 0.7871
0.4749 1.9979 0.7870
0.4028 2.0134 0.7869
0.3303 2.0263 0.7868
0.2573 2.0367 0.7867
0.1840 2.0444 0.7867
0.1105 2.0496 0.7866
0.0368 2.0522 0.7866
-0.0368 2.0522 0.7866
-0.1105 2.0497 0.7866
-0.1840 2.0445 0.7867
-0.2573 2.0367 0.7867
-0.3303 2.0264 0.7868
-0.4029 2.0135 0.7869
-0.4749 1.9980 0.7870
-0.5465 1.9800 0.7872
-0.6173 1.9595 0.7873
-0.6874 1.9366 0.7875
-0.7567 1.9111 0.7877
-0.8250 1.8832 0.7879
-2.3419 4.8629 2.0684
-2.5149 4.7757 2.0684
-2.6847 4.6823 2.0684
-2.8510 4.5829 2.0684
-3.0137 4.4776 2.0684
-3.1725 4.3665 2.0684
-3.3272 4.2498 2.0684
-3.4776 4.1277 2.0684
-3.6235 4.0002 2.0684
-3.7648 3.8675 2.0684
-3.9012 3.7299 2.0684
-4.0326 3.5875 2.0684
-4.1587 3.4404 2.0684
-4.2796 3.2889 2.0684
-4.3949 3.1331 2.0684
-4.5045 2.9734 2.0684
-4.6083 2.8098 2.0684
-4.7062 2.6425 2.0684
-4.7981 2.4719 2.0684
-4.8837 2.2981 2.0684
-4.9631 2.1213 2.0684
-5.0360 1.9417 2.0684
-5.1025 1.7597 2.0684
-5.1624 1.5754 2.0684
-5.2156 1.3891 2.0684
-5.2621 1.2010 2.0684
-5.3018 1.0113 2.0684
-5.3347 0.8204 2.0684
-5.3607 0.6283 2.0684
-5.3798 0.4355 2.0684
-5.3920 0.2421 2.0684
-5.3972 0.0484 2.0684
-5.3955 -0.1454 2.0684
-5.3868 -0.3389 2.0684
-5.3712 -0.5321 2.0684
-5.3486 -0.7245 2.0684
-5.3192 -0.9161 2.0684
-5.2829 -1.1064 2.0684
-5.2398 -1.2954 2.0684
-5.1899 -1.4826 2.0684
-5.1333 -1.6680 2.0684
-5.0702 -1.8512 2.0684
-5.0004 -2.0320 2.0684
-4.9243 -2.2101 2.0684
-4.8418 -2.3855 2.0684
-4.7530 -2.5578 2.0684
-4.6582 -2.7267 2.0684
-4.5573 -2.8922 2.0684
-4.4505 -3.0539 2.0684
-4.3381 -3.2117 2.0684
-4.2200 -3.3654 2.0684
-4.0965 -3.5147 2.0684
-3.9677 -3.6595 2.0684
-3.8337 -3.7995 2.0684
-3.6949 -3.9347 2.0684
-3.5513 -4.0648 2.0684
-3.4031 -4.1897 2.0684
-3.2505 -4.3091 2.0684
-3.0937 -4.4230 2.0684
-2.9330 -4.5312 2.0684
-2.7684 -4.6336 2.0684
-2.6003 -4.7300 2.0684
-2.4288 -4.8203 2.0684
-2.2543 -4.9044 2.0684
-0.8204 -1.9682 0.8172
-0.7495 -1.9970 0.8174
-0.6775 -2.0231 0.8176
-0.6045 -2.0465 0.8177
-0.5308 -2.0673 0.8179
-0.4563 -2.0853 0.8180
-0.3812 -2.1007 0.8181
-0.3056 -2.1132 0.8182
-0.2296 -2.1230 0.8183
-0.1532 -2.1300 0.8184
-0.1937 -5.3942 2.0684
0.0000 -1.9971 0.8173
0.0717 -1.9958 0.8173
0.1433 -1.9918 0.8173
0.2147 -1.9853 0.8172
0.2858 -1.9761 0.8172
0.3565 -1.9644 0.8171
0.4267 -1.9500 0.8170
0.4963 -1.9332 0.8168
0.5653 -1.9137 0.8167
0.6335 -1.8918 0.8165
0.7009 -1.8674 0.8163
0.7672 -1.8406 0.8161
2.1107 -4.5921 2.0684
2.2742 -4.5134 2.0684
2.4348 -4.4289 2.0684
2.5922 -4.3386 2.0684
2.7462 -4.2427 2.0684
2.8968 -4.1415 2.0684
3.0436 -4.0348 2.0684
3.1864 -3.9229 2.0684
3.3252 -3.8060 2.0684
3.4597 -3.6842 2.0684
3.5897 -3.5576 2.0684
3.7151 -3.4265 2.0684
3.8357 -3.2909 2.0684
3.9513 -3.1511 2.0684
4.0619 -3.0072 2.0684
4.1672 -2.8595 2.0684
4.2672 -2.7081 2.0684
4.3616 -2.5531 2.0684
4.4505 -2.3949 2.0684
4.5336 -2.2336 2.0684
4.6108 -2.0695 2.0684
4.6821 -1.9026 2.0684
4.7274 -1.7260 2.0597
4.7561 -1.5454 2.0467
4.7906 -1.3686 2.0391
4.8310 -1.1943 2.0367
4.8779 -1.0216 2.0397
4.9323 -0.8495 2.0484
4.9938 -0.6765 2.0625
5.0293 -0.4982 2.0684
5.0439 -0.3174 2.0684
5.0520 -0.1361 2.0684
5.0535 0.0453 2.0684
5.0486 0.2267 2.0683
5.0372 0.4078 2.0683
5.0194 0.5883 2.0684
4.9951 0.7682 2.0684
4.9645 0.9470 2.0685
4.9273 1.1246 2.0685
4.8838 1.3007 2.0685
4.8341 1.4753 2.0686
4.7781 1.6479 2.0686
4.7158 1.8185 2.0686
4.6475 1.9864 2.0686
4.5733 2.1520 2.0686
4.4929 2.3147 2.0685
4.4070 2.4745 2.0686
4.3153 2.6311 2.0686
4.2181 2.7843 2.0686
4.1154 2.9339 2.0686
4.0075 3.0798 2.0686
3.8943 3.2216 2.0686
3.7762 3.3594 2.0686
3.6532 3.4928 2.0686
3.5255 3.6216 2.0686
3.3932 3.7459 2.0686
3.2565 3.8653 2.0686
3.1157 3.9797 2.0686
2.9708 4.0890 2.0686
2.8221 4.1930 2.0686
2.6698 4.2916 2.0686
2.5140 4.3847 2.0686
2.3550 4.4721 2.0686
0.8364 1.7368 0.7890
0.7733 1.7652 0.7888
0.7093 1.7914 0.7886
0.6443 1.8153 0.7884
0.5787 1.8368 0.7882
0.5123 1.8561 0.7881
0.4452 1.8730 0.7879
0.3777 1.8875 0.7878
0.3096 1.8996 0.7878
0.2412 1.9093 0.7877
0.1725 1.9167 0.7876
0.1036 1.9215 0.7876
0.0345 1.9240 0.7876
-0.0345 1.9240 0.7876
-0.1036 1.9215 0.7876
-0.1725 1.9167 0.7876
-0.2412 1.9094 0.7877
-0.3096 1.8997 0.7878
-0.3777 1.8876 0.7879
-0.4452 1.8731 0.7880
-0.5123 1.8562 0.7881
-0.5787 1.8370 0.7883
-0.6444 1.8154 0.7884
-0.7093 1.7915 0.7886
-0.7734 1.7653 0.7888
-2.1928 4.5533 2.0685
-2.3548 4.4716 2.0684
-2.5138 4.3842 2.0684
-2.6695 4.2911 2.0684
-2.8218 4.1925 2.0684
-2.9705 4.0885 2.0684
-3.1154 3.9793 2.0684
-3.2562 3.8649 2.0684
-3.3928 3.7455 2.0684
-3.5251 3.6213 2.0684
-3.6528 3.4924 2.0684
-3.7758 3.3590 2.0684
-3.8940 3.2213 2.0684
-4.0071 3.0795 2.0684
-4.1151 2.9337 2.0684
-4.2177 2.7841 2.0684
-4.3150 2.6309 2.0684
-4.4066 2.4743 2.0684
-4.4926 2.3145 2.0684
-4.5728 2.1518 2.0684
-4.6471 1.9862 2.0684
-4.7154 1.8181 2.0684
-4.7776 1.6477 2.0684
-4.8337 1.4752 2.0684
-4.8835 1.3007 2.0684
-4.9271 1.1245 2.0684
-4.9643 0.9470 2.0684
-4.9951 0.7681 2.0684
-5.0194 0.5883 2.0684
-5.0373 0.4078 2.0684
-5.0487 0.2267 2.0684
-5.0536 0.0453 2.0684
-5.0520 -0.1361 2.0684
-5.0439 -0.3174 2.0684
-5.0292 -0.4982 2.0684
-5.0081 -0.6784 2.0684
-4.9805 -0.8578 2.0684
-4.9465 -1.0360 2.0684
-4.9062 -1.2129 2.0684
-4.8595 -1.3882 2.0684
-4.8065 -1.5618 2.0684
-4.7474 -1.7333 2.0684
-4.6821 -1.9026 2.0684
-4.6108 -2.0694 2.0684
-4.5335 -2.2336 2.0684
-4.4504 -2.3949 2.0684
-4.3616 -2.5531 2.0684
-4.2671 -2.7080 2.0684
-4.1672 -2.8595 2.0684
-4.0619 -3.0072 2.0684
-3.9513 -3.1511 2.0684
-3.8356 -3.2909 2.0684
-3.7150 -3.4265 2.0684
-3.5897 -3.5576 2.0684
-3.4596 -3.6842 2.0684
-3.3252 -3.8060 2.0684
-3.1864 -3.9229 2.0684
-3.0435 -4.0348 2.0684
-2.8967 -4.1414 2.0684
-2.7462 -4.2427 2.0684
-2.5922 -4.3386 2.0684
-2.4348 -4.4288 2.0684
-2.2742 -4.5134 2.0684
-0.8327 -1.8115 0.8160
-0.7673 -1.8408 0.8162
-0.7009 -1.8676 0.8164
-0.6336 -1.8919 0.8166
-0.5653 -1.9139 0.8167
-0.4964 -1.9333 0.8169
-0.4267 -1.9501 0.8170
-0.3565 -1.9644 0.8171
-0.2858 -1.9762 0.8172
-0.2147 -1.9853 0.8173
-0.1433 -1.9919 0.8173
-0.0717 -1.9958 0.8173
0.0000 -1.8733 0.8164
0.0672 -1.8721 0.8164
0.1344 -1.8684 0.8164
0.2014 -1.8622 0.8163
0.2681 -1.8537 0.8162
0.3344 -1.8426 0.8162
0.4003 -1.8292 0.8160
0.4656 -1.8134 0.8159
0.5303 -1.7952 0.8158
0.5943 -1.7747 0.8156
0.6575 -1.7518 0.8154
0.7198 -1.7267 0.8153
0.7811 -1.6993 0.8150
2.1357 -4.2385 2.0684
2.2865 -4.1591 2.0684
2.4343 -4.0744 2.0684
2.5790 -3.9844 2.0684
2.7204 -3.8892 2.0684
2.8582 -3.7891 2.0684
2.9924 -3.6840 2.0684
3.1227 -3.5742 2.0684
3.2490 -3.4598 2.0684
3.3711 -3.3410 2.0684
3.4888 -3.2178 2.0684
3.6021 -3.0905 2.0684
3.7107 -2.9592 2.0684
3.8145 -2.8241 2.0684
3.9134 -2.6853 2.0684
4.0073 -2.5431 2.0684
4.0960 -2.3977 2.0684
4.1794 -2.2491 2.0684
4.2575 -2.0976 2.0684
4.3300 -1.9434 2.0684
4.3970 -1.7867 2.0684
4.4583 -1.6278 2.0684
4.5138 -1.4667 2.0684
4.5636 -1.3037 2.0684
4.6074 -1.1390 2.0684
4.6453 -0.9729 2.0684
4.6772 -0.8055 2.0684
4.7031 -0.6371 2.0684
4.7230 -0.4679 2.0684
4.7367 -0.2980 2.0684
4.7443 -0.1278 2.0684
4.7459 0.0426 2.0684
4.7414 0.2129 2.0684
4.7307 0.3830 2.0685
4.7140 0.5525 2.0685
4.6911 0.7214 2.0685
4.6622 0.8893 2.0685
4.6273 1.0561 2.0685
4.5865 1.2216 2.0685
4.5395 1.3854 2.0685
4.4869 1.5474 2.0685
4.4285 1.7075 2.0685
4.3644 1.8654 2.0685
4.2946 2.0208 2.0685
4.2193 2.1737 2.0685
4.1386 2.3238 2.0685
4.0525 2.4708 2.0686
3.9612 2.6147 2.0686
3.8648 2.7552 2.0686
3.7634 2.8922 2.0686
3.6572 3.0254 2.0686
3.5462 3.1548 2.0686
3.4307 3.2800 2.0686
3.3107 3.4011 2.0686
3.1865 3.5177 2.0686
3.0582 3.6299 2.0686
2.9259 3.7373 2.0686
2.7899 3.8399 2.0686
2.6503 3.9376 2.0686
2.5072 4.0302 2.0686
2.3609 4.1176 2.0686
0.8446 1.6038 0.7900
0.7862 1.6326 0.7898
0.7269 1.6594 0.7896
0.6668 1.6840 0.7894
0.6057 1.7065 0.7892
0.5440 1.7268 0.7891
0.4816 1.7449 0.7889
0.4186 1.7608 0.7888
0.3550 1.7745 0.7887
0.2911 1.7859 0.7886
0.2268 1.7950 0.7885
0.1622 1.8019 0.7885
0.0974 1.8065 0.7885
0.0325 1.8088 0.7885
-0.0325 1.8088 0.7885
-0.0974 1.8065 0.7885
-0.1622 1.8019 0.7885
-0.2268 1.7951 0.7886
-0.2911 1.7860 0.7886
-0.3551 1.7746 0.7887
-0.4186 1.7609 0.7888
-0.4816 1.7450 0.7890
-0.5440 1.7269 0.7891
-0.6058 1.7066 0.7893
-0.6668 1.6841 0.7894
-0.7270 1.6595 0.7896
-0.7863 1.6328 0.7898
-2.2114 4.1993 2.0685
-2.3607 4.1172 2.0684
-2.5070 4.0298 2.0684
-2.6500 3.9372 2.0684
-2.7896 3.8395 2.0684
-2.9256 3.7369 2.0684
-3.0579 3.6295 2.0684
-3.1862 3.5174 2.0684
-3.3104 3.4008 2.0684
-3.4304 3.2797 2.0684
-3.5459 3.1545 2.0684
-3.6568 3.0252 2.0684
-3.7631 2.8920 2.0684
-3.8645 2.7550 2.0684
-3.9609 2.6145 2.0684
-4.0522 2.4706 2.0684
-4.1383 2.3236 2.0684
-4.2190 2.1736 2.0684
-4.2943 2.0207 2.0684
-4.3641 1.8653 2.0684
-4.4282 1.7074 2.0684
-4.4867 1.5473 2.0684
-4.5393 1.3853 2.0684
-4.5861 1.2215 2.0684
-4.6270 1.0561 2.0684
-4.6620 0.8893 2.0684
-4.6909 0.7214 2.0684
-4.7138 0.5525 2.0684
-4.7306 0.3830 2.0684
-4.7413 0.2129 2.0684
-4.7458 0.0426 2.0684
-4.7443 -0.1278 2.0684
-4.7367 -0.2980 2.0684
-4.7229 -0.4679 2.0684
-4.7031 -0.6371 2.0684
-4.6772 -0.8055 2.0684
-4.6453 -0.9729 2.0684
-4.6074 -1.1390 2.0684
-4.5635 -1.3037 2.0684
-4.5138 -1.4667 2.0684
-4.4582 -1.6277 2.0684
-4.3969 -1.7867 2.0684
-4.3300 -1.9434 2.0684
-4.2574 -2.0976 2.0684
-4.1794 -2.2491 2.0684
-4.0960 -2.3976 2.0684
-4.0073 -2.5431 2.0684
-3.9134 -2.6853 2.0684
-3.8145 -2.8241 2.0684
-3.7107 -2.9592 2.0684
-3.6020 -3.0905 2.0684
-3.4888 -3.2178 2.0684
-3.3710 -3.3410 2.0684
-3.2489 -3.4598 2.0684
-3.1227 -3.5742 2.0684
-2.9923 -3.6840 2.0684
-2.8582 -3.7891 2.0684
-2.7203 -3.8892 2.0684
-2.5790 -3.9843 2.0684
-2.4343 -4.0743 2.0684
-2.2865 -4.1591 2.0684
-0.8414 -1.6698 0.8149
-0.7811 -1.6994 0.8151
-0.7198 -1.7268 0.8153
-0.6575 -1.7519 0.8155
-0.5943 -1.7748 0.8157
-0.5303 -1.7953 0.8158
-0.4656 -1.8135 0.8160
-0.4003 -1.8293 0.8161
-0.3344 -1.8427 0.8162
-0.2681 -1.8537 0.8163
-0.2014 -1.8623 0.8163
-0.1344 -1.8684 0.8164
-0.0672 -1.8721 0.8164
0.0000 -1.7619 0.8156
0.0632 -1.7608 0.8155
0.1264 -1.7573 0.8155
0.1894 -1.7515 0.8155
0.2521 -1.7435 0.8154
0.3145 -1.7331 0.8153
0.3765 -1.7205 0.8152
0.4379 -1.7056 0.8151
0.4988 -1.6886 0.8150
0.5590 -1.6693 0.8148
0.6184 -1.6478 0.8147
0.6770 -1.6242 0.8145
0.7347 -1.5984 0.8143
0.7914 -1.5706 0.8141
2.1528 -3.9159 2.0684
2.2920 -3.8361 2.0684
2.4282 -3.7514 2.0684
2.5613 -3.6618 2.0684
2.6911 -3.5675 2.0684
2.8174 -3.4686 2.0684
2.9401 -3.3652 2.0684
3.0590 -3.2575 2.0684
3.1739 -3.1456 2.0684
3.2848 -3.0296 2.0684
3.3914 -2.9098 2.0684
3.4937 -2.7862 2.0684
3.5915 -2.6590 2.0684
3.6846 -2.5283 2.0684
3.7730 -2.3944 2.0684
3.8565 -2.2574 2.0684
3.9350 -2.1176 2.0684
4.0085 -1.9749 2.0684
4.0768 -1.8298 2.0684
4.1398 -1.6823 2.0684
4.1976 -1.5326 2.0684
4.2499 -1.3809 2.0684
4.2967 -1.2275 2.0684
4.3380 -1.0724 2.0684
4.3737 -0.9160 2.0684
4.4038 -0.7584 2.0684
4.4281 -0.5999 2.0684
4.4468 -0.4405 2.0684
4.4598 -0.2806 2.0684
4.4670 -0.1204 2.0684
4.4684 0.0401 2.0684
4.4641 0.2004 2.0685
4.4541 0.3606 2.0685
4.4383 0.5202 2.0685
4.4168 0.6792 2.0685
4.3895 0.8373 2.0685
4.3567 0.9943 2.0685
4.3182 1.1501 2.0685
4.2741 1.3044 2.0685
4.2245 1.4570 2.0685
4.1695 1.6077 2.0685
4.1091 1.7563 2.0685
4.0435 1.9027 2.0685
3.9726 2.0466 2.0685
3.8965 2.1879 2.0685
3.8155 2.3263 2.0686
3.7295 2.4618 2.0686
3.6388 2.5941 2.0686
3.5433 2.7231 2.0686
3.4433 2.8485 2.0686
3.3388 2.9703 2.0686
3.2301 3.0882 2.0686
3.1171 3.2022 2.0686
3.0002 3.3120 2.0686
2.8794 3.4176 2.0686
2.7548 3.5187 2.0686
2.6267 3.6154 2.0686
2.4953 3.7073 2.0686
2.3606 3.7945 2.0686
2.2229 3.8768 2.0686
0.7959 1.5114 0.7907
0.7409 1.5386 0.7905
0.6851 1.5638 0.7903
0.6284 1.5870 0.7901
0.5709 1.6082 0.7900
0.5127 1.6274 0.7898
0.4539 1.6445 0.7897
0.3945 1.6595 0.7896
0.3346 1.6724 0.7895
0.2743 1.6831 0.7894
0.2137 1.6918 0.7893
0.1528 1.6982 0.7893
0.0918 1.7026 0.7893
0.0306 1.7047 0.7892
-0.0306 1.7047 0.7892
-0.0918 1.7026 0.7893
-0.1528 1.6983 0.7893
-0.2137 1.6918 0.7894
-0.2743 1.6832 0.7894
-0.3346 1.6724 0.7895
-0.3945 1.6595 0.7896
-0.4539 1.6446 0.7897
-0.5127 1.6275 0.7899
-0.5709 1.6083 0.7900
-0.6284 1.5871 0.7902
-0.6851 1.5639 0.7903
-0.7410 1.5387 0.7905
-0.7960 1.5115 0.7907
-2.2227 3.8765 2.0684
-2.3604 3.7942 2.0684
-2.4950 3.7070 2.0684
-2.6265 3.6150 2.0684
-2.7546 3.5184 2.0684
-2.8791 3.4172 2.0684
-2.9999 3.3117 2.0684
-3.1168 3.2019 2.0684
-3.2298 3.0879 2.0684
-3.3385 2.9700 2.0684
-3.4430 2.8483 2.0684
-3.5430 2.7228 2.0684
-3.6385 2.5939 2.0684
-3.7293 2.4616 2.0684
-3.8152 2.3262 2.0684
-3.8963 2.1877 2.0684
-3.9723 2.0464 2.0684
-4.0432 1.9025 2.0684
-4.1089 1.7562 2.0684
-4.1693 1.6076 2.0684
-4.2243 1.4569 2.0684
-4.2739 1.3043 2.0684
-4.3179 1.1501 2.0684
-4.3565 0.9943 2.0684
-4.3893 0.8373 2.0684
-4.4166 0.6792 2.0684
-4.4381 0.5202 2.0684
-4.4539 0.3606 2.0684
-4.4640 0.2004 2.0684
-4.4683 0.0401 2.0684
-4.4669 -0.1204 2.0684
-4.4597 -0.2806 2.0684
-4.4468 -0.4405 2.0684
-4.4281 -0.5999 2.0684
-4.4037 -0.7584 2.0684
-4.3736 -0.9160 2.0684
-4.3379 -1.0724 2.0684
-4.2967 -1.2275 2.0684
-4.2498 -1.3809 2.0684
-4.1975 -1.5326 2.0684
-4.1398 -1.6823 2.0684
-4.0768 -1.8298 2.0684
-4.0085 -1.9749 2.0684
-3.9350 -2.1175 2.0684
-3.8564 -2.2574 2.0684
-3.7729 -2.3944 2.0684
-3.6846 -2.5283 2.0684
-3.5914 -2.6589 2.0684
-3.4937 -2.7862 2.0684
-3.3914 -2.9098 2.0684
-3.2848 -3.0296 2.0684
-3.1739 -3.1456 2.0684
-3.0590 -3.2575 2.0684
-2.9401 -3.3652 2.0684
-2.8174 -3.4686 2.0684
-2.6910 -3.5675 2.0684
-2.5612 -3.6618 2.0684
-2.4282 -3.7513 2.0684
-2.2919 -3.8361 2.0684
-2.1528 -3.9159 2.0684
-0.7915 -1.5707 0.8141
-0.7348 -1.5985 0.8143
-0.6771 -1.6243 0.8145
-0.6185 -1.6479 0.8147
-0.5590 -1.6694 0.8149
-0.4988 -1.6886 0.8150
-0.4380 -1.7057 0.8151
-0.3765 -1.7206 0.8153
-0.3145 -1.7332 0.8153
-0.2521 -1.7435 0.8154
-0.1894 -1.7516 0.8155
-0.1264 -1.7573 0.8155
-0.0632 -1.7608 0.8155
0.0000 -1.6611 0.8148
0.0596 -1.6600 0.8148
0.1192 -1.6567 0.8148
0.1786 -1.6513 0.8147
0.2377 -1.6437 0.8146
0.2965 -1.6340 0.8146
0.3549 -1.6221 0.8145
0.4129 -1.6081 0.8144
0.4703 -1.5920 0.8142
0.5270 -1.5738 0.8141
0.5831 -1.5536 0.8139
0.6383 -1.5313 0.8138
0.6927 -1.5071 0.8136
0.7462 -1.4809 0.8134
0.7987 -1.4527 0.8132
2.1628 -3.6200 2.0684
2.2914 -3.5400 2.0684
2.4170 -3.4555 2.0684
2.5394 -3.3665 2.0684
2.6586 -3.2731 2.0684
2.7744 -3.1756 2.0684
2.8866 -3.0740 2.0684
2.9951 -2.9684 2.0684
3.0997 -2.8589 2.0684
3.2003 -2.7458 2.0684
3.2968 -2.6292 2.0684
3.3891 -2.5091 2.0684
3.4770 -2.3859 2.0684
3.5604 -2.2595 2.0684
3.6392 -2.1303 2.0684
3.7133 -1.9983 2.0684
3.7826 -1.8637 2.0684
3.8471 -1.7267 2.0684
3.9066 -1.5875 2.0684
3.9610 -1.4462 2.0684
4.0104 -1.3031 2.0684
4.0546 -1.1583 2.0684
4.0936 -1.0120 2.0684
4.1273 -0.8644 2.0684
4.1556 -0.7157 2.0684
4.1787 -0.5661 2.0684
4.1963 -0.4157 2.0684
4.2085 -0.2648 2.0684
4.2153 -0.1136 2.0685
4.2167 0.0378 2.0685
4.2126 0.1891 2.0685
4.2031 0.3403 2.0685
4.1882 0.4909 2.0685
4.1679 0.6409 2.0685
4.1422 0.7901 2.0685
4.1112 0.9383 2.0685
4.0749 1.0853 2.0685
4.0333 1.2309 2.0685
3.9865 1.3748 2.0685
3.9346 1.5171 2.0685
3.8776 1.6573 2.0685
3.8156 1.7955 2.0685
3.7487 1.9313 2.0685
3.6770 2.0646 2.0685
3.6005 2.1953 2.0685
3.5194 2.3231 2.0686
3.4337 2.4479 2.0686
3.3437 2.5696 2.0686
3.2493 2.6880 2.0686
3.1507 2.8029 2.0686
3.0481 2.9142 2.0686
2.9415 3.0217 2.0686
2.8311 3.1254 2.0686
2.7171 3.2250 2.0686
2.5996 3.3205 2.0686
2.4787 3.4116 2.0686
2.3547 3.4984 2.0686
2.2276 3.5807 2.0686
0.8026 1.3998 0.7915
0.7517 1.4274 0.7913
0.6998 1.4531 0.7911
0.6470 1.4769 0.7909
0.5935 1.4989 0.7908
0.5392 1.5189 0.7906
0.4842 1.5370 0.7905
0.4287 1.5532 0.7904
0.3726 1.5674 0.7903
0.3160 1.5795 0.7902
0.2591 1.5897 0.7901
0.2019 1.5979 0.7900
0.1444 1.6040 0.7900
0.0867 1.6081 0.7900
0.0289 1.6101 0.7900
-0.0289 1.6101 0.7900
-0.0867 1.6081 0.7900
-0.1444 1.6040 0.7900
-0.2019 1.5979 0.7901
-0.2591 1.5898 0.7901
-0.3160 1.5796 0.7902
-0.3726 1.5674 0.7903
-0.4287 1.5533 0.7904
-0.4842 1.5371 0.7905
-0.5392 1.5190 0.7907
-0.5935 1.4990 0.7908
-0.6470 1.4770 0.7910
-0.6998 1.4532 0.7912
-0.7517 1.4275 0.7914
-0.8027 1.3999 0.7916
-2.2274 3.5804 2.0684
-2.3545 3.4981 2.0684
-2.4785 3.4113 2.0684
-2.5994 3.3202 2.0684
-2.7169 3.2247 2.0684
-2.8309 3.1251 2.0684
-2.9412 3.0215 2.0684
-3.0478 2.9140 2.0684
-3.1504 2.8027 2.0684
-3.2490 2.6878 2.0684
-3.3434 2.5694 2.0684
-3.4335 2.4478 2.0684
-3.5191 2.3229 2.0684
-3.6003 2.1951 2.0684
-3.6767 2.0645 2.0684
-3.7485 1.9311 2.0684
-3.8154 1.7953 2.0684
-3.8774 1.6572 2.0684
-3.9344 1.5170 2.0684
-3.9863 1.3748 2.0684
-4.0331 1.2308 2.0684
-4.0747 1.0852 2.0684
-4.1110 0.9383 2.0684
-4.1420 0.7901 2.0684
-4.1677 0.6409 2.0684
-4.1880 0.4909 2.0684
-4.2030 0.3402 2.0684
-4.2125 0.1892 2.0684
-4.2166 0.0378 2.0684
-4.2152 -0.1136 2.0684
-4.2084 -0.2648 2.0684
-4.1962 -0.4157 2.0684
-4.1786 -0.5661 2.0684
-4.1556 -0.7157 2.0684
-4.1272 -0.8644 2.0684
-4.0935 -1.0120 2.0684
-4.0546 -1.1583 2.0684
-4.0104 -1.3031 2.0684
-3.9610 -1.4462 2.0684
-3.9066 -1.5875 2.0684
-3.8471 -1.7267 2.0684
-3.7826 -1.8636 2.0684
-3.7133 -1.9982 2.0684
-3.6392 -2.1302 2.0684
-3.5603 -2.2595 2.0684
-3.4769 -2.3858 2.0684
-3.3891 -2.5091 2.0684
-3.2968 -2.6292 2.0684
-3.2003 -2.7458 2.0684
-3.0997 -2.8589 2.0684
-2.9951 -2.9684 2.0684
-2.8866 -3.0740 2.0684
-2.7744 -3.1756 2.0684
-2.6586 -3.2731 2.0684
-2.5394 -3.3665 2.0684
-2.4169 -3.4555 2.0684
-2.2913 -3.5400 2.0684
-2.1628 -3.6199 2.0684
-0.7987 -1.4529 0.8132
-0.7462 -1.4810 0.8135
-0.6928 -1.5072 0.8137
-0.6384 -1.5314 0.8138
-0.5831 -1.5537 0.8140
-0.5270 -1.5739 0.8141
-0.4703 -1.5921 0.8143
-0.4129 -1.6082 0.8144
-0.3550 -1.6221 0.8145
-0.2965 -1.6340 0.8146
-0.2377 -1.6438 0.8147
-0.1786 -1.6513 0.8147
-0.1192 -1.6568 0.8148
-0.0596 -1.6600 0.8148
0.0000 -1.5693 0.8141
0.0563 -1.5683 0.8141
0.1126 -1.5652 0.8141
0.1687 -1.5600 0.8140
0.2246 -1.5529 0.8140
0.2801 -1.5437 0.8139
0.3353 -1.5325 0.8138
0.3901 -1.5192 0.8137
0.4443 -1.5040 0.8136
0.4979 -1.4869 0.8134
0.5509 -1.4678 0.8133
0.6031 -1.4468 0.8131
0.6545 -1.4239 0.8130
0.7050 -1.3991 0.8128
0.7546 -1.3726 0.8126
0.8032 -1.3443 0.8123
2.1666 -3.3472 2.0684
2.2853 -3.2673 2.0684
2.4011 -3.1831 2.0684
2.5138 -3.0949 2.0684
2.6233 -3.0026 2.0684
2.7294 -2.9065 2.0684
2.8320 -2.8067 2.0684
2.9309 -2.7032 2.0684
3.0260 -2.5963 2.0684
3.1173 -2.4860 2.0684
3.2045 -2.3725 2.0684
3.2876 -2.2559 2.0684
3.3664 -2.1364 2.0684
3.4410 -2.0142 2.0684
3.5110 -1.8894 2.0684
3.5766 -1.7621 2.0684
3.6375 -1.6326 2.0684
3.6938 -1.5010 2.0684
3.7453 -1.3674 2.0684
3.7920 -1.2321 2.0684
3.8338 -1.0952 2.0684
3.8706 -0.9569 2.0684
3.9025 -0.8173 2.0684
3.9293 -0.6767 2.0684
3.9511 -0.5352 2.0684
3.9677 -0.3931 2.0684
3.9793 -0.2504 2.0684
3.9857 -0.1074 2.0685
3.9870 0.0357 2.0685
3.9832 0.1788 2.0685
3.9742 0.3217 2.0685
3.9601 0.4642 2.0685
3.9409 0.6060 2.0685
3.9166 0.7471 2.0685
3.8873 0.8872 2.0685
3.8529 1.0262 2.0685
3.8136 1.1638 2.0685
3.7694 1.3000 2.0685
3.7203 1.4344 2.0685
3.6664 1.5671 2.0685
3.6078 1.6977 2.0685
3.5445 1.8261 2.0685
3.4767 1.9521 2.0685
3.4044 2.0757 2.0685
3.3277 2.1966 2.0685
3.2467 2.3146 2.0686
3.1616 2.4297 2.0686
3.0723 2.5416 2.0686
2.9791 2.6502 2.0686
2.8820 2.7555 2.0686
2.7813 2.8572 2.0686
2.6769 2.9552 2.0686
2.5691 3.0493 2.0686
2.4580 3.1396 2.0686
2.3437 3.2258 2.0686
2.2264 3.3079 2.0686
0.8067 1.2968 0.7923
0.7595 1.3245 0.7921
0.7112 1.3506 0.7919
0.6621 1.3750 0.7917
0.6122 1.3975 0.7915
0.5616 1.4183 0.7914
0.5102 1.4373 0.7913
0.4582 1.4545 0.7911
0.4056 1.4698 0.7910
0.3526 1.4832 0.7909
0.2991 1.4947 0.7908
0.2452 1.5044 0.7908
0.1910 1.5121 0.7907
0.1366 1.5179 0.7907
0.0820 1.5218 0.7906
0.0274 1.5237 0.7906
-0.0274 1.5237 0.7906
-0.0820 1.5218 0.7906
-0.1366 1.5179 0.7907
-0.1910 1.5121 0.7907
-0.2452 1.5044 0.7908
-0.2991 1.4948 0.7908
-0.3526 1.4833 0.7909
-0.4056 1.4698 0.7910
-0.4582 1.4545 0.7912
-0.5102 1.4374 0.7913
-0.5616 1.4184 0.7914
-0.6123 1.3976 0.7916
-0.6622 1.3750 0.7918
-0.7113 1.3507 0.7920
-0.7595 1.3246 0.7922
-0.8068 1.2969 0.7924
-2.2262 3.3076 2.0684
-2.3435 3.2255 2.0684
-2.4578 3.1393 2.0684
-2.5689 3.0491 2.0684
-2.6767 2.9549 2.0684
-2.7810 2.8569 2.0684
-2.8818 2.7552 2.0684
-2.9788 2.6500 2.0684
-3.0720 2.5414 2.0684
-3.1613 2.4295 2.0684
-3.2465 2.3144 2.0684
-3.3275 2.1964 2.0684
-3.4042 2.0755 2.0684
-3.4765 1.9520 2.0684
-3.5443 1.8260 2.0684
-3.6076 1.6975 2.0684
-3.6662 1.5670 2.0684
-3.7201 1.4343 2.0684
-3.7692 1.2999 2.0684
-3.8134 1.1638 2.0684
-3.8527 1.0261 2.0684
-3.8871 0.8872 2.0684
-3.9164 0.7471 2.0684
-3.9407 0.6060 2.0684
-3.9599 0.4641 2.0684
-3.9741 0.3217 2.0684
-3.9830 0.1788 2.0684
-3.9869 0.0357 2.0684
-3.9856 -0.1074 2.0684
-3.9792 -0.2504 2.0684
-3.9676 -0.3931 2.0684
-3.9510 -0.5352 2.0684
-3.9292 -0.6767 2.0684
-3.9024 -0.8173 2.0684
-3.8706 -0.9569 2.0684
-3.8337 -1.0952 2.0684
-3.7919 -1.2321 2.0684
-3.7453 -1.3674 2.0684
-3.6938 -1.5010 2.0684
-3.6375 -1.6326 2.0684
-3.5766 -1.7621 2.0684
-3.5110 -1.8894 2.0684
-3.4409 -2.0142 2.0684
-3.3664 -2.1364 2.0684
-3.2876 -2.2559 2.0684
-3.2045 -2.3725 2.0684
-3.1172 -2.4860 2.0684
-3.0260 -2.5962 2.0684
-2.9309 -2.7032 2.0684
-2.8319 -2.8067 2.0684
-2.7294 -2.9065 2.0684
-2.6233 -3.0026 2.0684
-2.5138 -3.0949 2.0684
-2.4011 -3.1831 2.0684
-2.2853 -3.2672 2.0684
-2.1665 -3.3472 2.0684
-0.8032 -1.3444 0.8124
-0.7546 -1.3727 0.8126
-0.7051 -1.3993 0.8128
-0.6545 -1.4240 0.8130
-0.6031 -1.4469 0.8132
-0.5509 -1.4679 0.8133
-0.4979 -1.4870 0.8135
-0.4443 -1.5041 0.8136
-0.3901 -1.5193 0.8137
-0.3353 -1.5325 0.8138
-0.2801 -1.5437 0.8139
-0.2246 -1.5529 0.8140
-0.1687 -1.5601 0.8140
-0.1126 -1.5652 0.8141
-0.0563 -1.5683 0.8141
0.0000 -1.4852 0.8135
0.0533 -1.4843 0.8134
0.1066 -1.4814 0.8134
0.1597 -1.4765 0.8134
0.2125 -1.4697 0.8133
0.2651 -1.4610 0.8133
0.3174 -1.4504 0.8132
0.3692 -1.4379 0.8131
0.4205 -1.4235 0.8130
0.4713 -1.4073 0.8128
0.5214 -1.3893 0.8127
0.5708 -1.3694 0.8125
0.6195 -1.3477 0.8124
0.6673 -1.3243 0.8122
0.7142 -1.2992 0.8120
0.7602 -1.2724 0.8118
0.8052 -1.2440 0.8116
2.1646 -3.0947 2.0684
2.2743 -3.0150 2.0684
2.3811 -2.9314 2.0684
2.4848 -2.8441 2.0684
2.5852 -2.7531 2.0684
2.6824 -2.6585 2.0684
2.7761 -2.5605 2.0684
2.8662 -2.4592 2.0684
2.9526 -2.3547 2.0684
3.0353 -2.2472 2.0684
3.1140 -2.1368 2.0684
3.1887 -2.0236 2.0684
3.2592 -1.9079 2.0684
3.3256 -1.7896 2.0684
3.3877 -1.6691 2.0684
3.4455 -1.5464 2.0684
3.4987 -1.4217 2.0684
3.5475 -1.2952 2.0684
3.5917 -1.1671 2.0684
3.6313 -1.0374 2.0684
3.6662 -0.9064 2.0684
3.6964 -0.7742 2.0684
3.7218 -0.6410 2.0684
3.7424 -0.5070 2.0684
3.7582 -0.3723 2.0684
3.7692 -0.2372 2.0685
3.7752 -0.1017 2.0685
3.7765 0.0339 2.0685
3.7728 0.1694 2.0685
3.7643 0.3047 2.0685
3.7510 0.4397 2.0685
3.7328 0.5740 2.0685
3.7098 0.7076 2.0685
3.6820 0.8404 2.0685
3.6494 0.9720 2.0685
3.6122 1.1023 2.0685
3.5703 1.2313 2.0685
3.5238 1.3587 2.0685
3.4728 1.4843 2.0685
3.4173 1.6080 2.0685
3.3574 1.7296 2.0685
3.2931 1.8490 2.0685
3.2246 1.9661 2.0685
3.1520 2.0806 2.0685
3.0753 2.1924 2.0686
2.9946 2.3014 2.0686
2.9100 2.4074 2.0686
2.8218 2.5103 2.0686
2.7298 2.6099 2.0686
2.6344 2.7063 2.0686
2.5355 2.7991 2.0686
2.4334 2.8883 2.0686
2.3282 2.9738 2.0686
2.2199 3.0555 2.0686
0.8085 1.2012 0.7930
0.7646 1.2291 0.7928
0.7198 1.2554 0.7926
0.6741 1.2802 0.7924
0.6276 1.3032 0.7923
0.5803 1.3247 0.7921
0.5323 1.3444 0.7920
0.4836 1.3624 0.7918
0.4343 1.3787 0.7917
0.3845 1.3932 0.7916
0.3342 1.4059 0.7915
0.2835 1.4169 0.7914
0.2324 1.4260 0.7913
0.1811 1.4333 0.7913
0.1295 1.4388 0.7913
0.0778 1.4425 0.7912
0.0259 1.4444 0.7912
-0.0259 1.4444 0.7912
-0.0778 1.4425 0.7912
-0.1295 1.4388 0.7913
-0.1811 1.4334 0.7913
-0.2324 1.4260 0.7914
-0.2835 1.4169 0.7914
-0.3342 1.4060 0.7915
-0.3845 1.3932 0.7916
-0.4343 1.3787 0.7917
-0.4836 1.3625 0.7919
-0.5323 1.3445 0.7920
-0.5803 1.3247 0.7922
-0.6277 1.3033 0.7923
-0.6742 1.2802 0.7925
-0.7199 1.2555 0.7927
-0.7647 1.2292 0.7929
-0.8085 1.2013 0.7931
-2.2198 3.0552 2.0684
-2.3280 2.9735 2.0684
-2.4332 2.8881 2.0684
-2.5353 2.7989 2.0684
-2.6342 2.7060 2.0684
-2.7296 2.6097 2.0684
-2.8215 2.5101 2.0684
-2.9098 2.4072 2.0684
-2.9944 2.3012 2.0684
-3.0750 2.1922 2.0684
-3.1517 2.0804 2.0684
-3.2244 1.9659 2.0684
-3.2929 1.8489 2.0684
-3.3571 1.7295 2.0684
-3.4171 1.6079 2.0684
-3.4726 1.4842 2.0684
-3.5236 1.3586 2.0684
-3.5701 1.2313 2.0684
-3.6120 1.1023 2.0684
-3.6493 0.9719 2.0684
-3.6818 0.8403 2.0684
-3.7096 0.7076 2.0684
-3.7326 0.5740 2.0684
-3.7508 0.4396 2.0684
-3.7642 0.3047 2.0684
-3.7727 0.1694 2.0684
-3.7764 0.0339 2.0684
-3.7751 -0.1017 2.0684
-3.7691 -0.2372 2.0684
-3.7581 -0.3723 2.0684
-3.7423 -0.5070 2.0684
-3.7217 -0.6410 2.0684
-3.6963 -0.7742 2.0684
-3.6662 -0.9064 2.0684
-3.6313 -1.0374 2.0684
-3.5917 -1.1671 2.0684
-3.5475 -1.2952 2.0684
-3.4987 -1.4217 2.0684
-3.4454 -1.5464 2.0684
-3.3877 -1.6691 2.0684
-3.3256 -1.7896 2.0684
-3.2592 -1.9078 2.0684
-3.1886 -2.0236 2.0684
-3.1139 -2.1368 2.0684
-3.0352 -2.2472 2.0684
-2.9526 -2.3547 2.0684
-2.8662 -2.4591 2.0684
-2.7761 -2.5605 2.0684
