ply
format ascii 1.0
element vertex 2179
property float32 x
property float32 y
property float32 z
end_header
7.9579 -3.5716 2.0500
8.0743 -3.2810 2.0483
8.1807 -2.9868 2.0468
8.2770 -2.6893 2.0454
8.3630 -2.3890 2.0441
8.4388 -2.0862 2.0430
8.5043 -1.7811 2.0421
8.5594 -1.4741 2.0413
8.6003 -1.1650 2.0397
8.6244 -0.8543 2.0369
8.6579 -0.5447 2.0388
8.6989 -0.2343 2.0452
8.7376 0.0784 2.0536
8.7294 0.3920 2.0537
8.7102 0.7052 2.0538
8.6801 1.0175 2.0540
8.6391 1.3286 2.0543
8.5873 1.6381 2.0546
8.5246 1.9457 2.0550
8.4512 2.2509 2.0555
8.3672 2.5535 2.0560
8.2725 2.8531 2.0566
8.1675 3.1492 2.0573
8.0521 3.4416 2.0580
7.9265 3.7299 2.0589
7.7908 4.0138 2.0597
7.6507 4.2959 2.0622
7.4942 4.5693 2.0629
7.3280 4.8372 2.0636
7.1524 5.0991 2.0644
6.9677 5.3548 2.0653
6.7725 5.6027 2.0658
6.5670 5.8422 2.0658
6.3531 6.0742 2.0658
6.1310 6.2983 2.0658
5.9009 6.5143 2.0658
5.6633 6.7220 2.0658
5.4183 6.9209 2.0658
5.1664 7.1110 2.0658
4.9078 7.2918 2.0658
4.7175 7.5833 2.0990
4.6946 8.1877 2.2182
4.3976 8.3509 2.2182
4.0950 8.5034 2.2182
3.7871 8.6449 2.2182
3.4744 8.7753 2.2182
3.1571 8.8944 2.2182
2.8358 9.0020 2.2182
2.5109 9.0980 2.2182
2.1827 9.1822 2.2182
1.8517 9.2547 2.2182
1.5183 9.3152 2.2182
1.1829 9.3637 2.2182
0.8460 9.4001 2.2182
0.5080 9.4244 2.2182
0.1694 9.4366 2.2182
-0.1694 9.4366 2.2182
-0.5080 9.4244 2.2182
-0.8460 9.4001 2.2182
-1.1829 9.3637 2.2182
-1.5183 9.3152 2.2182
-1.8517 9.2547 2.2182
-2.1827 9.1822 2.2182
-2.5109 9.0980 2.2182
-2.8358 9.0020 2.2182
-3.1571 8.8944 2.2182
-3.4744 8.7753 2.2182
-3.7871 8.6449 2.2182
-4.0950 8.5034 2.2182
-4.3976 8.3509 2.2182
-4.6946 8.1877 2.2182
-4.9854 8.0139 2.2182
-5.2699 7.8298 2.2182
-5.5476 7.6356 2.2182
-5.8181 7.4315 2.2182
-6.0811 7.2179 2.2182
-6.3363 6.9949 2.2182
-6.5833 6.7630 2.2182
-6.8218 6.5223 2.2182
-7.0515 6.2732 2.2182
-7.2722 6.0161 2.2182
-7.4834 5.7511 2.2182
-7.6851 5.4788 2.2182
-7.8768 5.1994 2.2182
-8.0583 4.9133 2.2182
-8.2295 4.6209 2.2182
-8.3901 4.3225 2.2182
-8.5398 4.0185 2.2182
-8.6786 3.7094 2.2182
-8.8061 3.3955 2.2182
-8.9223 3.0772 2.2182
-9.0271 2.7549 2.2182
-9.1201 2.4291 2.2182
-9.2014 2.1002 2.2182
-9.2709 1.7685 2.2182
-9.3284 1.4346 2.2182
-9.3739 1.0988 2.2182
-9.4073 0.7616 2.2182
-9.4286 0.4234 2.2182
-8.7893 0.0789 2.0658
-8.7864 -0.2367 2.0658
-8.7723 -0.5519 2.0658
-8.7468 -0.8664 2.0658
-8.7101 -1.1799 2.0658
-8.6621 -1.4918 2.0658
-8.6030 -1.8017 2.0658
-8.5328 -2.1094 2.0658
-8.4515 -2.4143 2.0658
-8.3594 -2.7162 2.0658
-8.2565 -3.0145 2.0658
-8.1430 -3.3089 2.0658
-8.0190 -3.5991 2.0658
-7.8846 -3.8846 2.0658
-7.7401 -4.1651 2.0658
-7.5856 -4.4403 2.0658
-7.4213 -4.7097 2.0658
-7.2475 -4.9731 2.0658
-7.0643 -5.2300 2.0658
-6.8720 -5.4802 2.0658
-6.6709 -5.7234 2.0658
-6.4611 -5.9592 2.0658
-6.2430 -6.1872 2.0658
-6.0169 -6.4074 2.0658
-5.7830 -6.6192 2.0658
-5.7617 -7.0934 2.1478
-5.6837 -7.5348 2.2182
-5.4096 -7.7339 2.2182
-5.1285 -7.9231 2.2182
-4.8408 -8.1021 2.2182
-4.5468 -8.2707 2.2182
-4.2470 -8.4285 2.2182
-3.9417 -8.5756 2.2182
-3.6313 -8.7115 2.2182
-3.3163 -8.8363 2.2182
-2.9970 -8.9496 2.2182
-2.6738 -9.0514 2.2182
-2.3472 -9.1416 2.2182
-2.0175 -9.2199 2.2182
-1.6852 -9.2864 2.2182
-1.3508 -9.3409 2.2182
-1.0146 -9.3834 2.2182
-0.6771 -9.4138 2.2182
-0.3388 -9.4320 2.2182
0.0000 -8.5671 2.2182
0.3075 -8.5615 2.2182
0.6147 -8.5450 2.2182
0.9210 -8.5174 2.2182
1.2261 -8.4789 2.2182
1.5297 -8.4294 2.2182
1.8313 -8.3691 2.2182
2.1305 -8.2979 2.2182
2.4270 -8.2161 2.2182
2.7204 -8.1237 2.2182
3.0103 -8.0208 2.2182
3.2962 -7.9076 2.2182
3.5779 -7.7842 2.2182
3.8551 -7.6507 2.2182
4.1272 -7.5074 2.2182
4.3940 -7.3544 2.2182
4.6552 -7.1919 2.2182
4.7088 -6.7320 2.1271
4.8047 -6.3695 2.0658
5.0303 -6.1929 2.0658
5.2493 -6.0084 2.0658
5.4616 -5.8161 2.0658
5.6669 -5.6163 2.0658
5.8648 -5.4092 2.0658
6.0552 -5.1952 2.0658
6.2378 -4.9745 2.0658
6.4124 -4.7474 2.0658
6.5786 -4.5141 2.0658
6.7364 -4.2751 2.0658
6.8851 -4.0302 2.0656
7.0187 -3.7769 2.0637
7.1435 -3.5195 2.0619
7.2593 -3.2581 2.0602
7.3660 -2.9932 2.0586
7.4635 -2.7249 2.0572
7.5518 -2.4537 2.0559
7.6308 -2.1799 2.0548
7.7003 -1.9036 2.0538
7.7604 -1.6253 2.0529
7.8109 -1.3452 2.0522
7.8519 -1.0636 2.0516
7.8833 -0.7809 2.0511
7.8976 -0.4969 2.0489
7.9221 -0.2134 2.0519
7.9511 0.0714 2.0588
7.9436 0.3567 2.0588
7.9261 0.6417 2.0589
7.8986 0.9259 2.0591
7.8612 1.2090 2.0593
7.8139 1.4906 2.0596
7.7568 1.7704 2.0600
7.6898 2.0482 2.0604
7.6132 2.3234 2.0609
7.5269 2.5959 2.0615
7.4311 2.8653 2.0621
7.3258 3.1312 2.0628
7.2113 3.3934 2.0635
7.0876 3.6515 2.0643
6.9548 3.9052 2.0652
6.8121 4.1535 2.0658
6.6586 4.3953 2.0658
6.4965 4.6315 2.0658
6.3261 4.8617 2.0658
6.1475 5.0857 2.0658
5.9610 5.3031 2.0658
5.7668 5.5136 2.0658
5.5652 5.7171 2.0658
5.3563 5.9132 2.0658
5.1406 6.1016 2.0658
4.9183 6.2822 2.0658
4.7154 6.4902 2.0771
4.6970 6.9786 2.1780
4.5254 7.2743 2.2182
4.2613 7.4321 2.2182
3.9918 7.5803 2.2182
3.7171 7.7187 2.2182
3.4376 7.8471 2.2182
3.1537 7.9655 2.2182
2.8658 8.0735 2.2182
2.5741 8.1712 2.2182
2.2792 8.2583 2.2182
1.9812 8.3348 2.2182
1.6808 8.4006 2.2182
1.3781 8.4555 2.2182
1.0737 8.4995 2.2182
0.7679 8.5326 2.2182
0.4612 8.5546 2.2182
0.1538 8.5657 2.2182
-0.1538 8.5657 2.2182
-0.4612 8.5547 2.2182
-0.7679 8.5326 2.2182
-1.0737 8.4995 2.2182
-1.3781 8.4555 2.2182
-1.6808 8.4006 2.2182
-1.9812 8.3348 2.2182
-2.2792 8.2583 2.2182
-2.5741 8.1712 2.2182
-2.8658 8.0735 2.2182
-3.1537 7.9655 2.2182
-3.4376 7.8471 2.2182
-3.7171 7.7187 2.2182
-3.9918 7.5803 2.2182
-4.2613 7.4321 2.2182
-4.5254 7.2743 2.2182
-4.7836 7.1072 2.2182
-5.0356 6.9309 2.2182
-5.2811 6.7457 2.2182
-5.5199 6.5518 2.2182
-5.7515 6.3494 2.2182
-5.9757 6.1388 2.2182
-6.1922 5.9204 2.2182
-6.4008 5.6943 2.2182
-6.6010 5.4609 2.2182
-6.7928 5.2204 2.2182
-6.9758 4.9732 2.2182
-7.1498 4.7196 2.2182
-7.3146 4.4599 2.2182
-7.4700 4.1944 2.2182
-7.6158 3.9236 2.2182
-7.7517 3.6477 2.2182
-7.8777 3.3671 2.2182
-7.9934 3.0821 2.2182
-8.0989 2.7932 2.2182
-8.1940 2.5007 2.2182
-8.2785 2.2049 2.2182
-8.3523 1.9064 2.2182
-8.4153 1.6053 2.2182
-8.4675 1.3022 2.2182
-8.5088 0.9974 2.2182
-7.9524 0.6438 2.0658
-7.9704 0.3579 2.0658
-7.9781 0.0716 2.0658
-7.9756 -0.2148 2.0658
-7.9627 -0.5010 2.0658
-7.9396 -0.7865 2.0658
-7.9063 -1.0710 2.0658
-7.8627 -1.3541 2.0658
-7.8090 -1.6355 2.0658
-7.7453 -1.9147 2.0658
-7.6716 -2.1915 2.0658
-7.5880 -2.4655 2.0658
-7.4946 -2.7363 2.0658
-7.3915 -3.0035 2.0658
-7.2789 -3.2669 2.0658
-7.1570 -3.5261 2.0658
-7.0258 -3.7807 2.0658
-6.8856 -4.0305 2.0658
-6.7364 -4.2751 2.0658
-6.5786 -4.5141 2.0658
-6.4124 -4.7474 2.0658
-6.2378 -4.9745 2.0658
-6.0552 -5.1952 2.0658
-5.8648 -5.4092 2.0658
-5.7692 -5.7176 2.1031
-5.7568 -6.1304 2.1774
-5.6366 -6.4516 2.2182
-5.4014 -6.6498 2.2182
-5.1592 -6.8394 2.2182
-4.9104 -7.0202 2.2182
-4.6552 -7.1919 2.2182
-4.3940 -7.3544 2.2182
-4.1272 -7.5074 2.2182
-3.8551 -7.6507 2.2182
-3.5780 -7.7842 2.2182
-3.2962 -7.9076 2.2182
-3.0103 -8.0208 2.2182
-2.7204 -8.1237 2.2182
-2.4270 -8.2161 2.2182
-2.1305 -8.2979 2.2182
-1.8313 -8.3691 2.2182
-1.5297 -8.4294 2.2182
-1.2261 -8.4789 2.2182
-0.9210 -8.5174 2.2182
-0.6146 -8.5450 2.2182
-0.3075 -8.5616 2.2182
0.0000 -7.8355 2.2182
0.2813 -7.8304 2.2182
0.5622 -7.8153 2.2182
0.8423 -7.7901 2.2182
1.1214 -7.7548 2.2182
1.3991 -7.7096 2.2182
1.6749 -7.6544 2.2182
1.9486 -7.5893 2.2182
2.2198 -7.5145 2.2182
2.4881 -7.4299 2.2182
2.7532 -7.3359 2.2182
3.0147 -7.2323 2.2182
3.2724 -7.1194 2.2182
3.5259 -6.9974 2.2182
3.7748 -6.8663 2.2182
4.0188 -6.7264 2.2182
4.2577 -6.5778 2.2182
4.4910 -6.4207 2.2182
4.6941 -6.2228 2.2066
4.7110 -5.7999 2.1153
4.8011 -5.4953 2.0658
4.9952 -5.3194 2.0658
5.1830 -5.1366 2.0658
5.3640 -4.9473 2.0658
5.5381 -4.7515 2.0658
5.7051 -4.5497 2.0658
5.8648 -4.3420 2.0658
6.0168 -4.1286 2.0658
6.1612 -3.9100 2.0658
6.2976 -3.6863 2.0658
6.4258 -3.4579 2.0658
6.5458 -3.2250 2.0658
6.6573 -2.9879 2.0658
6.7603 -2.7470 2.0658
6.8546 -2.5026 2.0658
6.9370 -2.2540 2.0649
7.0098 -2.0025 2.0638
7.0740 -1.7488 2.0629
7.1294 -1.4931 2.0621
7.1760 -1.2358 2.0614
7.2139 -0.9772 2.0608
7.2428 -0.7175 2.0604
7.2629 -0.4569 2.0601
7.2714 -0.1959 2.0592
7.2873 0.0654 2.0631
7.2805 0.3270 2.0631
7.2644 0.5881 2.0632
7.2392 0.8486 2.0634
7.2048 1.1080 2.0636
7.1614 1.3661 2.0639
7.1089 1.6226 2.0642
7.0474 1.8771 2.0646
6.9771 2.1293 2.0651
6.8978 2.3790 2.0656
6.8085 2.6252 2.0658
6.7099 2.8680 2.0658
6.6026 3.1070 2.0658
6.4869 3.3420 2.0658
6.3627 3.5727 2.0658
6.2304 3.7988 2.0658
6.0900 4.0200 2.0658
5.9418 4.2360 2.0658
5.7859 4.4465 2.0658
5.6225 4.6514 2.0658
5.4519 4.8502 2.0658
5.2743 5.0428 2.0658
5.0899 5.2289 2.0658
4.8989 5.4082 2.0658
4.7184 5.6005 2.0731
4.6970 5.9996 2.1570
4.6056 6.3390 2.2182
4.3751 6.5003 2.2182
4.1389 6.6531 2.2182
3.8974 6.7974 2.2182
3.6509 6.9329 2.2182
3.3997 7.0595 2.2182
3.1441 7.1770 2.2182
2.8844 7.2852 2.2182
2.6211 7.3841 2.2182
2.3543 7.4734 2.2182
2.0845 7.5531 2.2182
1.8121 7.6231 2.2182
1.5372 7.6832 2.2182
1.2605 7.7334 2.2182
0.9820 7.7737 2.2182
0.7024 7.8039 2.2182
0.4218 7.8241 2.2182
0.1407 7.8342 2.2182
-0.1407 7.8342 2.2182
-0.4218 7.8241 2.2182
-0.7024 7.8039 2.2182
-0.9820 7.7737 2.2182
-1.2605 7.7334 2.2182
-1.5372 7.6832 2.2182
-1.8121 7.6231 2.2182
-2.0845 7.5531 2.2182
-2.3543 7.4734 2.2182
-2.6211 7.3841 2.2182
-2.8844 7.2852 2.2182
-3.1441 7.1770 2.2182
-3.3997 7.0595 2.2182
-3.6509 6.9329 2.2182
-3.8974 6.7974 2.2182
-4.1389 6.6531 2.2182
-4.3751 6.5003 2.2182
-4.6056 6.3390 2.2182
-4.8302 6.1696 2.2182
-5.0485 5.9923 2.2182
-5.2604 5.8072 2.2182
-5.4654 5.6146 2.2182
-5.6634 5.4148 2.2182
-5.8542 5.2080 2.2182
-6.0373 4.9945 2.2182
-6.2127 4.7746 2.2182
-6.3801 4.5485 2.2182
-6.5393 4.3165 2.2182
-6.6900 4.0790 2.2182
-6.8321 3.8362 2.2182
-6.9654 3.5885 2.2182
-7.0897 3.3362 2.2182
-7.2049 3.0795 2.2182
-7.3108 2.8189 2.2182
-7.4073 2.5547 2.2182
-7.4942 2.2872 2.2182
-7.5715 2.0166 2.2182
-7.6390 1.7436 2.2182
-7.6967 1.4682 2.2182
-7.7444 1.1910 2.2182
-7.2475 0.8496 2.0658
-7.2733 0.5888 2.0658
-7.2898 0.3274 2.0658
-7.2968 0.0655 2.0658
-7.2945 -0.1965 2.0658
-7.2827 -0.4582 2.0658
-7.2616 -0.7193 2.0658
-7.2311 -0.9795 2.0658
-7.1913 -1.2385 2.0658
-7.1422 -1.4958 2.0658
-7.0839 -1.7512 2.0658
-7.0165 -2.0044 2.0658
-6.9400 -2.2549 2.0658
-6.8546 -2.5026 2.0658
-6.7603 -2.7470 2.0658
-6.6574 -2.9879 2.0658
-6.5458 -3.2250 2.0658
-6.4258 -3.4579 2.0658
-6.2976 -3.6863 2.0658
-6.1612 -3.9100 2.0658
-6.0168 -4.1287 2.0658
-5.8648 -4.3420 2.0658
-5.7714 -4.6025 2.0898
-5.7615 -4.9432 2.1491
-5.7506 -5.3038 2.2146
-5.5653 -5.5156 2.2182
-5.3637 -5.7118 2.2182
-5.1553 -5.9007 2.2182
-4.9401 -6.0819 2.2182
-4.7186 -6.2553 2.2182
-4.4910 -6.4207 2.2182
-4.2577 -6.5778 2.2182
-4.0188 -6.7263 2.2182
-3.7748 -6.8663 2.2182
-3.5259 -6.9974 2.2182
-3.2724 -7.1194 2.2182
-3.0147 -7.2323 2.2182
-2.7532 -7.3358 2.2182
-2.4881 -7.4299 2.2182
-2.2198 -7.5145 2.2182
-1.9486 -7.5893 2.2182
-1.6749 -7.6544 2.2182
-1.3991 -7.7096 2.2182
-1.1214 -7.7548 2.2182
-0.8423 -7.7901 2.2182
-0.5622 -7.8153 2.2182
-0.2813 -7.8304 2.2182
0.0000 -7.2117 2.2182
0.2589 -7.2071 2.2182
0.5174 -7.1931 2.2182
0.7753 -7.1699 2.2182
1.0322 -7.1375 2.2182
1.2877 -7.0958 2.2182
1.5416 -7.0450 2.2182
1.7935 -6.9851 2.2182
2.0431 -6.9163 2.2182
2.2900 -6.8385 2.2182
2.5340 -6.7519 2.2182
2.7747 -6.6565 2.2182
3.0119 -6.5526 2.2182
3.2452 -6.4403 2.2182
3.4743 -6.3197 2.2182
3.6989 -6.1909 2.2182
3.9187 -6.0541 2.2182
4.1335 -5.9095 2.2182
4.3430 -5.7574 2.2182
4.5469 -5.5978 2.2182
4.6962 -5.3752 2.1954
4.7108 -5.0164 2.1166
4.7704 -4.7277 2.0658
4.9370 -4.5535 2.0658
5.0973 -4.3733 2.0658
5.2510 -4.1875 2.0658
5.3979 -3.9963 2.0658
5.5379 -3.8000 2.0658
5.6707 -3.5987 2.0658
5.7962 -3.3929 2.0658
5.9143 -3.1826 2.0658
6.0247 -2.9683 2.0658
6.1274 -2.7501 2.0658
6.2221 -2.5284 2.0658
6.3089 -2.3034 2.0658
6.3875 -2.0754 2.0658
6.4579 -1.8448 2.0658
6.5199 -1.6118 2.0658
6.5736 -1.3767 2.0658
6.6188 -1.1399 2.0658
6.6554 -0.9015 2.0658
6.6835 -0.6621 2.0658
6.7030 -0.4217 2.0658
6.7138 -0.1808 2.0658
6.7160 0.0603 2.0658
6.7095 0.3013 2.0658
6.6943 0.5420 2.0658
6.6706 0.7819 2.0658
6.6382 1.0209 2.0658
6.5973 1.2585 2.0658
6.5478 1.4945 2.0658
6.4900 1.7286 2.0658
6.4237 1.9604 2.0658
6.3492 2.1898 2.0658
6.2665 2.4163 2.0658
6.1758 2.6396 2.0658
6.0770 2.8596 2.0658
5.9705 3.0759 2.0658
5.8562 3.2883 2.0658
5.7344 3.4964 2.0658
5.6052 3.7000 2.0658
5.4688 3.8988 2.0658
5.3253 4.0926 2.0658
5.1749 4.2811 2.0658
5.0179 4.4641 2.0658
4.8544 4.6413 2.0658
4.7127 4.8413 2.0781
4.6970 5.1853 2.1519
4.6466 5.5152 2.2182
4.4456 5.6785 2.2182
4.2389 5.8344 2.2182
4.0268 5.9828 2.2182
3.8094 6.1235 2.2182
3.5872 6.2563 2.2182
3.3603 6.3810 2.2182
3.1290 6.4975 2.2182
2.8938 6.6057 2.2182
2.6548 6.7053 2.2182
2.4124 6.7962 2.2182
2.1669 6.8785 2.2182
1.9186 6.9518 2.2182
1.6678 7.0162 2.2182
1.4149 7.0715 2.2182
1.1601 7.1178 2.2182
0.9039 7.1548 2.2182
0.6465 7.1827 2.2182
0.3882 7.2013 2.2182
0.1295 7.2105 2.2182
-0.1295 7.2105 2.2182
-0.3882 7.2013 2.2182
-0.6465 7.1827 2.2182
-0.9039 7.1548 2.2182
-1.1601 7.1178 2.2182
-1.4149 7.0715 2.2182
-1.6678 7.0162 2.2182
-1.9186 6.9518 2.2182
-2.1669 6.8785 2.2182
-2.4124 6.7962 2.2182
-2.6548 6.7053 2.2182
-2.8938 6.6057 2.2182
-3.1290 6.4975 2.2182
-3.3603 6.3810 2.2182
-3.5871 6.2563 2.2182
-3.8094 6.1235 2.2182
-4.0268 5.9828 2.2182
-4.2389 5.8344 2.2182
-4.4456 5.6785 2.2182
-4.6466 5.5152 2.2182
-4.8416 5.3449 2.2182
-5.0303 5.1676 2.2182
-5.2126 4.9837 2.2182
-5.3881 4.7934 2.2182
-5.5567 4.5969 2.2182
-5.7181 4.3945 2.2182
-5.8722 4.1864 2.2182
-6.0187 3.9729 2.2182
-6.1574 3.7543 2.2182
-6.2882 3.5308 2.2182
-6.4109 3.3028 2.2182
-6.5253 3.0706 2.2182
-6.6314 2.8344 2.2182
-6.7288 2.5945 2.2182
-6.8176 2.3513 2.2182
-6.8976 2.1051 2.2182
-6.9688 1.8561 2.2182
-7.0309 1.6048 2.2182
-7.0840 1.3513 2.2182
-7.1279 1.0962 2.2182
-6.8465 0.8025 2.1202
-6.6943 0.5420 2.0658
-6.7095 0.3013 2.0658
-6.7160 0.0603 2.0658
-6.7138 -0.1808 2.0658
-6.7030 -0.4217 2.0658
-6.6835 -0.6621 2.0658
-6.6554 -0.9015 2.0658
-6.6188 -1.1399 2.0658
-6.5736 -1.3767 2.0658
-6.5199 -1.6118 2.0658
-6.4579 -1.8448 2.0658
-6.3875 -2.0754 2.0658
-6.3089 -2.3034 2.0658
-6.2221 -2.5284 2.0658
-6.1274 -2.7501 2.0658
-6.0247 -2.9683 2.0658
-5.9143 -3.1826 2.0658
-5.7962 -3.3929 2.0658
-5.7694 -3.6614 2.1017
-5.7615 -3.9534 2.1492
-5.7528 -4.2590 2.2016
-5.6383 -4.4964 2.2182
-5.4733 -4.6959 2.2182
-5.3012 -4.8894 2.2182
-5.1223 -5.0765 2.2182
-4.9368 -5.2571 2.2182
-4.7449 -5.4309 2.2182
-4.5469 -5.5978 2.2182
-4.3430 -5.7574 2.2182
-4.1335 -5.9095 2.2182
-3.9187 -6.0541 2.2182
-3.6989 -6.1909 2.2182
-3.4743 -6.3197 2.2182
-3.2452 -6.4403 2.2182
-3.0119 -6.5527 2.2182
-2.7747 -6.6565 2.2182
-2.5340 -6.7518 2.2182
-2.2900 -6.8385 2.2182
-2.0431 -6.9163 2.2182
-1.7935 -6.9851 2.2182
-1.5416 -7.0450 2.2182
-1.2877 -7.0958 2.2182
-1.0322 -7.1375 2.2182
-0.7753 -7.1699 2.2182
-0.5174 -7.1931 2.2182
-0.2589 -7.2071 2.2182
0.0000 -6.6731 2.2182
0.2395 -6.6688 2.2182
0.4788 -6.6559 2.2182
0.7174 -6.6344 2.2182
0.9551 -6.6044 2.2182
1.1915 -6.5658 2.2182
1.4264 -6.5188 2.2182
1.6595 -6.4634 2.2182
1.8905 -6.3997 2.2182
2.1190 -6.3277 2.2182
2.3447 -6.2476 2.2182
2.5675 -6.1594 2.2182
2.7869 -6.0632 2.2182
3.0028 -5.9593 2.2182
3.2148 -5.8477 2.2182
3.4226 -5.7285 2.2182
3.6260 -5.6019 2.2182
3.8248 -5.4682 2.2182
4.0186 -5.3274 2.2182
4.2073 -5.1797 2.2182
4.3905 -5.0253 2.2182
4.5680 -4.8645 2.2182
4.6958 -4.6538 2.1976
4.7084 -4.3427 2.1292
4.7277 -4.0562 2.0707
4.8588 -3.8747 2.0658
4.9947 -3.6978 2.0658
5.1242 -3.5162 2.0658
5.2472 -3.3300 2.0658
5.3633 -3.1394 2.0658
5.4725 -2.9449 2.0658
5.5747 -2.7466 2.0658
5.6697 -2.5447 2.0658
5.7574 -2.3395 2.0658
5.8377 -2.1313 2.0658
5.9104 -1.9204 2.0658
5.9756 -1.7070 2.0658
6.0330 -1.4914 2.0658
6.0826 -1.2739 2.0658
6.1244 -1.0547 2.0658
6.1584 -0.8342 2.0658
6.1843 -0.6126 2.0658
6.2023 -0.3902 2.0658
6.2123 -0.1673 2.0658
6.2143 0.0558 2.0658
6.2083 0.2788 2.0658
6.1943 0.5015 2.0658
6.1723 0.7235 2.0658
6.1424 0.9446 2.0658
6.1045 1.1645 2.0658
6.0588 1.3829 2.0658
6.0052 1.5995 2.0658
5.9440 1.8140 2.0658
5.8750 2.0262 2.0658
5.7985 2.2358 2.0658
5.7145 2.4425 2.0658
5.6231 2.6460 2.0658
5.5245 2.8462 2.0658
5.4188 3.0427 2.0658
5.3061 3.2352 2.0658
5.1865 3.4236 2.0658
5.0603 3.6076 2.0658
4.9275 3.7869 2.0658
4.7884 3.9613 2.0658
4.7070 4.1875 2.0942
4.6949 4.4888 2.1591
4.6546 4.7817 2.2182
4.4800 4.9457 2.2182
4.2996 5.1033 2.2182
4.1136 5.2544 2.2182
3.9223 5.3986 2.2182
3.7260 5.5359 2.2182
3.5249 5.6661 2.2182
3.3192 5.7890 2.2182
3.1093 5.9044 2.2182
2.8953 6.0122 2.2182
2.6776 6.1123 2.2182
2.4565 6.2045 2.2182
2.2322 6.2886 2.2182
2.0050 6.3647 2.2182
1.7753 6.4326 2.2182
1.5432 6.4922 2.2182
1.3092 6.5434 2.2182
1.0735 6.5862 2.2182
0.8364 6.6204 2.2182
0.5982 6.6462 2.2182
0.3592 6.6634 2.2182
0.1198 6.6720 2.2182
-0.1198 6.6720 2.2182
-0.3592 6.6634 2.2182
-0.5982 6.6462 2.2182
-0.8364 6.6205 2.2182
-1.0735 6.5862 2.2182
-1.3092 6.5434 2.2182
-1.5432 6.4922 2.2182
-1.7753 6.4326 2.2182
-2.0050 6.3647 2.2182
-2.2322 6.2886 2.2182
-2.4565 6.2045 2.2182
-2.6777 6.1123 2.2182
-2.8953 6.0122 2.2182
-3.1093 5.9044 2.2182
-3.3192 5.7890 2.2182
-3.5249 5.6661 2.2182
-3.7260 5.5359 2.2182
-3.9223 5.3986 2.2182
-4.1136 5.2543 2.2182
-4.2996 5.1033 2.2182
-4.4800 4.9457 2.2182
-4.6546 4.7817 2.2182
-4.8233 4.6115 2.2182
-4.9857 4.4354 2.2182
-5.1417 4.2536 2.2182
-5.2911 4.0663 2.2182
-5.4336 3.8737 2.2182
-5.5692 3.6762 2.2182
-5.6975 3.4739 2.2182
-5.8186 3.2671 2.2182
-5.9321 3.0562 2.2182
-6.0380 2.8412 2.2182
-6.1361 2.6227 2.2182
-6.2263 2.4007 2.2182
-6.3084 2.1757 2.2182
-6.3825 1.9478 2.2182
-6.4483 1.7175 2.2182
-6.5058 1.4849 2.2182
-6.5549 1.2504 2.2182
-6.5955 1.0143 2.2182
-6.6277 0.7769 2.2182
-6.4560 0.5227 2.1530
-6.2506 0.2807 2.0798
-6.2143 0.0558 2.0658
-6.2123 -0.1673 2.0658
-6.2023 -0.3902 2.0658
-6.1843 -0.6126 2.0658
-6.1583 -0.8342 2.0658
-6.1244 -1.0547 2.0658
-6.0826 -1.2739 2.0658
-6.0330 -1.4914 2.0658
-5.9756 -1.7070 2.0658
-5.9104 -1.9204 2.0658
-5.8377 -2.1313 2.0658
-5.7744 -2.3464 2.0719
-5.7694 -2.5894 2.1021
-5.7637 -2.8397 2.1358
-5.7575 -3.0982 2.1733
-5.7505 -3.3661 2.2149
-5.6343 -3.5756 2.2182
-5.5023 -3.7755 2.2182
-5.3632 -3.9706 2.2182
-5.2172 -4.1606 2.2182
-5.0645 -4.3452 2.2182
-4.9053 -4.5242 2.2182
-4.7397 -4.6974 2.2182
-4.5680 -4.8645 2.2182
-4.3905 -5.0253 2.2182
-4.2073 -5.1797 2.2182
-4.0186 -5.3273 2.2182
-3.8248 -5.4682 2.2182
-3.6260 -5.6019 2.2182
-3.4226 -5.7285 2.2182
-3.2148 -5.8477 2.2182
-3.0028 -5.9593 2.2182
-2.7869 -6.0632 2.2182
-2.5675 -6.1594 2.2182
-2.3447 -6.2476 2.2182
-2.1190 -6.3277 2.2182
-1.8905 -6.3997 2.2182
-1.6595 -6.4634 2.2182
-1.4264 -6.5188 2.2182
-1.1915 -6.5658 2.2182
-0.9551 -6.6044 2.2182
-0.7174 -6.6344 2.2182
-0.4788 -6.6559 2.2182
-0.2395 -6.6688 2.2182
0.0000 -6.2028 2.2182
0.2227 -6.1988 2.2182
0.4450 -6.1868 2.2182
0.6668 -6.1669 2.2182
0.8878 -6.1389 2.2182
1.1076 -6.1031 2.2182
1.3259 -6.0594 2.2182
1.5426 -6.0079 2.2182
1.7572 -5.9487 2.2182
1.9696 -5.8818 2.2182
2.1795 -5.8073 2.2182
2.3866 -5.7253 2.2182
2.5905 -5.6359 2.2182
2.7912 -5.5393 2.2182
2.9882 -5.4356 2.2182
3.1814 -5.3248 2.2182
3.3705 -5.2072 2.2182
3.5552 -5.0828 2.2182
3.7354 -4.9519 2.2182
3.9108 -4.8146 2.2182
4.0811 -4.6712 2.2182
4.2461 -4.5216 2.2182
4.4057 -4.3663 2.2182
4.5596 -4.2054 2.2182
4.6932 -4.0269 2.2114
4.7043 -3.7515 2.1517
4.7143 -3.4902 2.0976
4.7631 -3.2684 2.0658
4.8827 -3.0987 2.0680
4.9853 -2.9182 2.0658
5.0869 -2.7374 2.0658
5.1819 -2.5530 2.0658
5.2702 -2.3653 2.0658
5.3517 -2.1746 2.0658
5.4263 -1.9811 2.0658
5.4939 -1.7851 2.0658
5.5544 -1.5867 2.0658
5.6078 -1.3863 2.0658
5.6540 -1.1841 2.0658
5.6928 -0.9804 2.0658
5.7244 -0.7754 2.0658
5.7485 -0.5694 2.0658
5.7652 -0.3627 2.0658
5.7745 -0.1555 2.0658
5.7764 0.0519 2.0658
5.7708 0.2592 2.0658
5.7578 0.4662 2.0658
5.7374 0.6725 2.0658
5.7095 0.8780 2.0658
5.6743 1.0824 2.0658
5.6318 1.2854 2.0658
5.5820 1.4868 2.0658
5.5251 1.6862 2.0658
5.4610 1.8834 2.0658
5.3899 2.0782 2.0658
5.3118 2.2704 2.0658
5.2269 2.4596 2.0658
5.1352 2.6456 2.0658
5.0369 2.8282 2.0658
4.9321 3.0072 2.0658
4.8210 3.1823 2.0658
4.7200 3.3649 2.0729
4.7036 3.6148 2.1214
4.6924 3.8819 2.1778
4.6343 4.1228 2.2182
4.4833 4.2865 2.2182
4.3266 4.4447 2.2182
4.1643 4.5971 2.2182
3.9965 4.7437 2.2182
3.8237 4.8841 2.2182
3.6459 5.0182 2.2182
3.4634 5.1458 2.2182
3.2765 5.2668 2.2182
3.0853 5.3810 2.2182
2.8902 5.4883 2.2182
2.6913 5.5885 2.2182
2.4889 5.6815 2.2182
0.8097 2.0452 0.7866
0.7356 2.0724 0.7864
0.6606 2.0970 0.7862
1.6502 5.9793 2.2182
1.4345 6.0346 2.2182
1.2169 6.0823 2.2182
0.9978 6.1220 2.2182
0.7774 6.1539 2.2182
0.5560 6.1778 2.2182
0.3339 6.1938 2.2182
0.1113 6.2018 2.2182
-0.1113 6.2018 2.2182
-0.3339 6.1938 2.2182
-0.5560 6.1778 2.2182
-0.7774 6.1539 2.2182
-0.9978 6.1220 2.2182
-1.2169 6.0823 2.2182
-1.4345 6.0346 2.2182
-1.6502 5.9793 2.2182
-0.6606 2.0971 0.7863
-0.7357 2.0725 0.7865
-0.8098 2.0453 0.7867
-2.4889 5.6815 2.2182
-2.6913 5.5885 2.2182
-2.8902 5.4883 2.2182
-3.0853 5.3810 2.2182
-3.2765 5.2668 2.2182
-3.4634 5.1458 2.2182
-3.6459 5.0182 2.2182
-3.8237 4.8841 2.2182
-3.9966 4.7437 2.2182
-4.1643 4.5971 2.2182
-4.3266 4.4447 2.2182
-4.4834 4.2865 2.2182
-4.6343 4.1228 2.2182
-4.7793 3.9538 2.2182
-4.9182 3.7797 2.2182
-5.0507 3.6007 2.2182
-5.1767 3.4171 2.2182
-5.2960 3.2291 2.2182
-5.4085 3.0369 2.2182
-5.5140 2.8408 2.2182
-5.6125 2.6410 2.2182
-5.7036 2.4379 2.2182
-5.7875 2.2315 2.2182
-5.8639 2.0224 2.2182
-5.9327 1.8106 2.2182
-5.9938 1.5964 2.2182
-6.0473 1.3803 2.2182
-6.0929 1.1623 2.2182
-6.1307 0.9428 2.2182
-6.1606 0.7221 2.2182
-6.1826 0.5005 2.2182
-6.1966 0.2783 2.2182
-6.0719 0.0545 2.1714
-5.9641 -0.1607 2.1336
-5.8825 -0.3701 2.1078
-5.8238 -0.5769 2.0928
-5.7865 -0.7838 2.0882
-5.7710 -0.9939 2.0941
-5.7684 -1.2081 2.1076
-5.7657 -1.4254 2.1239
-5.7625 -1.6462 2.1431
-5.7588 -1.8712 2.1654
-5.7546 -2.1010 2.1907
-5.7465 -2.3350 2.2182
-5.6590 -2.5398 2.2182
-5.5641 -2.7413 2.2182
-5.4622 -2.9393 2.2182
-5.3531 -3.1335 2.2182
-5.2372 -3.3236 2.2182
-5.1145 -3.5095 2.2182
-4.9852 -3.6908 2.2182
-4.8495 -3.8674 2.2182
-4.7076 -4.0390 2.2182
-4.5596 -4.2054 2.2182
-4.4057 -4.3663 2.2182
-4.2461 -4.5216 2.2182
-4.0811 -4.6712 2.2182
-3.9108 -4.8146 2.2182
-3.7354 -4.9519 2.2182
-3.5552 -5.0828 2.2182
-3.3705 -5.2072 2.2182
-3.1814 -5.3248 2.2182
-2.9882 -5.4356 2.2182
-2.7912 -5.5393 2.2182
-2.5905 -5.6359 2.2182
-2.3866 -5.7253 2.2182
-2.1795 -5.8073 2.2182
-1.9696 -5.8818 2.2182
-1.7572 -5.9487 2.2182
-1.5426 -6.0079 2.2182
-1.3259 -6.0594 2.2182
-1.1076 -6.1031 2.2182
-0.8878 -6.1389 2.2182
-0.6668 -6.1669 2.2182
-0.4450 -6.1868 2.2182
-0.2227 -6.1988 2.2182
-0.0000 -5.7883 2.2182
0.2078 -5.7845 2.2182
0.1532 -2.1300 0.8184
0.2296 -2.1230 0.8183
0.3056 -2.1132 0.8182
0.3812 -2.1006 0.8181
0.4563 -2.0852 0.8180
0.5308 -2.0672 0.8179
0.6045 -2.0464 0.8177
0.6774 -2.0229 0.8175
0.7494 -1.9968 0.8173
0.8204 -1.9681 0.8171
2.4174 -5.2593 2.2182
2.6046 -5.1691 2.2182
2.7885 -5.0723 2.2182
2.9688 -4.9689 2.2182
3.1452 -4.8592 2.2182
3.3176 -4.7431 2.2182
3.4858 -4.6210 2.2182
3.6494 -4.4929 2.2182
3.8083 -4.3590 2.2182
3.9623 -4.2195 2.2182
4.1112 -4.0745 2.2182
4.2549 -3.9243 2.2182
4.3930 -3.7690 2.2182
4.5254 -3.6089 2.2182
4.6521 -3.4441 2.2182
4.6984 -3.2239 2.1836
4.7071 -2.9872 2.1364
4.7150 -2.7600 2.0937
4.7469 -2.5544 2.0658
4.8356 -2.3824 2.0658
4.9180 -2.2073 2.0658
4.9940 -2.0293 2.0658
5.0636 -1.8487 2.0658
5.1267 -1.6658 2.0658
5.1832 -1.4807 2.0658
5.2330 -1.2937 2.0658
5.2761 -1.1050 2.0658
5.3124 -0.9149 2.0658
5.3418 -0.7236 2.0658
5.3643 -0.5314 2.0658
5.3799 -0.3385 2.0658
5.3886 -0.1451 2.0658
5.3904 0.0484 2.0658
5.3851 0.2418 2.0658
5.3730 0.4350 2.0658
5.3539 0.6276 2.0658
5.3279 0.8194 2.0658
5.2951 1.0101 2.0658
5.2554 1.1995 2.0658
5.2090 1.3874 2.0658
5.1558 1.5735 2.0658
5.0960 1.7575 2.0658
5.0296 1.9393 2.0658
4.9568 2.1186 2.0658
4.8811 2.2969 2.0673
4.7920 2.4688 2.0658
4.7204 2.6505 2.0746
4.7075 2.8702 2.1129
4.6985 3.1015 2.1575
4.6887 3.3426 2.2067
4.5895 3.5271 2.2182
4.4599 3.6896 2.2182
4.3246 3.8473 2.2182
4.1837 4.0001 2.2182
4.0374 4.1477 2.2182
3.8860 4.2899 2.2182
3.7295 4.4266 2.2182
3.5682 4.5577 2.2182
3.4023 4.6828 2.2182
3.2320 4.8019 2.2182
3.0575 4.9148 2.2182
2.8791 5.0214 2.2182
2.6970 5.1215 2.2182
2.5114 5.2150 2.2182
0.8249 1.8831 0.7878
0.7566 1.9110 0.7876
0.6874 1.9364 0.7874
0.6173 1.9594 0.7873
0.5464 1.9799 0.7871
0.4749 1.9979 0.7870
0.4028 2.0134 0.7869
0.3303 2.0263 0.7868
0.2573 2.0367 0.7867
0.1840 2.0445 0.7866
0.1105 2.0496 0.7866
0.0368 2.0522 0.7866
-0.0368 2.0523 0.7866
-0.1105 2.0497 0.7866
-0.1840 2.0445 0.7867
-0.2573 2.0367 0.7867
-0.3303 2.0264 0.7868
-0.4029 2.0135 0.7869
-0.4749 1.9980 0.7870
-0.5465 1.9801 0.7872
-0.6173 1.9596 0.7873
-0.6874 1.9366 0.7875
-0.7567 1.9111 0.7877
-0.8250 1.8832 0.7879
-2.5114 5.2150 2.2182
-2.6970 5.1215 2.2182
-2.8791 5.0214 2.2182
-3.0575 4.9148 2.2182
-3.2320 4.8019 2.2182
-3.4023 4.6828 2.2182
-3.5682 4.5577 2.2182
-3.7295 4.4266 2.2182
-3.8860 4.2899 2.2182
-4.0374 4.1477 2.2182
-4.1837 4.0000 2.2182
-4.3246 3.8473 2.2182
-4.4599 3.6896 2.2182
-4.5895 3.5271 2.2182
-4.7132 3.3601 2.2182
-4.8307 3.1887 2.2182
-4.9421 3.0133 2.2182
-5.0471 2.8339 2.2182
-5.1455 2.6509 2.2182
-5.2374 2.4645 2.2182
-5.3225 2.2749 2.2182
-5.4007 2.0824 2.2182
-5.4720 1.8872 2.2182
-5.5362 1.6896 2.2182
-5.5933 1.4897 2.2182
-5.6431 1.2880 2.2182
-5.6857 1.0846 2.2182
-5.7210 0.8798 2.2182
-5.7489 0.6739 2.2182
-5.7694 0.4671 2.2182
-5.7824 0.2597 2.2182
-5.7880 0.0520 2.2182
-5.7862 -0.1558 2.2182
-5.7768 -0.3634 2.2182
-5.7601 -0.5706 2.2182
-5.7359 -0.7770 2.2182
-5.7043 -0.9824 2.2182
-5.6653 -1.1865 2.2182
-5.6191 -1.3891 2.2182
-5.5656 -1.5899 2.2182
-5.5050 -1.7887 2.2182
-5.4372 -1.9851 2.2182
-5.3624 -2.1790 2.2182
-5.2808 -2.3701 2.2182
-5.1923 -2.5581 2.2182
-5.0971 -2.7429 2.2182
-4.9954 -2.9241 2.2182
-4.8872 -3.1015 2.2182
-4.7727 -3.2749 2.2182
-4.6521 -3.4442 2.2182
-4.5254 -3.6089 2.2182
-4.3930 -3.7690 2.2182
-4.2549 -3.9243 2.2182
-4.1112 -4.0745 2.2182
-3.9623 -4.2195 2.2182
-3.8083 -4.3590 2.2182
-3.6494 -4.4929 2.2182
-3.4858 -4.6210 2.2182
-3.3176 -4.7431 2.2182
-3.1453 -4.8592 2.2182
-2.9688 -4.9689 2.2182
-2.7885 -5.0723 2.2182
-2.6046 -5.1691 2.2182
-2.4174 -5.2593 2.2182
-0.8205 -1.9682 0.8172
-0.7495 -1.9970 0.8174
-0.6775 -2.0230 0.8176
-0.6045 -2.0465 0.8178
-0.5308 -2.0673 0.8179
-0.4563 -2.0853 0.8180
-0.3812 -2.1007 0.8182
-0.3056 -2.1132 0.8183
-0.2296 -2.1230 0.8183
-0.1532 -2.1300 0.8184
-0.2078 -5.7845 2.2182
0.0000 -1.9971 0.8174
0.0717 -1.9958 0.8173
0.1433 -1.9918 0.8173
0.2147 -1.9853 0.8173
0.2858 -1.9761 0.8172
0.3565 -1.9644 0.8171
0.4267 -1.9500 0.8170
0.4963 -1.9331 0.8169
0.5653 -1.9137 0.8167
0.6335 -1.8918 0.8165
0.7009 -1.8674 0.8163
0.7672 -1.8406 0.8161
2.2635 -4.9245 2.2182
2.4388 -4.8400 2.2182
2.6110 -4.7494 2.2182
2.7798 -4.6526 2.2182
2.9450 -4.5498 2.2182
3.1064 -4.4412 2.2182
3.2638 -4.3268 2.2182
3.4171 -4.2068 2.2182
3.5659 -4.0815 2.2182
3.7101 -3.9508 2.2182
3.8495 -3.8151 2.2182
3.9840 -3.6745 2.2182
4.1133 -3.5291 2.2182
4.2373 -3.3792 2.2182
4.3559 -3.2249 2.2182
4.4689 -3.0664 2.2182
4.5760 -2.9041 2.2182
4.6773 -2.7379 2.2182
4.6983 -2.5283 2.1837
4.7052 -2.3182 2.1467
4.7113 -2.1145 2.1135
4.7168 -1.9167 2.0838
4.7413 -1.7310 2.0658
4.8003 -1.5597 2.0658
4.8532 -1.3864 2.0658
4.8999 -1.2113 2.0658
4.9402 -1.0346 2.0658
4.9742 -0.8566 2.0658
5.0017 -0.6775 2.0658
5.0228 -0.4976 2.0658
5.0374 -0.3169 2.0658
5.0456 -0.1359 2.0658
5.0472 0.0453 2.0658
5.0423 0.2264 2.0658
5.0309 0.4073 2.0658
5.0131 0.5876 2.0658
4.9887 0.7672 2.0658
4.9580 0.9458 2.0658
4.9208 1.1231 2.0658
4.8825 1.3004 2.0679
4.8276 1.4733 2.0658
4.7716 1.6456 2.0658
4.7248 1.8218 2.0725
4.7128 2.0144 2.0977
4.7065 2.2147 2.1288
4.6994 2.4211 2.1636
4.6916 2.6344 2.2022
4.6274 2.8214 2.2182
4.5232 2.9857 2.2182
4.4131 3.1462 2.2182
4.2973 3.3025 2.2182
4.1760 3.4547 2.2182
4.0493 3.6024 2.2182
3.9174 3.7454 2.2182
3.7804 3.8836 2.2182
3.6386 4.0168 2.2182
3.4920 4.1448 2.2182
3.3410 4.2675 2.2182
3.1856 4.3847 2.2182
3.0262 4.4962 2.2182
2.8629 4.6019 2.2182
2.6958 4.7017 2.2182
2.5253 4.7955 2.2182
0.8364 1.7368 0.7889
0.7733 1.7652 0.7887
0.7093 1.7914 0.7885
0.6443 1.8153 0.7884
0.5787 1.8369 0.7882
0.5123 1.8561 0.7881
0.4452 1.8730 0.7879
0.3777 1.8875 0.7878
0.3096 1.8996 0.7877
0.2412 1.9094 0.7877
0.1725 1.9167 0.7876
0.1036 1.9215 0.7876
0.0345 1.9240 0.7876
-0.0345 1.9240 0.7876
-0.1036 1.9216 0.7876
-0.1725 1.9167 0.7876
-0.2412 1.9094 0.7877
-0.3096 1.8997 0.7878
-0.3777 1.8876 0.7879
-0.4452 1.8731 0.7880
-0.5123 1.8562 0.7881
-0.5787 1.8370 0.7882
-0.6444 1.8154 0.7884
-0.7093 1.7915 0.7886
-0.7734 1.7653 0.7888
-2.3515 4.8830 2.2182
-2.5253 4.7955 2.2182
-2.6958 4.7017 2.2182
-2.8629 4.6019 2.2182
-3.0262 4.4962 2.2182
-3.1856 4.3847 2.2182
-3.3410 4.2675 2.2182
-3.4920 4.1448 2.2182
-3.6386 4.0168 2.2182
-3.7804 3.8836 2.2182
-3.9174 3.7454 2.2182
-4.0493 3.6023 2.2182
-4.1760 3.4547 2.2182
-4.2973 3.3025 2.2182
-4.4131 3.1462 2.2182
-4.5232 2.9857 2.2182
-4.6274 2.8214 2.2182
-4.7257 2.6535 2.2182
-4.8179 2.4822 2.2182
-4.9039 2.3076 2.2182
-4.9836 2.1301 2.2182
-5.0569 1.9498 2.2182
-5.1236 1.7671 2.2182
-5.1837 1.5820 2.2182
-5.2372 1.3949 2.2182
-5.2839 1.2060 2.2182
-5.3237 1.0156 2.2182
-5.3568 0.8238 2.2182
-5.3829 0.6310 2.2182
-5.4021 0.4374 2.2182
-5.4143 0.2431 2.2182
-5.4195 0.0486 2.2182
-5.4178 -0.1459 2.2182
-5.4091 -0.3403 2.2182
-5.3933 -0.5343 2.2182
-5.3707 -0.7275 2.2182
-5.3411 -0.9198 2.2182
-5.3047 -1.1110 2.2182
-5.2614 -1.3007 2.2182
-5.2113 -1.4887 2.2182
-5.1545 -1.6748 2.2182
-5.0910 -1.8587 2.2182
-5.0210 -2.0403 2.2182
-4.9446 -2.2192 2.2182
-4.8617 -2.3953 2.2182
-4.7726 -2.5682 2.2182
-4.6773 -2.7379 2.2182
-4.5760 -2.9040 2.2182
-4.4688 -3.0664 2.2182
-4.3559 -3.2249 2.2182
-4.2373 -3.3792 2.2182
-4.1133 -3.5291 2.2182
-3.9840 -3.6745 2.2182
-3.8495 -3.8151 2.2182
-3.7101 -3.9508 2.2182
-3.5659 -4.0815 2.2182
-3.4171 -4.2068 2.2182
-3.2638 -4.3268 2.2182
-3.1064 -4.4411 2.2182
-2.9450 -4.5498 2.2182
-2.7798 -4.6526 2.2182
-2.6110 -4.7494 2.2182
-2.4388 -4.8400 2.2182
-0.8327 -1.8115 0.8160
-0.7673 -1.8407 0.8162
-0.7009 -1.8676 0.8164
-0.6336 -1.8919 0.8166
-0.5653 -1.9138 0.8167
-0.4964 -1.9332 0.8169
-0.4267 -1.9501 0.8170
-0.3565 -1.9644 0.8171
-0.2858 -1.9762 0.8172
-0.2147 -1.9853 0.8173
-0.1433 -1.9919 0.8173
-0.0717 -1.9958 0.8174
-0.0000 -1.8733 0.8164
0.0672 -1.8721 0.8164
0.1344 -1.8684 0.8164
0.2014 -1.8622 0.8163
0.2681 -1.8537 0.8163
0.3344 -1.8426 0.8162
0.4003 -1.8292 0.8161
0.4656 -1.8134 0.8159
0.5303 -1.7952 0.8158
0.5943 -1.7747 0.8156
0.6575 -1.7518 0.8155
0.7198 -1.7267 0.8153
0.7811 -1.6993 0.8151
2.2903 -4.5453 2.2182
2.4520 -4.4601 2.2182
2.6105 -4.3692 2.2182
2.7656 -4.2727 2.2182
2.9172 -4.1707 2.2182
3.0651 -4.0633 2.2182
3.2089 -3.9506 2.2182
3.3487 -3.8329 2.2182
3.4841 -3.7102 2.2182
3.6151 -3.5828 2.2182
3.7413 -3.4507 2.2182
3.8628 -3.3142 2.2182
3.9793 -3.1734 2.2182
4.0906 -3.0285 2.2182
4.1967 -2.8797 2.2182
4.2974 -2.7272 2.2182
4.3925 -2.5712 2.2182
4.4819 -2.4118 2.2182
4.5656 -2.2494 2.2182
4.6434 -2.0841 2.2182
4.6938 -1.9073 2.2081
4.6990 -1.7156 2.1801
4.7036 -1.5283 2.1554
4.7076 -1.3448 2.1337
4.7111 -1.1646 2.1150
4.7140 -0.9873 2.0990
4.7165 -0.8123 2.0858
4.7218 -0.6396 2.0766
4.7278 -0.4683 2.0705
4.7320 -0.2977 2.0664
4.7383 -0.1276 2.0658
4.7398 0.0425 2.0658
4.7352 0.2127 2.0658
4.7301 0.3829 2.0682
4.7250 0.5539 2.0733
4.7180 0.7256 2.0804
4.7153 0.8995 2.0921
4.7125 1.0756 2.1066
4.7091 1.2543 2.1239
4.7052 1.4359 2.1440
4.7007 1.6212 2.1670
4.6956 1.8105 2.1933
4.6801 2.0004 2.2182
4.6053 2.1671 2.2182
4.5245 2.3310 2.2182
4.4379 2.4919 2.2182
4.3456 2.6496 2.2182
4.2477 2.8039 2.2182
4.1443 2.9546 2.2182
4.0356 3.1014 2.2182
3.9217 3.2443 2.2182
3.8027 3.3830 2.2182
3.6788 3.5173 2.2182
3.5502 3.6471 2.2182
3.4170 3.7722 2.2182
3.2793 3.8924 2.2182
3.1375 4.0076 2.2182
2.9916 4.1176 2.2182
2.8419 4.2224 2.2182
2.6885 4.3217 2.2182
2.5316 4.4154 2.2182
0.8446 1.6038 0.7900
0.7862 1.6326 0.7897
0.7269 1.6594 0.7895
0.6668 1.6840 0.7894
0.6057 1.7065 0.7892
0.5440 1.7268 0.7890
0.4816 1.7449 0.7889
0.4186 1.7608 0.7888
0.3550 1.7745 0.7887
0.2911 1.7859 0.7886
0.2268 1.7951 0.7885
0.1622 1.8019 0.7885
0.0974 1.8065 0.7885
0.0325 1.8088 0.7884
-0.0325 1.8088 0.7884
-0.0974 1.8065 0.7885
-0.1622 1.8020 0.7885
-0.2268 1.7951 0.7886
-0.2911 1.7860 0.7886
-0.3551 1.7746 0.7887
-0.4186 1.7609 0.7888
-0.4816 1.7450 0.7889
-0.5440 1.7269 0.7891
-0.6058 1.7066 0.7892
-0.6668 1.6841 0.7894
-0.7270 1.6595 0.7896
-0.7863 1.6328 0.7898
-2.3715 4.5034 2.2182
-2.5316 4.4154 2.2182
-2.6885 4.3217 2.2182
-2.8419 4.2224 2.2182
-2.9916 4.1176 2.2182
-3.1375 4.0076 2.2182
-3.2794 3.8924 2.2182
-3.4170 3.7722 2.2182
-3.5502 3.6471 2.2182
-3.6788 3.5173 2.2182
-3.8027 3.3830 2.2182
-3.9217 3.2443 2.2182
-4.0356 3.1014 2.2182
-4.1443 2.9546 2.2182
-4.2477 2.8039 2.2182
-4.3456 2.6496 2.2182
-4.4379 2.4919 2.2182
-4.5245 2.3310 2.2182
-4.6053 2.1671 2.2182
-4.6801 2.0004 2.2182
-4.7489 1.8311 2.2182
-4.8116 1.6594 2.2182
-4.8680 1.4856 2.2182
-4.9182 1.3100 2.2182
-4.9621 1.1326 2.2182
-4.9995 0.9537 2.2182
-5.0305 0.7736 2.2182
-5.0551 0.5926 2.2182
-5.0731 0.4107 2.2182
-5.0845 0.2283 2.2182
-5.0895 0.0457 2.2182
-5.0878 -0.1370 2.2182
-5.0796 -0.3196 2.2182
-5.0649 -0.5017 2.2182
-5.0436 -0.6832 2.2182
-5.0158 -0.8638 2.2182
-4.9816 -1.0433 2.2182
-4.9409 -1.2215 2.2182
-4.8939 -1.3980 2.2182
-4.8406 -1.5728 2.2182
-4.7810 -1.7455 2.2182
-4.7153 -1.9160 2.2182
-4.6434 -2.0841 2.2182
-4.5656 -2.2494 2.2182
-4.4819 -2.4118 2.2182
-4.3925 -2.5712 2.2182
-4.2974 -2.7272 2.2182
-4.1967 -2.8797 2.2182
-4.0906 -3.0285 2.2182
-3.9793 -3.1734 2.2182
-3.8628 -3.3142 2.2182
-3.7413 -3.4507 2.2182
-3.6151 -3.5828 2.2182
-3.4841 -3.7102 2.2182
-3.3487 -3.8329 2.2182
-3.2089 -3.9506 2.2182
-3.0651 -4.0633 2.2182
-2.9172 -4.1707 2.2182
-2.7656 -4.2727 2.2182
-2.6105 -4.3692 2.2182
-2.4520 -4.4601 2.2182
-0.8414 -1.6698 0.8149
-0.7811 -1.6994 0.8151
-0.7198 -1.7268 0.8153
-0.6575 -1.7519 0.8155
-0.5943 -1.7748 0.8157
-0.5303 -1.7953 0.8158
-0.4656 -1.8135 0.8160
-0.4003 -1.8293 0.8161
-0.3344 -1.8427 0.8162
-0.2681 -1.8537 0.8163
-0.2014 -1.8623 0.8163
-0.1344 -1.8684 0.8164
-0.0672 -1.8721 0.8164
0.0000 -1.7619 0.8156
0.0632 -1.7608 0.8156
0.1264 -1.7573 0.8155
0.1894 -1.7515 0.8155
0.2521 -1.7435 0.8154
0.3145 -1.7331 0.8153
0.3765 -1.7205 0.8152
0.4379 -1.7056 0.8151
0.4988 -1.6885 0.8150
0.5590 -1.6693 0.8148
0.6184 -1.6478 0.8147
0.6770 -1.6242 0.8145
0.7347 -1.5984 0.8143
0.7914 -1.5706 0.8141
2.3086 -4.1993 2.2182
2.4578 -4.1137 2.2182
2.6039 -4.0228 2.2182
2.7466 -3.9268 2.2182
2.8858 -3.8257 2.2182
3.0213 -3.7196 2.2182
3.1529 -3.6088 2.2182
3.2804 -3.4933 2.2182
3.4037 -3.3732 2.2182
3.5226 -3.2489 2.2182
3.6369 -3.1204 2.2182
3.7466 -2.9878 2.2182
3.8514 -2.8514 2.2182
3.9513 -2.7113 2.2182
4.0461 -2.5677 2.2182
4.1356 -2.4208 2.2182
4.2199 -2.2708 2.2182
4.2987 -2.1179 2.2182
4.3719 -1.9622 2.2182
4.4395 -1.8040 2.2182
4.5014 -1.6435 2.2182
4.5575 -1.4808 2.2182
4.6077 -1.3163 2.2182
4.6520 -1.1500 2.2182
4.6903 -0.9823 2.2182
4.6944 -0.8085 2.2050
4.6965 -0.6362 2.1938
4.6980 -0.4654 2.1853
4.6991 -0.2956 2.1795
4.6997 -0.1266 2.1762
4.6998 0.0422 2.1756
4.6995 0.2111 2.1775
4.6986 0.3804 2.1820
4.6973 0.5506 2.1892
4.6955 0.7221 2.1990
4.6932 0.8953 2.2116
4.6719 1.0663 2.2182
4.6306 1.2333 2.2182
4.5834 1.3988 2.2182
4.5302 1.5624 2.2182
4.4712 1.7240 2.2182
4.4064 1.8834 2.2182
4.3360 2.0403 2.2182
4.2599 2.1947 2.2182
4.1784 2.3462 2.2182
4.0915 2.4947 2.2182
3.9993 2.6399 2.2182
3.9020 2.7818 2.2182
3.7996 2.9201 2.2182
3.6923 3.0546 2.2182
3.5803 3.1851 2.2182
3.4637 3.3116 2.2182
3.3426 3.4338 2.2182
3.2171 3.5516 2.2182
3.0876 3.6648 2.2182
2.9540 3.7732 2.2182
2.8167 3.8768 2.2182
2.6757 3.9755 2.2182
2.5313 4.0689 2.2182
2.3836 4.1572 2.2182
0.7959 1.5114 0.7907
0.7409 1.5386 0.7905
0.6851 1.5638 0.7903
0.6283 1.5870 0.7901
0.5709 1.6082 0.7899
0.5127 1.6274 0.7898
0.4538 1.6445 0.7897
0.3945 1.6595 0.7896
0.3346 1.6724 0.7895
0.2743 1.6831 0.7894
0.2137 1.6918 0.7893
0.1528 1.6982 0.7893
0.0918 1.7026 0.7892
0.0306 1.7047 0.7892
-0.0306 1.7047 0.7892
-0.0918 1.7026 0.7892
-0.1528 1.6983 0.7893
-0.2137 1.6918 0.7893
-0.2743 1.6832 0.7894
-0.3346 1.6724 0.7895
-0.3945 1.6596 0.7896
-0.4539 1.6446 0.7897
-0.5127 1.6275 0.7898
-0.5709 1.6083 0.7900
-0.6284 1.5871 0.7901
-0.6851 1.5639 0.7903
-0.7410 1.5387 0.7905
-0.7960 1.5115 0.7907
-2.3836 4.1572 2.2182
-2.5313 4.0689 2.2182
-2.6757 3.9755 2.2182
-2.8167 3.8768 2.2182
-2.9540 3.7732 2.2182
-3.0876 3.6648 2.2182
-3.2171 3.5516 2.2182
-3.3426 3.4338 2.2182
-3.4637 3.3116 2.2182
-3.5803 3.1851 2.2182
-3.6923 3.0546 2.2182
-3.7996 2.9201 2.2182
-3.9020 2.7818 2.2182
-3.9993 2.6399 2.2182
-4.0915 2.4947 2.2182
-4.1784 2.3462 2.2182
-4.2599 2.1947 2.2182
-4.3360 2.0403 2.2182
-4.4064 1.8834 2.2182
-4.4712 1.7240 2.2182
-4.5302 1.5624 2.2182
-4.5834 1.3988 2.2182
-4.6306 1.2333 2.2182
-4.6719 1.0663 2.2182
-4.7072 0.8979 2.2182
-4.7364 0.7284 2.2182
-4.7595 0.5579 2.2182
-4.7764 0.3867 2.2182
-4.7872 0.2150 2.2182
-4.7919 0.0430 2.2182
-4.7903 -0.1290 2.2182
-4.7826 -0.3009 2.2182
-4.7687 -0.4724 2.2182
-4.7487 -0.6433 2.2182
-4.7225 -0.8133 2.2182
-4.6903 -0.9823 2.2182
-4.6520 -1.1500 2.2182
-4.6077 -1.3163 2.2182
-4.5575 -1.4808 2.2182
-4.5014 -1.6435 2.2182
-4.4395 -1.8040 2.2182
-4.3719 -1.9622 2.2182
-4.2986 -2.1179 2.2182
-4.2199 -2.2708 2.2182
-4.1356 -2.4208 2.2182
-4.0461 -2.5677 2.2182
-3.9513 -2.7113 2.2182
-3.8514 -2.8514 2.2182
-3.7466 -2.9878 2.2182
-3.6369 -3.1204 2.2182
-3.5226 -3.2489 2.2182
-3.4037 -3.3732 2.2182
-3.2804 -3.4933 2.2182
-3.1529 -3.6087 2.2182
-3.0213 -3.7196 2.2182
-2.8858 -3.8257 2.2182
-2.7466 -3.9268 2.2182
-2.6039 -4.0229 2.2182
-2.4578 -4.1137 2.2182
-2.3086 -4.1993 2.2182
-0.7915 -1.5707 0.8142
-0.7348 -1.5985 0.8144
-0.6771 -1.6243 0.8146
-0.6185 -1.6479 0.8147
-0.5590 -1.6693 0.8149
-0.4988 -1.6886 0.8150
-0.4380 -1.7057 0.8152
-0.3765 -1.7206 0.8153
-0.3145 -1.7332 0.8154
-0.2521 -1.7435 0.8154
-0.1894 -1.7516 0.8155
-0.1264 -1.7573 0.8155
-0.0632 -1.7608 0.8156
0.0000 -1.6611 0.8148
0.0596 -1.6600 0.8148
0.1192 -1.6567 0.8148
0.1786 -1.6513 0.8147
0.2377 -1.6437 0.8147
0.2965 -1.6340 0.8146
0.3549 -1.6221 0.8145
0.4129 -1.6081 0.8144
0.4703 -1.5920 0.8143
0.5270 -1.5738 0.8141
0.5831 -1.5536 0.8140
0.6383 -1.5313 0.8138
0.6927 -1.5071 0.8136
0.7462 -1.4809 0.8134
0.7986 -1.4527 0.8132
2.3194 -3.8819 2.2182
2.4572 -3.7962 2.2182
2.5919 -3.7055 2.2182
2.7232 -3.6101 2.2182
2.8511 -3.5100 2.2182
2.9752 -3.4054 2.2182
3.0955 -3.2964 2.2182
3.2119 -3.1832 2.2182
3.3241 -3.0658 2.2182
3.4320 -2.9445 2.2182
3.5355 -2.8194 2.2182
3.6344 -2.6907 2.2182
3.7286 -2.5585 2.2182
3.8181 -2.4230 2.2182
3.9026 -2.2844 2.2182
3.9821 -2.1428 2.2182
4.0564 -1.9985 2.2182
4.1256 -1.8516 2.2182
4.1894 -1.7023 2.2182
4.2478 -1.5509 2.2182
4.3007 -1.3974 2.2182
4.3481 -1.2421 2.2182
4.3899 -1.0852 2.2182
4.4260 -0.9270 2.2182
4.4564 -0.7675 2.2182
4.4811 -0.6070 2.2182
4.5000 -0.4458 2.2182
4.5131 -0.2839 2.2182
4.5204 -0.1218 2.2182
4.5219 0.0406 2.2182
4.5175 0.2029 2.2182
4.5073 0.3649 2.2182
4.4913 0.5265 2.2182
4.4695 0.6873 2.2182
4.4419 0.8473 2.2182
4.4087 1.0063 2.2182
4.3697 1.1639 2.2182
4.3251 1.3200 2.2182
4.2749 1.4744 2.2182
4.2193 1.6269 2.2182
4.1581 1.7773 2.2182
4.0917 1.9254 2.2182
4.0199 2.0710 2.2182
3.9430 2.2140 2.2182
3.8610 2.3541 2.2182
3.7740 2.4912 2.2182
3.6821 2.6250 2.2182
3.5855 2.7555 2.2182
3.4843 2.8825 2.2182
3.3786 3.0057 2.2182
3.2685 3.1250 2.2182
3.1542 3.2403 2.2182
3.0359 3.3515 2.2182
2.9136 3.4583 2.2182
2.7876 3.5606 2.2182
2.6580 3.6584 2.2182
2.5250 3.7515 2.2182
2.3887 3.8397 2.2182
0.8026 1.3998 0.7915
0.7517 1.4274 0.7913
0.6998 1.4531 0.7911
0.6470 1.4769 0.7909
0.5934 1.4989 0.7908
0.5392 1.5189 0.7906
0.4842 1.5370 0.7905
0.4287 1.5532 0.7904
0.3726 1.5674 0.7903
0.3160 1.5796 0.7902
0.2591 1.5897 0.7901
0.2019 1.5979 0.7900
0.1444 1.6040 0.7900
0.0867 1.6081 0.7900
0.0289 1.6102 0.7899
-0.0289 1.6102 0.7899
-0.0867 1.6081 0.7900
-0.1444 1.6040 0.7900
-0.2019 1.5979 0.7900
-0.2591 1.5898 0.7901
-0.3160 1.5796 0.7902
-0.3726 1.5674 0.7903
-0.4287 1.5533 0.7904
-0.4842 1.5371 0.7905
-0.5392 1.5190 0.7907
-0.5935 1.4990 0.7908
-0.6470 1.4770 0.7910
-0.6998 1.4532 0.7912
-0.7517 1.4275 0.7914
-0.8027 1.3999 0.7916
-2.3887 3.8397 2.2182
-2.5250 3.7515 2.2182
-2.6580 3.6584 2.2182
-2.7876 3.5606 2.2182
-2.9136 3.4583 2.2182
-3.0359 3.3515 2.2182
-3.1542 3.2403 2.2182
-3.2685 3.1250 2.2182
-3.3786 3.0057 2.2182
-3.4843 2.8825 2.2182
-3.5855 2.7555 2.2182
-3.6821 2.6250 2.2182
-3.7740 2.4912 2.2182
-3.8610 2.3541 2.2182
-3.9430 2.2140 2.2182
-4.0199 2.0710 2.2182
-4.0917 1.9254 2.2182
-4.1581 1.7773 2.2182
-4.2193 1.6269 2.2182
-4.2749 1.4744 2.2182
-4.3251 1.3200 2.2182
-4.3697 1.1639 2.2182
-4.4087 1.0063 2.2182
-4.4419 0.8473 2.2182
-4.4695 0.6873 2.2182
-4.4913 0.5265 2.2182
-4.5073 0.3649 2.2182
-4.5175 0.2029 2.2182
-4.5219 0.0406 2.2182
-4.5204 -0.1218 2.2182
-4.5131 -0.2839 2.2182
-4.5000 -0.4458 2.2182
-4.4811 -0.6070 2.2182
-4.4564 -0.7675 2.2182
-4.4260 -0.9269 2.2182
-4.3899 -1.0852 2.2182
-4.3481 -1.2421 2.2182
-4.3007 -1.3974 2.2182
-4.2478 -1.5509 2.2182
-4.1894 -1.7023 2.2182
-4.1256 -1.8516 2.2182
-4.0564 -1.9985 2.2182
-3.9821 -2.1429 2.2182
-3.9026 -2.2844 2.2182
-3.8181 -2.4230 2.2182
-3.7286 -2.5585 2.2182
-3.6344 -2.6907 2.2182
-3.5355 -2.8194 2.2182
-3.4320 -2.9445 2.2182
-3.3241 -3.0658 2.2182
-3.2119 -3.1832 2.2182
-3.0955 -3.2964 2.2182
-2.9752 -3.4054 2.2182
-2.8511 -3.5100 2.2182
-2.7232 -3.6101 2.2182
-2.5919 -3.7055 2.2182
-2.4572 -3.7962 2.2182
-2.3194 -3.8819 2.2182
-0.7987 -1.4529 0.8133
-0.7462 -1.4810 0.8135
-0.6928 -1.5072 0.8137
-0.6384 -1.5314 0.8138
-0.5831 -1.5537 0.8140
-0.5270 -1.5739 0.8142
-0.4703 -1.5921 0.8143
-0.4129 -1.6081 0.8144
-0.3550 -1.6221 0.8145
-0.2965 -1.6340 0.8146
-0.2377 -1.6437 0.8147
-0.1786 -1.6513 0.8147
-0.1192 -1.6568 0.8148
-0.0596 -1.6600 0.8148
-0.0000 -1.5693 0.8141
0.0563 -1.5682 0.8141
0.1126 -1.5652 0.8141
0.1687 -1.5600 0.8140
0.2246 -1.5529 0.8140
0.2801 -1.5437 0.8139
0.3353 -1.5324 0.8138
0.3901 -1.5192 0.8137
0.4443 -1.5040 0.8136
0.4979 -1.4869 0.8135
0.5509 -1.4678 0.8133
0.6031 -1.4468 0.8132
0.6545 -1.4239 0.8130
0.7050 -1.3991 0.8128
0.7546 -1.3726 0.8126
0.8032 -1.3443 0.8124
2.3234 -3.5894 2.2182
2.4507 -3.5037 2.2182
2.5749 -3.4135 2.2182
2.6958 -3.3188 2.2182
2.8132 -3.2199 2.2182
2.9269 -3.1169 2.2182
3.0369 -3.0098 2.2182
3.1430 -2.8989 2.2182
3.2451 -2.7842 2.2182
3.3429 -2.6659 2.2182
3.4364 -2.5442 2.2182
3.5256 -2.4192 2.2182
3.6101 -2.2911 2.2182
3.6900 -2.1600 2.2182
3.7652 -2.0261 2.2182
3.8355 -1.8897 2.2182
3.9009 -1.7508 2.2182
3.9612 -1.6096 2.2182
4.0164 -1.4664 2.2182
4.0665 -1.3213 2.2182
4.1113 -1.1745 2.2182
4.1508 -1.0261 2.2182
4.1849 -0.8765 2.2182
4.2137 -0.7257 2.2182
4.2370 -0.5739 2.2182
4.2549 -0.4216 2.2182
4.2673 -0.2685 2.2182
4.2742 -0.1151 2.2182
4.2756 0.0384 2.2182
4.2714 0.1918 2.2182
4.2618 0.3450 2.2182
4.2467 0.4978 2.2182
4.2261 0.6499 2.2182
4.2000 0.8012 2.2182
4.1685 0.9514 2.2182
4.1317 1.1005 2.2182
4.0895 1.2481 2.2182
4.0421 1.3941 2.2182
3.9895 1.5383 2.2182
3.9317 1.6805 2.2182
3.8688 1.8205 2.2182
3.8010 1.9582 2.2182
3.7282 2.0934 2.2182
3.6507 2.2259 2.2182
3.5684 2.3555 2.2182
3.4816 2.4821 2.2182
3.3902 2.6054 2.2182
3.2945 2.7255 2.2182
3.1946 2.8420 2.2182
3.0905 2.9548 2.2182
2.9824 3.0638 2.2182
2.8705 3.1689 2.2182
2.7549 3.2699 2.2182
2.6358 3.3667 2.2182
2.5132 3.4592 2.2182
2.3874 3.5471 2.2182
0.8067 1.2968 0.7923
0.7595 1.3245 0.7921
0.7112 1.3506 0.7919
0.6621 1.3750 0.7917
0.6122 1.3975 0.7915
0.5616 1.4183 0.7914
0.5102 1.4373 0.7912
0.4582 1.4545 0.7911
0.4056 1.4698 0.7910
0.3526 1.4832 0.7909
0.2991 1.4947 0.7908
0.2452 1.5044 0.7907
0.1910 1.5121 0.7907
0.1366 1.5179 0.7906
0.0820 1.5218 0.7906
0.0274 1.5237 0.7906
-0.0274 1.5237 0.7906
-0.0820 1.5218 0.7906
-0.1366 1.5179 0.7907
-0.1910 1.5121 0.7907
-0.2452 1.5044 0.7908
-0.2991 1.4948 0.7908
-0.3526 1.4833 0.7909
-0.4057 1.4698 0.7910
-0.4582 1.4546 0.7911
-0.5102 1.4374 0.7913
-0.5616 1.4184 0.7914
-0.6123 1.3976 0.7916
-0.6622 1.3751 0.7918
-0.7113 1.3507 0.7919
-0.7595 1.3246 0.7921
-0.8068 1.2969 0.7924
-2.3874 3.5471 2.2182
-2.5132 3.4591 2.2182
-2.6358 3.3667 2.2182
-2.7549 3.2699 2.2182
-2.8705 3.1689 2.2182
-2.9824 3.0638 2.2182
-3.0905 2.9548 2.2182
-3.1946 2.8420 2.2182
-3.2945 2.7255 2.2182
-3.3902 2.6054 2.2182
-3.4816 2.4821 2.2182
-3.5684 2.3555 2.2182
-3.6507 2.2259 2.2182
-3.7282 2.0934 2.2182
-3.8010 1.9582 2.2182
-3.8688 1.8205 2.2182
-3.9317 1.6805 2.2182
-3.9895 1.5383 2.2182
-4.0421 1.3941 2.2182
-4.0895 1.2481 2.2182
-4.1317 1.1005 2.2182
-4.1685 0.9514 2.2182
-4.2000 0.8012 2.2182
-4.2261 0.6499 2.2182
-4.2467 0.4978 2.2182
-4.2618 0.3450 2.2182
-4.2714 0.1918 2.2182
-4.2756 0.0384 2.2182
-4.2742 -0.1151 2.2182
-4.2673 -0.2685 2.2182
-4.2549 -0.4215 2.2182
-4.2370 -0.5739 2.2182
-4.2137 -0.7257 2.2182
-4.1849 -0.8765 2.2182
-4.1508 -1.0261 2.2182
-4.1113 -1.1745 2.2182
-4.0665 -1.3213 2.2182
-4.0164 -1.4664 2.2182
-3.9612 -1.6096 2.2182
-3.9009 -1.7508 2.2182
-3.8355 -1.8897 2.2182
-3.7652 -2.0261 2.2182
-3.6900 -2.1600 2.2182
-3.6101 -2.2911 2.2182
-3.5256 -2.4192 2.2182
-3.4364 -2.5442 2.2182
-3.3429 -2.6659 2.2182
-3.2451 -2.7842 2.2182
-3.1430 -2.8989 2.2182
-3.0369 -3.0098 2.2182
-2.9269 -3.1169 2.2182
-2.8132 -3.2199 2.2182
-2.6958 -3.3189 2.2182
-2.5749 -3.4135 2.2182
-2.4507 -3.5037 2.2182
-2.3234 -3.5894 2.2182
-0.8032 -1.3444 0.8124
-0.7546 -1.3727 0.8126
-0.7051 -1.3992 0.8128
-0.6545 -1.4240 0.8130
-0.6031 -1.4469 0.8132
-0.5509 -1.4679 0.8134
-0.4979 -1.4869 0.8135
-0.4443 -1.5041 0.8136
-0.3901 -1.5193 0.8137
-0.3353 -1.5325 0.8138
-0.2801 -1.5437 0.8139
-0.2246 -1.5529 0.8140
-0.1687 -1.5601 0.8140
-0.1126 -1.5652 0.8141
-0.0563 -1.5682 0.8141
0.0000 -1.4852 0.8135
0.0533 -1.4843 0.8135
0.1066 -1.4813 0.8134
0.1597 -1.4765 0.8134
0.2125 -1.4697 0.8133
0.2651 -1.4610 0.8133
0.3174 -1.4504 0.8132
0.3692 -1.4379 0.8131
0.4205 -1.4235 0.8130
0.4713 -1.4073 0.8129
0.5214 -1.3892 0.8127
0.5708 -1.3694 0.8126
0.6195 -1.3477 0.8124
0.6673 -1.3243 0.8122
0.7142 -1.2992 0.8120
0.7602 -1.2724 0.8118
0.8052 -1.2440 0.8116
2.3213 -3.3187 2.2182
2.4389 -3.2332 2.2182
2.5534 -3.1436 2.2182
2.6646 -3.0499 2.2182
2.7724 -2.9523 2.2182
2.8766 -2.8509 2.2182
2.9770 -2.7458 2.2182
3.0737 -2.6371 2.2182
3.1664 -2.5251 2.2182
3.2550 -2.4098 2.2182
3.3394 -2.2914 2.2182
3.4195 -2.1701 2.2182
3.4952 -2.0459 2.2182
3.5664 -1.9191 2.2182
3.6330 -1.7899 2.2182
3.6949 -1.6583 2.2182
3.7520 -1.5246 2.2182
3.8043 -1.3890 2.2182
3.8517 -1.2515 2.2182
3.8942 -1.1124 2.2182
3.9316 -0.9719 2.2182
3.9639 -0.8302 2.2182
3.9912 -0.6874 2.2182
4.0133 -0.5436 2.2182
4.0302 -0.3992 2.2182
4.0419 -0.2543 2.2182
4.0485 -0.1090 2.2182
4.0498 0.0364 2.2182
4.0459 0.1817 2.2182
4.0367 0.3268 2.2182
4.0224 0.4715 2.2182
4.0029 0.6156 2.2182
3.9782 0.7589 2.2182
3.9484 0.9012 2.2182
3.9135 1.0424 2.2182
3.8736 1.1822 2.2182
3.8286 1.3204 2.2182
3.7788 1.4570 2.2182
3.7240 1.5917 2.2182
3.6645 1.7244 2.2182
3.6002 1.8548 2.2182
3.5313 1.9828 2.2182
3.4579 2.1083 2.2182
3.3800 2.2311 2.2182
3.2977 2.3510 2.2182
3.2112 2.4678 2.2182
3.1205 2.5815 2.2182
3.0259 2.6919 2.2182
2.9273 2.7988 2.2182
2.8249 2.9020 2.2182
2.7189 3.0016 2.2182
2.6094 3.0972 2.2182
2.4966 3.1889 2.2182
2.3805 3.2765 2.2182
0.8085 1.2012 0.7930
0.7646 1.2291 0.7928
0.7198 1.2554 0.7926
0.6741 1.2802 0.7924
0.6276 1.3033 0.7923
0.5803 1.3247 0.7921
0.5323 1.3444 0.7919
0.4836 1.3624 0.7918
0.4343 1.3787 0.7917
0.3845 1.3932 0.7916
0.3342 1.4059 0.7915
0.2835 1.4169 0.7914
0.2324 1.4260 0.7913
0.1811 1.4333 0.7913
0.1295 1.4388 0.7912
0.0778 1.4425 0.7912
0.0259 1.4444 0.7912
-0.0259 1.4444 0.7912
-0.0778 1.4425 0.7912
-0.1295 1.4389 0.7913
-0.1811 1.4334 0.7913
-0.2324 1.4260 0.7914
-0.2835 1.4169 0.7914
-0.3342 1.4060 0.7915
-0.3845 1.3932 0.7916
-0.4343 1.3787 0.7917
-0.4836 1.3625 0.7918
-0.5323 1.3445 0.7920
-0.5803 1.3247 0.7921
-0.6277 1.3033 0.7923
-0.6742 1.2803 0.7925
-0.7199 1.2555 0.7927
-0.7647 1.2292 0.7929
-0.8085 1.2013 0.7931
-2.3805 3.2765 2.2182
-2.4966 3.1889 2.2182
-2.6094 3.0972 2.2182
-2.7189 3.0016 2.2182
-2.8249 2.9020 2.2182
-2.9273 2.7988 2.2182
