ply
format ascii 1.0
element vertex 2177
property float32 x
property float32 y
property float32 z
end_header
6.4728 -0.1743 0.9175
6.3378 -0.3987 1.0461
6.4728 -0.1743 1.0667
6.3378 -0.3987 1.1936
6.4728 -0.1743 1.2171
6.8057 -6.7449 2.0254
6.9462 -6.4065 1.9974
7.1717 -6.1531 1.9974
7.3879 -5.8917 1.9974
7.5947 -5.6227 1.9974
7.7916 -5.3464 1.9974
7.9785 -5.0633 1.9974
8.1551 -4.7736 1.9974
8.3212 -4.4778 1.9974
8.4766 -4.1762 1.9974
8.6210 -3.8693 1.9974
8.7544 -3.5573 1.9974
8.8764 -3.2408 1.9974
8.9870 -2.9201 1.9974
9.0861 -2.5956 1.9974
9.1734 -2.2678 1.9974
9.2489 -1.9370 1.9974
9.3124 -1.6038 1.9974
9.3640 -1.2684 1.9974
9.4035 -0.9315 1.9974
6.3378 -0.3987 1.3423
6.4728 -0.1743 1.3687
9.4491 0.0848 1.9974
9.5383 0.4284 2.0182
9.5172 0.7705 2.0183
9.4860 1.1119 2.0189
9.4447 1.4525 2.0199
9.3933 1.7919 2.0214
9.3320 2.1300 2.0233
-0.0000 -9.6812 2.2753
0.3475 -9.6750 2.2753
0.6946 -9.6563 2.2753
1.0408 -9.6251 2.2753
1.3856 -9.5815 2.2753
1.7287 -9.5256 2.2753
2.0695 -9.4575 2.2753
2.4076 -9.3771 2.2753
2.7427 -9.2846 2.2753
3.0742 -9.1801 2.2753
3.4017 -9.0639 2.2753
3.7249 -8.9359 2.2753
4.0433 -8.7965 2.2753
4.3564 -8.6457 2.2753
4.6640 -8.4837 2.2753
4.7133 -7.8888 2.1598
4.9083 -7.5829 2.1229
5.1773 -7.4018 2.1229
5.4396 -7.2112 2.1229
5.6950 -7.0113 2.1229
5.9430 -6.8023 2.1229
6.1834 -6.5846 2.1229
6.4157 -6.3584 2.1229
6.6398 -6.1240 2.1229
6.8152 -5.8472 2.1105
6.8195 -5.4384 2.0500
6.8306 -5.0570 1.9974
7.0078 -4.8086 1.9974
7.1759 -4.5539 1.9974
7.3347 -4.2934 1.9974
7.4841 -4.0274 1.9974
7.6238 -3.7561 1.9974
7.7538 -3.4800 1.9974
7.8737 -3.1995 1.9974
7.9835 -2.9148 1.9974
8.0829 -2.6263 1.9974
8.1720 -2.3345 1.9974
8.2505 -2.0396 1.9974
8.3184 -1.7421 1.9974
8.3756 -1.4424 1.9974
8.4220 -1.1408 1.9974
8.4575 -0.8378 1.9974
6.3378 -0.3987 1.4925
6.4728 -0.1743 1.5218
8.4986 0.0763 1.9974
8.7842 0.3945 2.0666
8.7499 0.7084 2.0632
8.7132 1.0214 2.0618
8.6671 1.3329 2.0609
8.6116 1.6427 2.0604
8.5469 1.9508 2.0604
9.0051 2.3985 2.1902
8.9226 2.7230 2.1925
8.8335 3.0466 2.1961
8.7344 3.3678 2.2001
8.6250 3.6865 2.2045
8.5059 4.0025 2.2093
8.3767 4.3156 2.2146
8.2378 4.6255 2.2204
8.0888 4.9319 2.2266
7.9276 5.2330 2.2325
7.7516 5.5263 2.2374
7.5582 5.8086 2.2403
7.3420 6.0739 2.2395
7.1276 6.3409 2.2421
6.9165 6.6129 2.2490
6.6960 6.8787 2.2561
6.4660 7.1382 2.2636
6.2269 7.3909 2.2713
5.9761 7.6333 2.2784
5.6983 7.8430 2.2784
5.4112 8.0398 2.2777
5.1171 8.2255 2.2767
4.8173 8.4017 2.2761
4.5117 8.5675 2.2757
4.2012 8.7240 2.2757
3.8854 8.8692 2.2757
3.5645 9.0030 2.2757
3.2391 9.1251 2.2757
2.9094 9.2355 2.2757
2.5760 9.3340 2.2757
2.2393 9.4205 2.2757
1.8997 9.4949 2.2757
1.5577 9.5569 2.2757
1.2136 9.6066 2.2757
0.8680 9.6438 2.2757
0.5212 9.6686 2.2756
0.1738 9.6810 2.2756
-0.1738 9.6808 2.2756
-0.5212 9.6682 2.2756
-0.8679 9.6432 2.2755
-1.2135 9.6057 2.2755
-1.5575 9.5558 2.2755
-1.8995 9.4936 2.2754
-2.2390 9.4192 2.2754
-2.5756 9.3326 2.2754
-2.9089 9.2340 2.2753
-3.2385 9.1235 2.2753
-3.5639 9.0014 2.2753
-3.8847 8.8676 2.2753
-4.2005 8.7225 2.2753
-4.5109 8.5661 2.2753
-4.8155 8.3986 2.2753
-5.1139 8.2203 2.2753
-5.4057 8.0315 2.2753
-5.6905 7.8323 2.2753
-5.9680 7.6229 2.2753
-6.2377 7.4038 2.2753
-6.4995 7.1751 2.2753
-6.7529 6.9372 2.2753
-6.9975 6.6903 2.2753
-7.2332 6.4348 2.2753
-7.4595 6.1710 2.2753
-7.6762 5.8993 2.2753
-7.8830 5.6199 2.2753
-8.0797 5.3333 2.2753
-8.2659 5.0399 2.2753
-8.4415 4.7399 2.2753
-8.6062 4.4338 2.2753
-8.7598 4.1221 2.2753
-8.9021 3.8050 2.2753
-9.0330 3.4829 2.2753
-9.1522 3.1565 2.2753
-9.2596 2.8259 2.2753
-9.3551 2.4917 2.2753
-9.4385 2.1543 2.2753
-9.5097 1.8141 2.2753
-9.5687 1.4715 2.2753
-9.6154 1.1271 2.2753
-9.6496 0.7812 2.2753
-9.6715 0.4343 2.2753
-9.6808 0.0869 2.2753
-9.6777 -0.2607 2.2753
-9.6621 -0.6079 2.2753
-9.6341 -0.9543 2.2753
-9.5936 -1.2996 2.2753
-9.5408 -1.6431 2.2753
-9.4756 -1.9845 2.2753
-9.3983 -2.3234 2.2753
-9.3088 -2.6592 2.2753
-9.2074 -2.9917 2.2753
-9.0941 -3.3202 2.2753
-8.9690 -3.6445 2.2753
-8.8324 -3.9641 2.2753
-8.6844 -4.2787 2.2753
-8.5252 -4.5876 2.2753
-8.3551 -4.8907 2.2753
-8.1741 -5.1875 2.2753
-7.9826 -5.4775 2.2753
-7.7809 -5.7606 2.2753
-7.5691 -6.0361 2.2753
-7.3475 -6.3040 2.2753
-7.1165 -6.5636 2.2753
-6.8763 -6.8149 2.2753
-6.6272 -7.0573 2.2753
-6.3696 -7.2906 2.2753
-6.1038 -7.5146 2.2753
-5.8302 -7.7289 2.2753
-5.5490 -7.9332 2.2753
-5.2606 -8.1272 2.2753
-4.9655 -8.3108 2.2753
-4.6640 -8.4837 2.2753
-4.3564 -8.6457 2.2753
-4.0433 -8.7965 2.2753
-3.7249 -8.9359 2.2753
-3.4017 -9.0639 2.2753
-3.0742 -9.1802 2.2753
-2.7427 -9.2846 2.2753
-2.4076 -9.3771 2.2753
-2.0695 -9.4575 2.2753
-1.7286 -9.5256 2.2753
-1.3856 -9.5815 2.2753
-1.0408 -9.6251 2.2753
-0.6946 -9.6563 2.2753
-0.3475 -9.6750 2.2753
-0.0000 -8.7878 2.2753
0.3154 -8.7821 2.2753
0.6305 -8.7651 2.2753
0.9447 -8.7368 2.2753
1.2577 -8.6973 2.2753
1.5691 -8.6466 2.2753
1.8785 -8.5846 2.2753
2.1854 -8.5117 2.2753
2.4896 -8.4278 2.2753
2.7905 -8.3330 2.2753
3.0878 -8.2274 2.2753
3.3811 -8.1113 2.2753
3.6701 -7.9847 2.2753
3.9544 -7.8478 2.2753
4.2335 -7.7008 2.2753
4.5072 -7.5438 2.2753
4.6987 -7.2591 2.2389
4.7223 -6.7513 2.1332
4.9376 -6.5457 2.1229
5.1694 -6.3642 2.1229
5.3945 -6.1746 2.1229
5.6127 -5.9769 2.1229
5.8236 -5.7716 2.1229
6.0271 -5.5588 2.1229
6.2227 -5.3389 2.1229
6.4104 -5.1121 2.1229
6.5897 -4.8787 2.1229
6.7606 -4.6390 2.1229
6.8312 -4.3352 2.0948
6.8347 -4.0007 2.0505
6.7934 -3.6557 1.9974
6.9203 -3.4095 1.9974
7.0382 -3.1589 1.9974
7.1470 -2.9042 1.9974
7.2467 -2.6458 1.9974
7.3370 -2.3839 1.9974
7.4178 -2.1190 1.9974
7.4891 -1.8514 1.9974
7.5507 -1.5814 1.9974
7.6026 -1.3093 1.9974
7.6448 -1.0355 1.9974
7.6770 -0.7605 1.9974
6.3378 -0.3987 1.6442
6.4728 -0.1743 1.6765
7.7143 0.0692 1.9974
8.1325 0.3652 2.1078
8.1018 0.6559 2.1046
8.0516 0.9438 2.0990
7.9986 1.2301 2.0953
7.9416 1.5149 2.0933
7.8757 1.7976 2.0916
8.2914 2.2084 2.2216
8.2089 2.5052 2.2222
8.1228 2.8014 2.2247
8.0309 3.0966 2.2286
7.9297 3.3893 2.2328
7.8183 3.6790 2.2372
7.6956 3.9647 2.2414
7.5610 4.2455 2.2452
7.4129 4.5198 2.2480
7.2500 4.7856 2.2492
7.0684 5.0392 2.2476
6.8870 5.2927 2.2489
6.7098 5.5508 2.2547
6.5238 5.8037 2.2608
6.3289 6.0511 2.2671
6.1254 6.2926 2.2737
5.9058 6.5197 2.2777
5.6685 6.7281 2.2779
5.4223 6.9260 2.2775
5.1688 7.1142 2.2768
4.9086 7.2929 2.2761
4.6428 7.4632 2.2757
4.3717 7.6247 2.2756
4.0952 7.7767 2.2757
3.8135 7.9187 2.2757
3.5268 8.0506 2.2757
3.2355 8.1720 2.2757
2.9401 8.2829 2.2757
2.6409 8.3831 2.2757
2.3383 8.4725 2.2757
2.0326 8.5510 2.2757
1.7244 8.6185 2.2757
1.4139 8.6748 2.2757
1.1016 8.7199 2.2757
0.7879 8.7537 2.2757
0.4731 8.7763 2.2756
0.1578 8.7875 2.2756
-0.1578 8.7874 2.2756
-0.4731 8.7760 2.2756
-0.7878 8.7532 2.2755
-1.1015 8.7192 2.2755
-1.4137 8.6739 2.2755
-1.7242 8.6175 2.2754
-2.0324 8.5499 2.2754
-2.3379 8.4714 2.2754
-2.6405 8.3819 2.2754
-2.9396 8.2816 2.2753
-3.2350 8.1706 2.2753
-3.5262 8.0493 2.2753
-3.8129 7.9175 2.2753
-4.0946 7.7755 2.2753
-4.3711 7.6235 2.2753
-4.6419 7.4617 2.2753
-4.9068 7.2903 2.2753
-5.1653 7.1094 2.2753
-5.4172 6.9194 2.2753
-5.6621 6.7205 2.2753
-5.8997 6.5129 2.2753
-6.1297 6.2970 2.2753
-6.3517 6.0729 2.2753
-6.5656 5.8410 2.2753
-6.7711 5.6015 2.2753
-6.9678 5.3548 2.2753
-7.1555 5.1013 2.2753
-7.3340 4.8411 2.2753
-7.5031 4.5748 2.2753
-7.6625 4.3025 2.2753
-7.8120 4.0247 2.2753
-7.9514 3.7416 2.2753
-8.0806 3.4538 2.2753
-8.1994 3.1615 2.2753
-8.3076 2.8651 2.2753
-8.4051 2.5651 2.2753
-8.4917 2.2617 2.2753
-8.5674 1.9555 2.2753
-8.6321 1.6467 2.2753
-8.6857 1.3357 2.2753
-8.7280 1.0231 2.2753
-8.7591 0.7091 2.2753
-8.7789 0.3942 2.2753
-8.7874 0.0789 2.2753
-8.7846 -0.2366 2.2753
-8.7704 -0.5518 2.2753
-8.7450 -0.8663 2.2753
-8.7082 -1.1796 2.2753
-8.6603 -1.4915 2.2753
-8.6012 -1.8014 2.2753
-8.5309 -2.1090 2.2753
-8.4497 -2.4138 2.2753
-8.3577 -2.7156 2.2753
-8.2548 -3.0138 2.2753
-8.1413 -3.3082 2.2753
-8.0173 -3.5983 2.2753
-7.8830 -3.8838 2.2753
-7.7385 -4.1643 2.2753
-7.5840 -4.4393 2.2753
-7.4197 -4.7087 2.2753
-7.2459 -4.9720 2.2753
-7.0628 -5.2289 2.2753
-6.8705 -5.4791 2.2753
-6.6694 -5.7222 2.2753
-6.4597 -5.9579 2.2753
-6.2417 -6.1859 2.2753
-6.0156 -6.4060 2.2753
-5.7818 -6.6178 2.2753
-5.5405 -6.8211 2.2753
-5.2921 -7.0156 2.2753
-5.0369 -7.2010 2.2753
-4.7751 -7.3772 2.2753
-4.5072 -7.5438 2.2753
-4.2335 -7.7008 2.2753
-3.9544 -7.8478 2.2753
-3.6701 -7.9847 2.2753
-3.3811 -8.1113 2.2753
-3.0878 -8.2274 2.2753
-2.7905 -8.3330 2.2753
-2.4896 -8.4278 2.2753
-2.1854 -8.5117 2.2753
-1.8785 -8.5847 2.2753
-1.5691 -8.6465 2.2753
-1.2577 -8.6973 2.2753
-0.9447 -8.7368 2.2753
-0.6305 -8.7651 2.2753
-0.3154 -8.7821 2.2753
-0.0000 -8.0373 2.2753
0.2885 -8.0321 2.2753
0.5766 -8.0166 2.2753
0.8640 -7.9907 2.2753
1.1503 -7.9546 2.2753
1.4351 -7.9081 2.2753
1.7181 -7.8515 2.2753
1.9988 -7.7848 2.2753
2.2770 -7.7081 2.2753
2.5522 -7.6214 2.2753
2.8241 -7.5248 2.2753
3.0924 -7.4186 2.2753
3.3567 -7.3028 2.2753
3.6167 -7.1776 2.2753
3.8720 -7.0432 2.2753
4.1223 -6.8996 2.2753
4.3674 -6.7472 2.2753
4.6067 -6.5861 2.2753
4.7038 -6.2357 2.2112
4.7312 -5.8247 2.1243
4.9339 -5.6473 2.1229
5.1334 -5.4665 2.1229
5.3263 -5.2787 2.1229
5.5124 -5.0841 2.1229
5.6913 -4.8830 2.1229
5.8629 -4.6755 2.1229
6.0270 -4.4621 2.1229
6.1833 -4.2428 2.1229
6.3316 -4.0182 2.1229
6.4718 -3.7883 2.1229
6.6036 -3.5535 2.1229
6.7269 -3.3142 2.1229
6.8415 -3.0706 2.1229
6.8476 -2.7825 2.0924
6.8505 -2.5011 2.0646
6.8534 -2.2268 2.0400
6.8563 -1.9586 2.0186
6.8496 -1.6933 1.9974
6.9059 -1.4463 1.9974
6.9534 -1.1975 1.9974
6.9919 -0.9471 1.9974
7.0214 -0.6955 1.9974
6.3378 -0.3987 1.7977
6.4728 -0.1743 1.8331
7.0555 0.0633 1.9974
7.4939 0.3366 2.1236
7.4717 0.6049 2.1221
7.4315 0.8711 2.1182
7.3877 1.1361 2.1160
7.3349 1.3992 2.1139
7.2730 1.6600 2.1119
7.6746 2.0441 2.2484
7.5939 2.3175 2.2477
7.5097 2.5900 2.2488
7.4207 2.8613 2.2515
7.3212 3.1292 2.2539
7.2104 3.3929 2.2559
7.0874 3.6514 2.2570
6.9510 3.9030 2.2568
6.7991 4.1455 2.2543
6.6501 4.3897 2.2558
6.5022 4.6355 2.2606
6.3459 4.8769 2.2657
6.1814 5.1137 2.2711
6.0087 5.3455 2.2767
5.8141 5.5588 2.2772
5.6114 5.7646 2.2774
5.3999 5.9613 2.2770
5.1814 6.1500 2.2766
4.9561 6.3305 2.2760
4.7252 6.5036 2.2758
4.4884 6.6686 2.2756
4.2461 6.8254 2.2756
3.9984 6.9735 2.2756
3.7455 7.1125 2.2756
3.4878 7.2424 2.2756
3.2256 7.3630 2.2756
2.9592 7.4740 2.2757
2.6890 7.5755 2.2757
2.4153 7.6671 2.2757
2.1386 7.7489 2.2757
1.8590 7.8207 2.2757
1.5771 7.8824 2.2757
1.2931 7.9339 2.2757
1.0075 7.9752 2.2757
0.7206 8.0062 2.2756
0.4327 8.0268 2.2756
0.1443 8.0370 2.2756
-0.1443 8.0370 2.2756
-0.4327 8.0265 2.2755
-0.7205 8.0057 2.2755
-1.0074 7.9746 2.2755
-1.2930 7.9332 2.2755
-1.5769 7.8816 2.2754
-1.8588 7.8198 2.2754
-2.1383 7.7480 2.2754
-2.4150 7.6661 2.2754
-2.6886 7.5744 2.2753
-2.9587 7.4729 2.2753
-3.2251 7.3619 2.2753
-3.4873 7.2414 2.2753
-3.7449 7.1115 2.2753
-3.9978 6.9725 2.2753
-4.2455 6.8245 2.2753
-4.4878 6.6677 2.2753
-4.7242 6.5023 2.2753
-4.9546 6.3286 2.2753
-5.1786 6.1466 2.2753
-5.3959 5.9568 2.2753
-5.6062 5.7592 2.2753
-5.8093 5.5543 2.2753
-6.0050 5.3422 2.2753
-6.1929 5.1232 2.2753
-6.3728 4.8976 2.2753
-6.5445 4.6657 2.2753
-6.7077 4.4277 2.2753
-6.8623 4.1841 2.2753
-7.0081 3.9351 2.2753
-7.1449 3.6810 2.2753
-7.2724 3.4221 2.2753
-7.3905 3.1589 2.2753
-7.4992 2.8915 2.2753
-7.5981 2.6205 2.2753
-7.6873 2.3460 2.2753
-7.7666 2.0686 2.2753
-7.8358 1.7885 2.2753
-7.8950 1.5060 2.2753
-7.9439 1.2217 2.2753
-7.9827 0.9357 2.2753
-8.0111 0.6486 2.2753
-8.0292 0.3606 2.2753
-8.0370 0.0721 2.2753
-8.0344 -0.2164 2.2753
-8.0215 -0.5047 2.2753
-7.9982 -0.7923 2.2753
-7.9646 -1.0789 2.2753
-7.9207 -1.3641 2.2753
-7.8666 -1.6475 2.2753
-7.8024 -1.9289 2.2753
-7.7282 -2.2077 2.2753
-7.6439 -2.4837 2.2753
-7.5499 -2.7565 2.2753
-7.4460 -3.0257 2.2753
-7.3326 -3.2910 2.2753
-7.2098 -3.5521 2.2753
-7.0776 -3.8086 2.2753
-6.9363 -4.0602 2.2753
-6.7861 -4.3066 2.2753
-6.6272 -4.5474 2.2753
-6.4597 -4.7824 2.2753
-6.2838 -5.0112 2.2753
-6.0999 -5.2335 2.2753
-5.9081 -5.4491 2.2753
-5.7087 -5.6577 2.2753
-5.5019 -5.8590 2.2753
-5.2881 -6.0527 2.2753
-5.0674 -6.2386 2.2753
-4.8402 -6.4165 2.2753
-4.6067 -6.5861 2.2753
-4.3673 -6.7472 2.2753
-4.1223 -6.8996 2.2753
-3.8720 -7.0432 2.2753
-3.6167 -7.1776 2.2753
-3.3567 -7.3028 2.2753
-3.0924 -7.4186 2.2753
-2.8241 -7.5248 2.2753
-2.5522 -7.6213 2.2753
-2.2770 -7.7081 2.2753
-1.9988 -7.7848 2.2753
-1.7181 -7.8516 2.2753
-1.4351 -7.9081 2.2753
-1.1503 -7.9546 2.2753
-0.8641 -7.9907 2.2753
-0.5766 -8.0166 2.2753
-0.2885 -8.0322 2.2753
-0.0000 -7.3975 2.2753
0.2655 -7.3927 2.2753
0.5307 -7.3784 2.2753
0.7953 -7.3546 2.2753
1.0588 -7.3213 2.2753
1.3209 -7.2786 2.2753
1.5813 -7.2265 2.2753
1.8397 -7.1651 2.2753
2.0957 -7.0944 2.2753
2.3490 -7.0146 2.2753
2.5993 -6.9258 2.2753
2.8462 -6.8280 2.2753
3.0895 -6.7215 2.2753
3.3288 -6.6062 2.2753
3.5638 -6.4825 2.2753
3.7942 -6.3504 2.2753
4.0197 -6.2101 2.2753
4.2400 -6.0618 2.2753
4.4549 -5.9057 2.2753
4.6640 -5.7420 2.2753
4.7059 -5.3863 2.2000
4.7302 -5.0371 2.1253
4.9023 -4.8585 2.1229
5.0735 -4.6794 2.1229
5.2383 -4.4943 2.1229
5.3962 -4.3033 2.1229
5.5472 -4.1068 2.1229
5.6910 -3.9051 2.1229
5.8276 -3.6983 2.1229
5.9566 -3.4867 2.1229
6.0779 -3.2707 2.1229
6.1914 -3.0504 2.1229
6.2969 -2.8261 2.1229
6.3943 -2.5983 2.1229
6.4834 -2.3671 2.1229
6.5781 -2.1374 2.1274
6.6510 -1.9000 2.1275
6.7150 -1.6600 2.1276
6.7701 -1.4179 2.1275
6.8161 -1.1739 2.1274
6.8530 -0.9283 2.1271
6.8698 -0.6805 2.1233
6.3378 -0.3987 1.9532
6.4728 -0.1743 1.9916
6.8776 0.0617 2.1155
6.9004 0.3099 2.1245
6.8827 0.5572 2.1239
6.8563 0.8037 2.1233
6.8188 1.0486 2.1220
6.7909 1.2954 2.1264
6.8829 1.5710 2.1715
7.1156 1.8952 2.2649
7.0390 2.1482 2.2636
6.9592 2.4001 2.2642
6.8701 2.6490 2.2647
6.7698 2.8936 2.2645
6.6571 3.1326 2.2630
6.5317 3.3651 2.2600
6.4143 3.6016 2.2626
6.2921 3.8364 2.2667
6.1619 4.0675 2.2710
6.0239 4.2946 2.2755
5.8686 4.5101 2.2765
5.7037 4.7185 2.2768
5.5304 4.9200 2.2768
5.3498 5.1149 2.2765
5.1623 5.3032 2.2764
4.9678 5.4842 2.2760
4.7673 5.6585 2.2758
4.5607 5.8254 2.2756
4.3487 5.9854 2.2756
4.1310 6.1377 2.2756
3.9080 6.2820 2.2756
3.6800 6.4183 2.2756
3.4473 6.5463 2.2756
3.2101 6.6658 2.2756
2.9687 6.7768 2.2756
2.7236 6.8790 2.2756
2.4749 6.9723 2.2756
2.2230 7.0567 2.2756
1.9683 7.1319 2.2756
1.7110 7.1980 2.2757
1.4515 7.2548 2.2757
1.1902 7.3023 2.2757
0.9273 7.3403 2.2757
0.6632 7.3688 2.2756
0.3983 7.3877 2.2756
0.1328 7.3972 2.2756
-0.1328 7.3971 2.2756
-0.3982 7.3875 2.2755
-0.6632 7.3684 2.2755
-0.9272 7.3398 2.2755
-1.1901 7.3017 2.2755
-1.4514 7.2541 2.2754
-1.7109 7.1973 2.2754
-1.9681 7.1312 2.2754
-2.2228 7.0559 2.2754
-2.4746 6.9715 2.2754
-2.7232 6.8781 2.2753
-2.9683 6.7758 2.2753
-3.2096 6.6649 2.2753
-3.4468 6.5454 2.2753
-3.6796 6.4175 2.2753
-3.9076 6.2812 2.2753
-4.1305 6.1369 2.2753
-4.3481 5.9847 2.2753
-4.5602 5.8247 2.2753
-4.7663 5.6573 2.2753
-4.9663 5.4826 2.2753
-5.1599 5.3007 2.2753
-5.3469 5.1121 2.2753
-5.5269 4.9169 2.2753
-5.6999 4.7153 2.2753
-5.8654 4.5077 2.2753
-6.0235 4.2942 2.2753
-6.1737 4.0752 2.2753
-6.3161 3.8510 2.2753
-6.4502 3.6218 2.2753
-6.5761 3.3879 2.2753
-6.6934 3.1497 2.2753
-6.8022 2.9074 2.2753
-6.9022 2.6614 2.2753
-6.9933 2.4119 2.2753
-7.0753 2.1593 2.2753
-7.1483 1.9039 2.2753
-7.2120 1.6461 2.2753
-7.2665 1.3861 2.2753
-7.3115 1.1244 2.2753
-7.3472 0.8612 2.2753
-7.3734 0.5969 2.2753
-7.3900 0.3319 2.2753
-7.3972 0.0664 2.2753
-7.3948 -0.1992 2.2753
-7.3829 -0.4645 2.2753
-7.3615 -0.7292 2.2753
-7.3305 -0.9930 2.2753
-7.2902 -1.2555 2.2753
-7.2404 -1.5164 2.2753
-7.1813 -1.7753 2.2753
-7.1129 -2.0319 2.2753
-7.0354 -2.2860 2.2753
-6.9488 -2.5370 2.2753
-6.8533 -2.7848 2.2753
-6.7489 -3.0291 2.2753
-6.6358 -3.2694 2.2753
-6.5142 -3.5054 2.2753
-6.3842 -3.7370 2.2753
-6.2459 -3.9638 2.2753
-6.0996 -4.1854 2.2753
-5.9454 -4.4017 2.2753
-5.7836 -4.6123 2.2753
-5.6143 -4.8169 2.2753
-5.4378 -5.0153 2.2753
-5.2542 -5.2073 2.2753
-5.0639 -5.3926 2.2753
-4.8671 -5.5709 2.2753
-4.6640 -5.7420 2.2753
-4.4549 -5.9057 2.2753
-4.2400 -6.0618 2.2753
-4.0197 -6.2101 2.2753
-3.7942 -6.3504 2.2753
-3.5638 -6.4825 2.2753
-3.3288 -6.6062 2.2753
-3.0895 -6.7214 2.2753
-2.8462 -6.8280 2.2753
-2.5993 -6.9258 2.2753
-2.3490 -7.0146 2.2753
-2.0957 -7.0944 2.2753
-1.8397 -7.1651 2.2753
-1.5813 -7.2265 2.2753
-1.3209 -7.2786 2.2753
-1.0587 -7.3213 2.2753
-0.7953 -7.3546 2.2753
-0.5307 -7.3784 2.2753
-0.2655 -7.3927 2.2753
0.0000 -6.8450 2.2753
0.2457 -6.8406 2.2753
0.4911 -6.8273 2.2753
0.7359 -6.8053 2.2753
0.9797 -6.7745 2.2753
1.2222 -6.7350 2.2753
1.4632 -6.6868 2.2753
1.7023 -6.6299 2.2753
1.9392 -6.5645 2.2753
2.1736 -6.4907 2.2753
2.4052 -6.4085 2.2753
2.6336 -6.3181 2.2753
2.8587 -6.2194 2.2753
3.0802 -6.1128 2.2753
3.2976 -5.9983 2.2753
3.5108 -5.8761 2.2753
3.7195 -5.7463 2.2753
3.9233 -5.6090 2.2753
4.1221 -5.4646 2.2753
4.3156 -5.3131 2.2753
4.5036 -5.1548 2.2753
4.6857 -4.9898 2.2753
4.7055 -4.6634 2.2022
4.7208 -4.3540 2.1347
4.8470 -4.1586 2.1229
4.9932 -3.9819 2.1229
5.1329 -3.8001 2.1229
5.2660 -3.6134 2.1229
5.3923 -3.4221 2.1229
5.5117 -3.2263 2.1229
5.6239 -3.0264 2.1229
5.7289 -2.8225 2.1229
5.8266 -2.6151 2.1229
5.9167 -2.4042 2.1229
6.0076 -2.1934 2.1259
6.0830 -1.9765 2.1261
6.1503 -1.7569 2.1262
6.2094 -1.5351 2.1262
6.2604 -1.3111 2.1261
6.3031 -1.0855 2.1260
6.3374 -0.8585 2.1258
6.3633 -0.6303 2.1255
6.3378 -0.3987 2.1109
6.3898 -0.1721 2.1248
6.3905 0.0574 2.1243
6.3827 0.2866 2.1238
6.3667 0.5154 2.1233
6.3425 0.7435 2.1227
6.3106 0.9705 2.1223
6.4322 1.2270 2.1767
6.6674 1.5218 2.2733
6.6064 1.7596 2.2726
6.5365 1.9948 2.2717
6.4565 2.2267 2.2702
6.3653 2.4543 2.2677
6.2698 2.6798 2.2665
6.1780 2.9071 2.2696
6.0785 3.1316 2.2729
5.9699 3.3521 2.2759
5.8462 3.5645 2.2760
5.7151 3.7725 2.2763
5.5766 3.9756 2.2765
5.4300 4.1730 2.2764
5.2766 4.3652 2.2764
5.1162 4.5515 2.2762
4.9486 4.7313 2.2758
4.7756 4.9060 2.2758
4.5959 5.0736 2.2756
4.4108 5.2353 2.2756
4.2200 5.3903 2.2756
4.0238 5.5383 2.2756
3.8225 5.6792 2.2756
3.6161 5.8128 2.2756
3.4052 5.9389 2.2756
3.1898 6.0573 2.2756
2.9703 6.1679 2.2756
2.7470 6.2706 2.2756
2.5201 6.3652 2.2756
2.2900 6.4515 2.2756
2.0570 6.5296 2.2756
1.8213 6.5992 2.2756
1.5832 6.6604 2.2756
1.3431 6.7129 2.2756
1.1013 6.7568 2.2756
0.8580 6.7920 2.2756
0.6137 6.8184 2.2756
0.3685 6.8359 2.2756
0.1229 6.8447 2.2756
-0.1229 6.8446 2.2756
-0.3685 6.8357 2.2755
-0.6136 6.8180 2.2755
-0.8580 6.7916 2.2755
-1.1012 6.7563 2.2755
-1.3430 6.7124 2.2755
-1.5831 6.6598 2.2754
-1.8211 6.5986 2.2754
-2.0568 6.5289 2.2754
-2.2898 6.4508 2.2754
-2.5198 6.3644 2.2753
-2.7466 6.2698 2.2753
-2.9699 6.1671 2.2753
-3.1894 6.0565 2.2753
-3.4047 5.9381 2.2753
-3.6157 5.8121 2.2753
-3.8220 5.6786 2.2753
-4.0234 5.5377 2.2753
-4.2196 5.3897 2.2753
-4.4103 5.2348 2.2753
-4.5954 5.0731 2.2753
-4.7745 4.9048 2.2753
-4.9475 4.7303 2.2753
-5.1141 4.5497 2.2753
-5.2741 4.3632 2.2753
-5.4274 4.1710 2.2753
-5.5736 3.9735 2.2753
-5.7126 3.7709 2.2753
-5.8443 3.5634 2.2753
-5.9685 3.3513 2.2753
-6.0849 3.1349 2.2753
-6.1935 2.9144 2.2753
-6.2941 2.6902 2.2753
-6.3867 2.4626 2.2753
-6.4709 2.2317 2.2753
-6.5469 1.9980 2.2753
-6.6144 1.7617 2.2753
-6.6734 1.5231 2.2753
-6.7237 1.2826 2.2753
-6.7654 1.0404 2.2753
-6.7984 0.7969 2.2753
-6.8226 0.5524 2.2753
-6.8381 0.3071 2.2753
-6.8447 0.0614 2.2753
-6.8425 -0.1843 2.2753
-6.8315 -0.4298 2.2753
-6.8116 -0.6747 2.2753
-6.7830 -0.9188 2.2753
-6.7457 -1.1617 2.2753
-6.6996 -1.4031 2.2753
-6.6449 -1.6427 2.2753
-6.5817 -1.8802 2.2753
-6.5100 -2.1152 2.2753
-6.4298 -2.3475 2.2753
-6.3414 -2.5768 2.2753
-6.2448 -2.8028 2.2753
-6.1402 -3.0252 2.2753
-6.0277 -3.2436 2.2753
-5.9073 -3.4579 2.2753
-5.7794 -3.6677 2.2753
-5.6440 -3.8728 2.2753
-5.5014 -4.0729 2.2753
-5.3516 -4.2678 2.2753
-5.1950 -4.4571 2.2753
-5.0316 -4.6407 2.2753
-4.8618 -4.8184 2.2753
-4.6857 -4.9898 2.2753
-4.5036 -5.1548 2.2753
-4.3156 -5.3131 2.2753
-4.1221 -5.4646 2.2753
-3.9233 -5.6090 2.2753
-3.7194 -5.7463 2.2753
-3.5108 -5.8761 2.2753
-3.2976 -5.9983 2.2753
-3.0801 -6.1128 2.2753
-2.8587 -6.2194 2.2753
-2.6336 -6.3180 2.2753
-2.4052 -6.4085 2.2753
-2.1736 -6.4907 2.2753
-1.9392 -6.5646 2.2753
-1.7023 -6.6299 2.2753
-1.4632 -6.6868 2.2753
-1.2222 -6.7350 2.2753
-0.9797 -6.7745 2.2753
-0.7359 -6.8053 2.2753
-0.4911 -6.8273 2.2753
-0.2457 -6.8406 2.2753
0.0000 -6.3626 2.2753
0.2284 -6.3585 2.2753
0.4565 -6.3462 2.2753
0.6840 -6.3257 2.2753
0.9106 -6.2971 2.2753
1.1361 -6.2604 2.2753
1.3601 -6.2155 2.2753
1.5823 -6.1627 2.2753
1.8025 -6.1019 2.2753
2.0204 -6.0333 2.2753
2.2357 -5.9569 2.2753
2.4480 -5.8728 2.2753
2.6573 -5.7811 2.2753
2.8631 -5.6820 2.2753
3.0652 -5.5756 2.2753
3.2634 -5.4620 2.2753
3.4573 -5.3413 2.2753
3.6468 -5.2138 2.2753
3.8316 -5.0795 2.2753
4.0115 -4.9387 2.2753
4.1862 -4.7915 2.2753
4.3555 -4.6381 2.2753
4.5192 -4.4788 2.2753
4.6770 -4.3137 2.2753
4.7029 -4.0350 2.2160
4.7140 -3.7593 2.1562
4.7712 -3.5323 2.1229
4.8949 -3.3588 2.1229
5.0123 -3.1809 2.1229
5.1232 -2.9989 2.1229
5.2276 -2.8131 2.1229
5.3252 -2.6236 2.1229
5.4159 -2.4308 2.1229
5.4997 -2.2348 2.1229
5.5812 -2.0377 2.1247
5.6511 -1.8362 2.1249
5.7136 -1.6322 2.1250
5.7685 -1.4261 2.1250
5.8159 -1.2180 2.1249
5.8557 -1.0085 2.1249
5.8877 -0.7975 2.1247
5.9119 -0.5856 2.1245
5.9283 -0.3730 2.1242
5.9370 -0.1599 2.1239
5.9378 0.0533 2.1235
5.9309 0.2663 2.1231
5.9162 0.4790 2.1226
5.9087 0.6926 2.1275
6.1195 0.9411 2.2141
6.2482 1.1919 2.2747
6.2012 1.4154 2.2746
6.1449 1.6367 2.2741
6.0767 1.8545 2.2720
6.0120 2.0735 2.2742
5.9364 2.2890 2.2753
5.8509 2.5008 2.2754
5.7580 2.7095 2.2757
5.6575 2.9147 2.2759
5.5498 3.1162 2.2761
5.4342 3.3133 2.2760
5.3117 3.5062 2.2760
5.1823 3.6945 2.2759
5.0461 3.8780 2.2758
4.9034 4.0564 2.2757
4.7545 4.2297 2.2757
4.5994 4.3974 2.2756
4.4385 4.5596 2.2755
4.2720 4.7160 2.2755
4.0999 4.8664 2.2755
3.9226 5.0104 2.2755
3.7402 5.1480 2.2756
3.5531 5.2790 2.2756
3.3613 5.4031 2.2756
3.1652 5.5203 2.2756
2.9650 5.6304 2.2756
2.7610 5.7332 2.2756
2.5534 5.8286 2.2756
0.8097 2.0452 0.7866
0.7356 2.0724 0.7864
0.6606 2.0970 0.7862
1.6929 6.1341 2.2756
1.4716 6.1909 2.2756
1.2485 6.2398 2.2756
1.0237 6.2806 2.2756
0.7976 6.3133 2.2756
0.5704 6.3378 2.2756
0.3425 6.3542 2.2756
0.1142 6.3623 2.2756
-0.1142 6.3622 2.2756
-0.3425 6.3540 2.2755
-0.5704 6.3375 2.2755
-0.7975 6.3129 2.2755
-1.0236 6.2802 2.2755
-1.2484 6.2393 2.2755
-1.4715 6.1904 2.2754
-1.6928 6.1336 2.2754
-0.6606 2.0971 0.7863
-0.7357 2.0725 0.7865
-0.8098 2.0453 0.7867
-2.5531 5.8279 2.2753
-2.7606 5.7325 2.2753
-2.9646 5.6297 2.2753
-3.1648 5.5197 2.2753
-3.3609 5.4025 2.2753
-3.5527 5.2784 2.2753
-3.7398 5.1474 2.2753
-3.9222 5.0099 2.2753
-4.0995 4.8659 2.2753
-4.2715 4.7156 2.2753
-4.4380 4.5592 2.2753
-4.5988 4.3969 2.2753
-4.7537 4.2290 2.2753
-4.9025 4.0557 2.2753
-5.0449 3.8771 2.2753
-5.1808 3.6935 2.2753
-5.3100 3.5051 2.2753
-5.4324 3.3122 2.2753
-5.5478 3.1151 2.2753
-5.6561 2.9140 2.2753
-5.7570 2.7090 2.2753
-5.8506 2.5006 2.2753
-5.9366 2.2890 2.2753
-6.0149 2.0744 2.2753
-6.0855 1.8572 2.2753
-6.1482 1.6376 2.2753
-6.2031 1.4158 2.2753
-6.2499 1.1922 2.2753
-6.2887 0.9671 2.2753
-6.3193 0.7407 2.2753
-6.3418 0.5134 2.2753
-6.3562 0.2855 2.2753
-6.3623 0.0571 2.2753
-6.3603 -0.1713 2.2753
-6.3500 -0.3995 2.2753
-6.3316 -0.6272 2.2753
-6.3050 -0.8541 2.2753
-6.2703 -1.0799 2.2753
-6.2275 -1.3042 2.2753
-6.1766 -1.5270 2.2753
-6.1179 -1.7477 2.2753
-6.0512 -1.9662 2.2753
-5.9767 -2.1821 2.2753
-5.8945 -2.3952 2.2753
-5.8047 -2.6053 2.2753
-5.7075 -2.8120 2.2753
-5.6029 -3.0150 2.2753
-5.4910 -3.2142 2.2753
-5.3721 -3.4093 2.2753
-5.2463 -3.5999 2.2753
-5.1137 -3.7859 2.2753
-4.9745 -3.9670 2.2753
-4.8289 -4.1430 2.2753
-4.6770 -4.3137 2.2753
-4.5192 -4.4788 2.2753
-4.3555 -4.6381 2.2753
-4.1862 -4.7915 2.2753
-4.0115 -4.9387 2.2753
-3.8316 -5.0795 2.2753
-3.6468 -5.2138 2.2753
-3.4573 -5.3413 2.2753
-3.2634 -5.4620 2.2753
-3.0652 -5.5756 2.2753
-2.8631 -5.6820 2.2753
-2.6573 -5.7811 2.2753
-2.4480 -5.8728 2.2753
-2.2357 -5.9569 2.2753
-2.0204 -6.0333 2.2753
-1.8025 -6.1019 2.2753
-1.5823 -6.1627 2.2753
-1.3601 -6.2155 2.2753
-1.1361 -6.2603 2.2753
-0.9106 -6.2971 2.2753
-0.6840 -6.3257 2.2753
-0.4565 -6.3462 2.2753
-0.2284 -6.3585 2.2753
0.0000 -5.9374 2.2753
0.2131 -5.9336 2.2753
0.1532 -2.1300 0.8184
0.2296 -2.1230 0.8183
0.3056 -2.1132 0.8182
0.3812 -2.1006 0.8181
0.4563 -2.0852 0.8180
0.5308 -2.0672 0.8179
0.6045 -2.0464 0.8177
0.6774 -2.0229 0.8175
0.7494 -1.9968 0.8173
0.8204 -1.9681 0.8171
2.4797 -5.3948 2.2753
2.6717 -5.3023 2.2753
2.8604 -5.2030 2.2753
3.0453 -5.0969 2.2753
3.2263 -4.9843 2.2753
3.4031 -4.8653 2.2753
3.5756 -4.7400 2.2753
3.7434 -4.6086 2.2753
3.9064 -4.4713 2.2753
4.0644 -4.3282 2.2753
4.2172 -4.1795 2.2753
4.3645 -4.0254 2.2753
4.5061 -3.8661 2.2753
4.6420 -3.7019 2.2753
4.6984 -3.4785 2.2403
4.7081 -3.2306 2.1881
4.7168 -2.9934 2.1409
4.7808 -2.7985 2.1229
4.8829 -2.6276 2.1250
4.9693 -2.4483 2.1229
5.0540 -2.2683 2.1229
5.1337 -2.0861 2.1235
5.2057 -1.9006 2.1237
5.2708 -1.7126 2.1238
5.3291 -1.5223 2.1239
5.3803 -1.3301 2.1239
5.4246 -1.1361 2.1239
5.4616 -0.9406 2.1238
5.4916 -0.7439 2.1237
5.5143 -0.5462 2.1235
5.5297 -0.3479 2.1233
5.5379 -0.1492 2.1230
5.5392 0.0497 2.1228
5.5415 0.2489 2.1258
5.6769 0.4596 2.1826
5.8574 0.6866 2.2600
5.8674 0.9023 2.2749
5.8310 1.1123 2.2749
5.7874 1.3209 2.2749
5.7367 1.5279 2.2750
5.6786 1.7330 2.2752
5.6131 1.9359 2.2754
5.5405 2.1363 2.2756
5.4603 2.3339 2.2756
5.3734 2.5285 2.2758
5.2792 2.7198 2.2758
5.1781 2.9075 2.2758
5.0703 3.0915 2.2757
4.9561 3.2715 2.2757
4.8354 3.4472 2.2757
4.7083 3.6184 2.2756
4.5752 3.7849 2.2755
4.4364 3.9467 2.2755
4.2919 4.1035 2.2755
4.1418 4.2549 2.2755
3.9864 4.4008 2.2755
3.8259 4.5411 2.2755
3.6604 4.6755 2.2755
3.4903 4.8039 2.2755
3.3156 4.9261 2.2756
3.1366 5.0420 2.2756
2.9536 5.1514 2.2756
2.7668 5.2541 2.2756
2.5764 5.3500 2.2756
0.8249 1.8831 0.7878
0.7566 1.9110 0.7876
0.6874 1.9364 0.7874
0.6173 1.9594 0.7873
0.5464 1.9799 0.7871
0.4749 1.9979 0.7870
0.4028 2.0134 0.7869
0.3303 2.0263 0.7868
0.2573 2.0367 0.7867
0.1840 2.0445 0.7866
0.1105 2.0496 0.7866
0.0368 2.0522 0.7866
-0.0368 2.0523 0.7866
-0.1105 2.0497 0.7866
-0.1840 2.0445 0.7867
-0.2573 2.0367 0.7867
-0.3303 2.0264 0.7868
-0.4029 2.0135 0.7869
-0.4749 1.9980 0.7870
-0.5465 1.9800 0.7872
-0.6173 1.9596 0.7873
-0.6874 1.9366 0.7875
-0.7567 1.9111 0.7877
-0.8250 1.8832 0.7879
-2.5761 5.3494 2.2753
-2.7665 5.2535 2.2753
-2.9533 5.1508 2.2753
-3.1363 5.0414 2.2753
-3.3152 4.9256 2.2753
-3.4899 4.8034 2.2753
-3.6601 4.6751 2.2753
-3.8255 4.5407 2.2753
-3.9861 4.4004 2.2753
-4.1414 4.2545 2.2753
-4.2915 4.1031 2.2753
-4.4360 3.9464 2.2753
-4.5748 3.7846 2.2753
-4.7077 3.6179 2.2753
-4.8346 3.4466 2.2753
-4.9552 3.2709 2.2753
-5.0694 3.0909 2.2753
-5.1771 2.9069 2.2753
-5.2781 2.7192 2.2753
-5.3723 2.5280 2.2753
-5.4596 2.3335 2.2753
-5.5398 2.1360 2.2753
-5.6129 1.9358 2.2753
-5.6788 1.7331 2.2753
-5.7374 1.5281 2.2753
-5.7885 1.3212 2.2753
-5.8322 1.1125 2.2753
-5.8684 0.9025 2.2753
-5.8970 0.6912 2.2753
-5.9180 0.4791 2.2753
-5.9314 0.2664 2.2753
-5.9371 0.0533 2.2753
-5.9352 -0.1599 2.2753
-5.9257 -0.3728 2.2753
-5.9085 -0.5853 2.2753
-5.8836 -0.7970 2.2753
-5.8512 -1.0077 2.2753
-5.8113 -1.2171 2.2753
-5.7639 -1.4249 2.2753
-5.7090 -1.6309 2.2753
-5.6468 -1.8348 2.2753
-5.5773 -2.0363 2.2753
-5.5006 -2.2352 2.2753
-5.4168 -2.4312 2.2753
-5.3260 -2.6240 2.2753
-5.2284 -2.8136 2.2753
-5.1241 -2.9994 2.2753
-5.0131 -3.1814 2.2753
-4.8957 -3.3593 2.2753
-4.7719 -3.5329 2.2753
-4.6420 -3.7019 2.2753
-4.5061 -3.8661 2.2753
-4.3645 -4.0254 2.2753
-4.2172 -4.1795 2.2753
-4.0644 -4.3282 2.2753
-3.9064 -4.4713 2.2753
-3.7434 -4.6086 2.2753
-3.5756 -4.7400 2.2753
-3.4031 -4.8653 2.2753
-3.2263 -4.9843 2.2753
-3.0453 -5.0969 2.2753
-2.8603 -5.2030 2.2753
-2.6717 -5.3023 2.2753
-2.4797 -5.3948 2.2753
-0.8205 -1.9682 0.8172
-0.7495 -1.9970 0.8174
-0.6775 -2.0231 0.8176
-0.6045 -2.0465 0.8178
-0.5308 -2.0673 0.8179
-0.4563 -2.0853 0.8180
-0.3812 -2.1007 0.8182
-0.3056 -2.1132 0.8183
-0.2296 -2.1230 0.8183
-0.1532 -2.1300 0.8184
-0.2131 -5.9336 2.2753
0.0000 -1.9971 0.8174
0.0717 -1.9958 0.8173
0.1433 -1.9918 0.8173
0.2147 -1.9853 0.8173
0.2858 -1.9761 0.8172
0.3565 -1.9644 0.8171
0.4267 -1.9500 0.8170
0.4963 -1.9331 0.8169
0.5653 -1.9137 0.8167
0.6335 -1.8918 0.8165
0.7009 -1.8674 0.8163
0.7672 -1.8406 0.8161
2.3218 -5.0513 2.2753
2.5016 -4.9647 2.2753
2.6782 -4.8717 2.2753
2.8514 -4.7724 2.2753
3.0209 -4.6670 2.2753
3.1864 -4.5556 2.2753
3.3479 -4.4382 2.2753
3.5051 -4.3152 2.2753
3.6577 -4.1866 2.2753
3.8056 -4.0526 2.2753
3.9487 -3.9134 2.2753
4.0866 -3.7691 2.2753
4.2193 -3.6200 2.2753
4.3465 -3.4662 2.2753
4.4681 -3.3079 2.2753
4.5840 -3.1454 2.2753
4.6921 -2.9777 2.2744
4.7005 -2.7515 2.2291
4.7081 -2.5335 2.1882
4.7149 -2.3230 2.1512
4.7347 -2.1250 2.1240
4.8054 -1.9527 2.1229
4.8724 -1.7789 2.1229
4.9388 -1.6047 2.1254
4.9876 -1.4248 2.1229
5.0355 -1.2448 2.1230
5.0769 -1.0633 2.1229
5.1215 -0.8820 2.1270
5.1401 -0.6963 2.1229
5.1617 -0.5113 2.1229
5.1889 -0.3265 2.1279
5.2718 -0.1420 2.1584
5.3770 0.0483 2.2007
5.4992 0.2470 2.2529
5.5408 0.4486 2.2751
5.5210 0.6472 2.2751
5.4941 0.8449 2.2750
5.4603 1.0416 2.2751
5.4197 1.2370 2.2752
5.3721 1.4308 2.2753
5.3174 1.6228 2.2754
5.2560 1.8127 2.2755
5.1876 2.0002 2.2755
5.1127 2.1853 2.2756
5.0309 2.3673 2.2756
4.9426 2.5464 2.2756
4.8481 2.7222 2.2756
4.7473 2.8945 2.2756
4.6402 3.0630 2.2756
4.5271 3.2274 2.2755
4.4083 3.3879 2.2755
4.2839 3.5439 2.2755
4.1539 3.6954 2.2755
4.0186 3.8422 2.2755
3.8781 3.9840 2.2755
3.7326 4.1206 2.2755
3.5823 4.2520 2.2755
3.4274 4.3778 2.2755
3.2680 4.4981 2.2755
3.1045 4.6125 2.2755
2.9369 4.7210 2.2755
2.7656 4.8234 2.2756
2.5906 4.9195 2.2756
0.8364 1.7368 0.7889
0.7733 1.7652 0.7887
0.7093 1.7914 0.7885
0.6443 1.8153 0.7884
0.5787 1.8369 0.7882
0.5123 1.8561 0.7881
0.4452 1.8730 0.7879
0.3777 1.8875 0.7878
0.3096 1.8996 0.7877
0.2412 1.9094 0.7877
0.1725 1.9167 0.7876
0.1036 1.9215 0.7876
0.0345 1.9240 0.7876
-0.0345 1.9240 0.7876
-0.1036 1.9215 0.7876
-0.1725 1.9167 0.7876
-0.2412 1.9094 0.7877
-0.3096 1.8997 0.7878
-0.3777 1.8876 0.7879
-0.4452 1.8731 0.7880
-0.5123 1.8562 0.7881
-0.5787 1.8370 0.7882
-0.6444 1.8154 0.7884
-0.7093 1.7915 0.7886
-0.7734 1.7653 0.7888
-2.4121 5.0089 2.2753
-2.5904 4.9190 2.2753
-2.7653 4.8228 2.2753
-2.9366 4.7205 2.2753
-3.1042 4.6120 2.2753
-3.2677 4.4976 2.2753
-3.4271 4.3774 2.2753
-3.5820 4.2516 2.2753
-3.7323 4.1203 2.2753
-3.8778 3.9836 2.2753
-4.0183 3.8419 2.2753
-4.1536 3.6952 2.2753
-4.2836 3.5437 2.2753
-4.4080 3.3876 2.2753
-4.5268 3.2272 2.2753
-4.6397 3.0626 2.2753
-4.7466 2.8941 2.2753
-4.8475 2.7219 2.2753
-4.9421 2.5461 2.2753
-5.0303 2.3670 2.2753
-5.1120 2.1849 2.2753
-5.1871 2.0001 2.2753
-5.2556 1.8126 2.2753
-5.3173 1.6227 2.2753
-5.3721 1.4308 2.2753
-5.4200 1.2371 2.2753
-5.4609 1.0417 2.2753
-5.4948 0.8450 2.2753
-5.5216 0.6472 2.2753
-5.5412 0.4486 2.2753
-5.5538 0.2494 2.2753
-5.5591 0.0499 2.2753
-5.5573 -0.1497 2.2753
-5.5484 -0.3491 2.2753
-5.5323 -0.5480 2.2753
-5.5090 -0.7463 2.2753
-5.4787 -0.9435 2.2753
-5.4413 -1.1396 2.2753
-5.3969 -1.3342 2.2753
-5.3455 -1.5270 2.2753
-5.2873 -1.7180 2.2753
-5.2222 -1.9066 2.2753
-5.1504 -2.0929 2.2753
-5.0719 -2.2764 2.2753
-4.9870 -2.4570 2.2753
-4.8955 -2.6344 2.2753
-4.7978 -2.8084 2.2753
-4.6939 -2.9789 2.2753
-4.5840 -3.1454 2.2753
-4.4681 -3.3080 2.2753
-4.3465 -3.4662 2.2753
-4.2193 -3.6200 2.2753
-4.0866 -3.7691 2.2753
-3.9487 -3.9134 2.2753
-3.8056 -4.0526 2.2753
-3.6577 -4.1866 2.2753
-3.5051 -4.3152 2.2753
-3.3479 -4.4382 2.2753
-3.1864 -4.5556 2.2753
-3.0209 -4.6670 2.2753
-2.8514 -4.7724 2.2753
-2.6782 -4.8717 2.2753
-2.5016 -4.9647 2.2753
-0.8327 -1.8115 0.8160
-0.7673 -1.8407 0.8162
-0.7009 -1.8676 0.8164
-0.6336 -1.8919 0.8166
-0.5653 -1.9138 0.8167
-0.4964 -1.9332 0.8169
-0.4267 -1.9501 0.8170
-0.3565 -1.9644 0.8171
-0.2858 -1.9762 0.8172
-0.2147 -1.9853 0.8173
-0.1433 -1.9919 0.8173
-0.0717 -1.9958 0.8174
0.0000 -1.8733 0.8164
0.0672 -1.8721 0.8164
0.1344 -1.8684 0.8164
0.2014 -1.8622 0.8163
0.2681 -1.8537 0.8163
0.3344 -1.8426 0.8162
0.4003 -1.8292 0.8161
0.4656 -1.8134 0.8159
0.5303 -1.7952 0.8158
0.5943 -1.7747 0.8156
0.6575 -1.7518 0.8155
0.7198 -1.7267 0.8153
0.7811 -1.6993 0.8151
2.3493 -4.6624 2.2753
2.5151 -4.5750 2.2753
2.6777 -4.4818 2.2753
2.8369 -4.3828 2.2753
2.9924 -4.2781 2.2753
3.1440 -4.1679 2.2753
3.2916 -4.0524 2.2753
3.4350 -3.9316 2.2753
3.5739 -3.8058 2.2753
3.7082 -3.6750 2.2753
3.8377 -3.5396 2.2753
3.9623 -3.3995 2.2753
4.0818 -3.2551 2.2753
4.1960 -3.1065 2.2753
4.3048 -2.9539 2.2753
4.4081 -2.7974 2.2753
4.5056 -2.6374 2.2753
4.5974 -2.4740 2.2753
4.6832 -2.3074 2.2753
4.7010 -2.1099 2.2457
4.7169 -1.9167 2.2189
4.7395 -1.7304 2.1989
4.7683 -1.5493 2.1850
4.8029 -1.3720 2.1769
4.8435 -1.1974 2.1744
4.8905 -1.0242 2.1776
4.9449 -0.8516 2.1868
5.0065 -0.6782 2.2018
5.0762 -0.5028 2.2231
5.1551 -0.3243 2.2511
5.2188 -0.1406 2.2753
5.2204 0.0468 2.2752
5.2153 0.2342 2.2752
5.2035 0.4213 2.2752
5.1849 0.6078 2.2752
5.1599 0.7935 2.2752
5.1283 0.9783 2.2753
5.0900 1.1618 2.2754
5.0451 1.3437 2.2754
4.9937 1.5240 2.2755
4.9358 1.7023 2.2755
4.8716 1.8784 2.2755
4.8012 2.0521 2.2755
4.7243 2.2229 2.2755
4.6415 2.3913 2.2755
4.5525 2.5562 2.2754
4.4579 2.7180 2.2755
4.3574 2.8763 2.2755
4.2514 3.0309 2.2755
4.1399 3.1815 2.2755
4.0230 3.3281 2.2755
3.9009 3.4704 2.2755
3.7739 3.6082 2.2755
3.6419 3.7414 2.2755
3.5053 3.8697 2.2755
3.3641 3.9930 2.2755
3.2186 4.1112 2.2755
3.0690 4.2241 2.2755
2.9154 4.3316 2.2755
2.7580 4.4334 2.2755
2.5971 4.5296 2.2755
0.8446 1.6038 0.7900
0.7862 1.6326 0.7897
0.7269 1.6594 0.7895
0.6668 1.6840 0.7894
0.6057 1.7065 0.7892
0.5440 1.7268 0.7890
0.4816 1.7449 0.7889
0.4186 1.7608 0.7888
0.3550 1.7745 0.7887
0.2911 1.7859 0.7886
0.2268 1.7950 0.7885
0.1622 1.8019 0.7885
0.0974 1.8065 0.7884
0.0325 1.8088 0.7884
-0.0325 1.8088 0.7884
-0.0974 1.8065 0.7885
-0.1622 1.8020 0.7885
-0.2268 1.7951 0.7885
-0.2911 1.7860 0.7886
-0.3551 1.7746 0.7887
-0.4186 1.7609 0.7888
-0.4816 1.7450 0.7889
-0.5440 1.7269 0.7891
-0.6058 1.7066 0.7892
-0.6668 1.6841 0.7894
-0.7270 1.6595 0.7896
-0.7863 1.6328 0.7898
-2.4326 4.6195 2.2753
-2.5969 4.5291 2.2753
-2.7578 4.4330 2.2753
-2.9151 4.3311 2.2753
-3.0687 4.2237 2.2753
-3.2183 4.1108 2.2753
-3.3638 3.9926 2.2753
-3.5050 3.8693 2.2753
-3.6416 3.7410 2.2753
-3.7736 3.6079 2.2753
-3.9006 3.4701 2.2753
-4.0227 3.3279 2.2753
-4.1396 3.1813 2.2753
-4.2511 3.0307 2.2753
-4.3571 2.8761 2.2753
-4.4576 2.7179 2.2753
-4.5523 2.5561 2.2753
-4.6411 2.3910 2.2753
-4.7239 2.2229 2.2753
-4.8007 2.0519 2.2753
-4.8712 1.8782 2.2753
-4.9355 1.7022 2.2753
-4.9934 1.5239 2.2753
-5.0449 1.3437 2.2753
-5.0899 1.1617 2.2753
-5.1283 0.9783 2.2753
-5.1601 0.7936 2.2753
-5.1853 0.6078 2.2753
-5.2038 0.4213 2.2753
-5.2155 0.2342 2.2753
-5.2206 0.0468 2.2753
-5.2189 -0.1406 2.2753
-5.2105 -0.3278 2.2753
-5.1954 -0.5147 2.2753
-5.1735 -0.7008 2.2753
-5.1450 -0.8861 2.2753
-5.1099 -1.0702 2.2753
-5.0682 -1.2529 2.2753
-5.0200 -1.4340 2.2753
-4.9653 -1.6133 2.2753
-4.9042 -1.7905 2.2753
-4.8367 -1.9654 2.2753
-4.7631 -2.1378 2.2753
-4.6832 -2.3073 2.2753
-4.5974 -2.4740 2.2753
-4.5056 -2.6374 2.2753
-4.4081 -2.7975 2.2753
-4.3048 -2.9539 2.2753
-4.1960 -3.1065 2.2753
-4.0818 -3.2551 2.2753
-3.9623 -3.3995 2.2753
-3.8377 -3.5396 2.2753
-3.7082 -3.6751 2.2753
-3.5739 -3.8058 2.2753
-3.4350 -3.9316 2.2753
-3.2916 -4.0524 2.2753
-3.1440 -4.1679 2.2753
-2.9924 -4.2781 2.2753
-2.8369 -4.3828 2.2753
-2.6777 -4.4818 2.2753
-2.5151 -4.5750 2.2753
-0.8414 -1.6698 0.8149
-0.7811 -1.6994 0.8151
-0.7198 -1.7268 0.8153
-0.6575 -1.7519 0.8155
-0.5943 -1.7748 0.8157
-0.5303 -1.7953 0.8158
-0.4656 -1.8135 0.8160
-0.4003 -1.8293 0.8161
-0.3344 -1.8427 0.8162
-0.2681 -1.8537 0.8163
-0.2014 -1.8623 0.8163
-0.1344 -1.8684 0.8164
-0.0672 -1.8721 0.8164
0.0000 -1.7619 0.8156
0.0632 -1.7608 0.8156
0.1264 -1.7573 0.8155
0.1894 -1.7515 0.8155
0.2521 -1.7435 0.8154
0.3145 -1.7331 0.8153
0.3765 -1.7205 0.8152
0.4379 -1.7056 0.8151
0.4988 -1.6886 0.8150
0.5590 -1.6692 0.8148
0.6184 -1.6478 0.8147
0.6770 -1.6241 0.8145
0.7347 -1.5984 0.8143
0.7914 -1.5706 0.8141
2.3681 -4.3075 2.2753
2.5212 -4.2197 2.2753
2.6710 -4.1265 2.2753
2.8174 -4.0280 2.2753
2.9602 -3.9242 2.2753
3.0991 -3.8154 2.2753
3.2341 -3.7017 2.2753
3.3649 -3.5832 2.2753
3.4913 -3.4601 2.2753
3.6133 -3.3326 2.2753
3.7306 -3.2007 2.2753
3.8431 -3.0648 2.2753
3.9506 -2.9248 2.2753
4.0531 -2.7811 2.2753
4.1503 -2.6339 2.2753
4.2422 -2.4832 2.2753
4.3286 -2.3293 2.2753
4.4094 -2.1724 2.2753
4.4845 -2.0128 2.2753
4.5539 -1.8505 2.2753
4.6174 -1.6858 2.2753
4.6749 -1.5190 2.2753
4.7264 -1.3502 2.2753
4.7718 -1.1797 2.2753
4.8111 -1.0076 2.2753
4.8442 -0.8343 2.2753
4.8710 -0.6598 2.2753
4.8915 -0.4846 2.2753
4.9058 -0.3086 2.2753
4.9137 -0.1324 2.2753
4.9152 0.0441 2.2753
4.9104 0.2205 2.2753
4.8994 0.3967 2.2753
4.8821 0.5723 2.2753
4.8585 0.7472 2.2754
4.8286 0.9211 2.2754
4.7925 1.0939 2.2754
4.7502 1.2652 2.2755
4.7017 1.4347 2.2754
4.6472 1.6028 2.2755
4.5867 1.7685 2.2755
4.5201 1.9319 2.2754
4.4479 2.0930 2.2754
4.3699 2.2514 2.2754
4.2863 2.4068 2.2754
4.1972 2.5591 2.2755
4.1026 2.7081 2.2755
4.0028 2.8536 2.2755
3.8978 2.9955 2.2755
3.7877 3.1335 2.2755
3.6728 3.2674 2.2755
3.5532 3.3972 2.2755
3.4289 3.5225 2.2755
3.3003 3.6434 2.2755
3.1674 3.7595 2.2755
3.0304 3.8708 2.2755
2.8895 3.9771 2.2755
2.7449 4.0782 2.2755
2.5967 4.1742 2.2755
2.4452 4.2647 2.2755
0.7959 1.5114 0.7907
0.7409 1.5386 0.7905
0.6851 1.5638 0.7903
0.6283 1.5870 0.7901
0.5709 1.6082 0.7899
0.5127 1.6274 0.7898
0.4539 1.6445 0.7897
0.3945 1.6595 0.7896
0.3346 1.6724 0.7895
0.2743 1.6831 0.7894
0.2137 1.6918 0.7893
0.1528 1.6983 0.7893
0.0918 1.7026 0.7892
0.0306 1.7047 0.7892
-0.0306 1.7048 0.7892
-0.0918 1.7026 0.7892
-0.1528 1.6983 0.7893
-0.2137 1.6918 0.7893
-0.2743 1.6832 0.7894
-0.3346 1.6724 0.7895
-0.3945 1.6596 0.7896
-0.4539 1.6446 0.7897
-0.5127 1.6275 0.7898
-0.5709 1.6083 0.7900
-0.6284 1.5871 0.7901
-0.6851 1.5639 0.7903
-0.7410 1.5387 0.7905
-0.7960 1.5115 0.7907
-2.4450 4.2643 2.2753
-2.5965 4.1738 2.2753
-2.7446 4.0779 2.2753
-2.8893 3.9767 2.2753
-3.0301 3.8704 2.2753
-3.1671 3.7592 2.2753
-3.3000 3.6431 2.2753
-3.4287 3.5222 2.2753
-3.5529 3.3969 2.2753
-3.6725 3.2672 2.2753
-3.7875 3.1332 2.2753
-3.8975 2.9953 2.2753
-4.0025 2.8534 2.2753
-4.1023 2.7079 2.2753
-4.1969 2.5589 2.2753
-4.2861 2.4066 2.2753
-4.3697 2.2512 2.2753
-4.4477 2.0929 2.2753
-4.5199 1.9319 2.2753
-4.5864 1.7684 2.2753
-4.6469 1.6026 2.2753
-4.7014 1.4348 2.2753
-4.7499 1.2651 2.2753
-4.7923 1.0938 2.2753
-4.8284 0.9211 2.2753
-4.8584 0.7471 2.2753
-4.8821 0.5723 2.2753
-4.8995 0.3967 2.2753
-4.9105 0.2205 2.2753
-4.9153 0.0441 2.2753
-4.9137 -0.1323 2.2753
-4.9058 -0.3087 2.2753
-4.8916 -0.4846 2.2753
-4.8710 -0.6598 2.2753
-4.8442 -0.8343 2.2753
-4.8111 -1.0076 2.2753
-4.7718 -1.1797 2.2753
-4.7264 -1.3502 2.2753
-4.6749 -1.5190 2.2753
-4.6174 -1.6858 2.2753
-4.5539 -1.8505 2.2753
-4.4845 -2.0127 2.2753
-4.4094 -2.1724 2.2753
-4.3286 -2.3293 2.2753
-4.2422 -2.4832 2.2753
-4.1503 -2.6339 2.2753
-4.0531 -2.7811 2.2753
-3.9506 -2.9248 2.2753
-3.8431 -3.0648 2.2753
-3.7306 -3.2008 2.2753
-3.6133 -3.3326 2.2753
-3.4913 -3.4602 2.2753
-3.3649 -3.5832 2.2753
-3.2341 -3.7017 2.2753
-3.0991 -3.8154 2.2753
-2.9602 -3.9242 2.2753
-2.8174 -4.0280 2.2753
-2.6710 -4.1265 2.2753
-2.5212 -4.2197 2.2753
-2.3681 -4.3075 2.2753
-0.7915 -1.5707 0.8142
-0.7348 -1.5985 0.8144
-0.6771 -1.6243 0.8146
-0.6185 -1.6479 0.8147
-0.5590 -1.6693 0.8149
-0.4988 -1.6886 0.8150
-0.4380 -1.7057 0.8152
-0.3765 -1.7206 0.8153
-0.3145 -1.7332 0.8154
-0.2521 -1.7435 0.8154
-0.1894 -1.7516 0.8155
-0.1264 -1.7573 0.8155
-0.0632 -1.7608 0.8156
0.0000 -1.6611 0.8148
0.0596 -1.6600 0.8148
0.1192 -1.6567 0.8148
0.1786 -1.6513 0.8147
0.2377 -1.6437 0.8147
0.2965 -1.6340 0.8146
0.3549 -1.6221 0.8145
0.4129 -1.6081 0.8144
0.4703 -1.5920 0.8143
0.5270 -1.5738 0.8141
0.5831 -1.5536 0.8140
0.6383 -1.5313 0.8138
0.6927 -1.5071 0.8136
0.7462 -1.4809 0.8134
0.7987 -1.4527 0.8132
2.3791 -3.9819 2.2753
2.5205 -3.8940 2.2753
2.6587 -3.8010 2.2753
2.7934 -3.7031 2.2753
2.9245 -3.6004 2.2753
3.0519 -3.4932 2.2753
3.1753 -3.3814 2.2753
3.2946 -3.2652 2.2753
3.4097 -3.1448 2.2753
3.5204 -3.0204 2.2753
3.6266 -2.8921 2.2753
3.7280 -2.7600 2.2753
3.8247 -2.6244 2.2753
3.9164 -2.4854 2.2753
4.0031 -2.3433 2.2753
4.0847 -2.1981 2.2753
4.1609 -2.0500 2.2753
4.2318 -1.8993 2.2753
4.2973 -1.7462 2.2753
4.3572 -1.5908 2.2753
4.4115 -1.4334 2.2753
4.4601 -1.2741 2.2753
4.5030 -1.1132 2.2753
4.5400 -0.9508 2.2753
4.5712 -0.7872 2.2753
4.5965 -0.6226 2.2753
4.6159 -0.4573 2.2753
4.6294 -0.2913 2.2753
4.6369 -0.1249 2.2753
4.6384 0.0416 2.2753
4.6339 0.2081 2.2754
4.6235 0.3743 2.2754
4.6071 0.5400 2.2754
4.5848 0.7051 2.2754
4.5566 0.8692 2.2754
4.5224 1.0322 2.2754
4.4824 1.1939 2.2754
4.4367 1.3540 2.2754
4.3853 1.5124 2.2754
4.3282 1.6688 2.2754
4.2655 1.8231 2.2754
4.1973 1.9751 2.2754
4.1237 2.1245 2.2754
4.0448 2.2712 2.2754
3.9607 2.4149 2.2754
3.8714 2.5555 2.2755
3.7772 2.6928 2.2755
3.6781 2.8267 2.2755
3.5743 2.9569 2.2755
3.4659 3.0833 2.2755
3.3530 3.2058 2.2755
3.2357 3.3241 2.2755
3.1143 3.4381 2.2755
2.9889 3.5477 2.2755
2.8597 3.6527 2.2755
2.7267 3.7530 2.2755
2.5902 3.8485 2.2755
2.4504 3.9390 2.2755
0.8026 1.3998 0.7915
0.7517 1.4274 0.7913
0.6998 1.4531 0.7911
0.6470 1.4769 0.7909
0.5934 1.4989 0.7908
0.5392 1.5189 0.7906
0.4842 1.5370 0.7905
0.4287 1.5532 0.7904
0.3726 1.5674 0.7903
0.3160 1.5796 0.7902
0.2591 1.5897 0.7901
0.2019 1.5979 0.7900
0.1444 1.6040 0.7900
0.0867 1.6081 0.7900
0.0289 1.6101 0.7899
-0.0289 1.6102 0.7899
-0.0867 1.6081 0.7900
-0.1444 1.6040 0.7900
-0.2019 1.5979 0.7900
-0.2591 1.5898 0.7901
-0.3160 1.5796 0.7902
-0.3726 1.5674 0.7903
-0.4287 1.5533 0.7904
-0.4842 1.5371 0.7905
-0.5392 1.5190 0.7907
-0.5935 1.4990 0.7908
-0.6470 1.4770 0.7910
-0.6998 1.4532 0.7912
-0.7517 1.4275 0.7914
-0.8027 1.3999 0.7916
-2.4502 3.9386 2.2753
-2.5900 3.8481 2.2753
-2.7265 3.7527 2.2753
-2.8594 3.6523 2.2753
-2.9887 3.5474 2.2753
-3.1141 3.4378 2.2753
-3.2355 3.3238 2.2753
-3.3527 3.2055 2.2753
-3.4656 3.0831 2.2753
-3.5740 2.9567 2.2753
-3.6779 2.8265 2.2753
-3.7770 2.6927 2.2753
-3.8712 2.5553 2.2753
-3.9604 2.4147 2.2753
-4.0446 2.2710 2.2753
-4.1235 2.1244 2.2753
-4.1971 1.9750 2.2753
-4.2653 1.8231 2.2753
-4.3280 1.6688 2.2753
-4.3851 1.5123 2.2753
-4.4365 1.3540 2.2753
-4.4823 1.1938 2.2753
-4.5222 1.0322 2.2753
-4.5564 0.8692 2.2753
-4.5846 0.7050 2.2753
-4.6070 0.5400 2.2753
-4.6234 0.3743 2.2753
-4.6339 0.2081 2.2753
-4.6383 0.0416 2.2753
-4.6368 -0.1249 2.2753
-4.6294 -0.2913 2.2753
-4.6159 -0.4572 2.2753
-4.5965 -0.6226 2.2753
-4.5712 -0.7873 2.2753
-4.5400 -0.9508 2.2753
-4.5030 -1.1132 2.2753
-4.4601 -1.2741 2.2753
-4.4115 -1.4334 2.2753
-4.3572 -1.5908 2.2753
-4.2973 -1.7462 2.2753
-4.2318 -1.8993 2.2753
-4.1609 -2.0500 2.2753
-4.0847 -2.1981 2.2753
-4.0031 -2.3433 2.2753
-3.9164 -2.4855 2.2753
-3.8247 -2.6244 2.2753
-3.7280 -2.7600 2.2753
-3.6265 -2.8921 2.2753
-3.5204 -3.0204 2.2753
-3.4097 -3.1448 2.2753
-3.2946 -3.2652 2.2753
-3.1753 -3.3814 2.2753
-3.0519 -3.4931 2.2753
-2.9245 -3.6004 2.2753
-2.7934 -3.7031 2.2753
-2.6587 -3.8010 2.2753
-2.5205 -3.8940 2.2753
-2.3791 -3.9819 2.2753
-0.7987 -1.4529 0.8133
-0.7462 -1.4810 0.8135
-0.6928 -1.5072 0.8137
-0.6384 -1.5314 0.8138
-0.5831 -1.5537 0.8140
-0.5271 -1.5739 0.8142
-0.4703 -1.5921 0.8143
-0.4129 -1.6081 0.8144
-0.3550 -1.6221 0.8145
-0.2965 -1.6340 0.8146
-0.2377 -1.6437 0.8147
-0.1786 -1.6513 0.8147
-0.1192 -1.6568 0.8148
-0.0596 -1.6600 0.8148
0.0000 -1.5693 0.8141
0.0563 -1.5682 0.8141
0.1126 -1.5652 0.8141
0.1687 -1.5600 0.8140
0.2246 -1.5529 0.8140
0.2801 -1.5437 0.8139
0.3353 -1.5324 0.8138
0.3901 -1.5192 0.8137
0.4443 -1.5040 0.8136
0.4979 -1.4869 0.8135
0.5509 -1.4678 0.8133
0.6031 -1.4468 0.8132
0.6545 -1.4239 0.8130
0.7050 -1.3991 0.8128
0.7546 -1.3726 0.8126
0.8032 -1.3443 0.8124
2.3832 -3.6819 2.2753
2.5139 -3.5940 2.2753
2.6412 -3.5014 2.2753
2.7652 -3.4044 2.2753
2.8856 -3.3029 2.2753
3.0023 -3.1972 2.2753
3.1152 -3.0873 2.2753
3.2240 -2.9735 2.2753
3.3287 -2.8559 2.2753
3.4290 -2.7346 2.2753
3.5250 -2.6097 2.2753
3.6164 -2.4815 2.2753
3.7031 -2.3501 2.2753
3.7851 -2.2156 2.2753
3.8622 -2.0783 2.2753
3.9343 -1.9384 2.2753
4.0014 -1.7959 2.2753
4.0632 -1.6511 2.2753
4.1199 -1.5042 2.2753
4.1712 -1.3553 2.2753
4.2172 -1.2047 2.2753
4.2577 -1.0526 2.2753
4.2928 -0.8990 2.2753
4.3223 -0.7444 2.2753
4.3462 -0.5888 2.2753
4.3646 -0.4324 2.2753
4.3773 -0.2754 2.2753
4.3844 -0.1181 2.2753
4.3858 0.0394 2.2754
4.3816 0.1968 2.2754
4.3717 0.3539 2.2754
4.3562 0.5106 2.2754
4.3351 0.6667 2.2754
4.3083 0.8218 2.2754
4.2761 0.9760 2.2754
4.2383 1.1288 2.2754
4.1951 1.2803 2.2754
4.1464 1.4300 2.2754
4.0924 1.5779 2.2754
4.0331 1.7238 2.2754
3.9687 1.8675 2.2754
3.8991 2.0088 2.2754
3.8245 2.1475 2.2754
3.7449 2.2834 2.2754
3.6606 2.4163 2.2755
3.5715 2.5462 2.2755
3.4778 2.6727 2.2755
3.3796 2.7959 2.2755
3.2771 2.9154 2.2755
3.1703 3.0311 2.2755
3.0595 3.1430 2.2755
2.9447 3.2508 2.2755
2.8261 3.3544 2.2755
2.7039 3.4537 2.2755
2.5782 3.5485 2.2755
2.4491 3.6388 2.2755
0.8067 1.2968 0.7923
0.7595 1.3245 0.7921
0.7112 1.3506 0.7919
0.6621 1.3750 0.7917
0.6122 1.3975 0.7915
0.5616 1.4183 0.7914
0.5102 1.4373 0.7912
0.4582 1.4545 0.7911
0.4056 1.4698 0.7910
0.3526 1.4832 0.7909
0.2991 1.4947 0.7908
0.2452 1.5044 0.7907
0.1910 1.5121 0.7907
0.1366 1.5179 0.7906
0.0820 1.5218 0.7906
0.0274 1.5237 0.7906
-0.0274 1.5237 0.7906
-0.0820 1.5218 0.7906
-0.1366 1.5179 0.7907
-0.1910 1.5121 0.7907
-0.2452 1.5044 0.7908
-0.2991 1.4948 0.7908
-0.3526 1.4833 0.7909
-0.4057 1.4698 0.7910
-0.4582 1.4545 0.7911
-0.5102 1.4374 0.7913
-0.5616 1.4184 0.7914
-0.6123 1.3976 0.7916
-0.6622 1.3751 0.7918
-0.7113 1.3507 0.7919
-0.7595 1.3246 0.7921
-0.8068 1.2969 0.7924
-2.4489 3.6385 2.2753
-2.5780 3.5482 2.2753
-2.7037 3.4534 2.2753
-2.8259 3.3541 2.2753
-2.9445 3.2506 2.2753
-3.0593 3.1428 2.2753
-3.1701 3.0309 2.2753
-3.2769 2.9152 2.2753
-3.3794 2.7957 2.2753
-3.4776 2.6725 2.2753
-3.5713 2.5460 2.2753
-3.6603 2.4162 2.2753
-3.7447 2.2832 2.2753
-3.8243 2.1473 2.2753
-3.8989 2.0087 2.2753
-3.9685 1.8674 2.2753
-4.0329 1.7238 2.2753
-4.0922 1.5779 2.2753
-4.1462 1.4300 2.2753
-4.1949 1.2802 2.2753
-4.2381 1.1288 2.2753
-4.2759 0.9759 2.2753
-4.3082 0.8218 2.2753
-4.3349 0.6667 2.2753
-4.3561 0.5106 2.2753
-4.3716 0.3539 2.2753
-4.3815 0.1968 2.2753
-4.3857 0.0394 2.2753
-4.3843 -0.1181 2.2753
-4.3772 -0.2754 2.2753
-4.3645 -0.4324 2.2753
-4.3462 -0.5887 2.2753
-4.3223 -0.7444 2.2753
-4.2928 -0.8990 2.2753
-4.2577 -1.0526 2.2753
-4.2172 -1.2047 2.2753
-4.1712 -1.3553 2.2753
-4.1199 -1.5042 2.2753
-4.0632 -1.6511 2.2753
-4.0014 -1.7959 2.2753
-3.9343 -1.9384 2.2753
-3.8622 -2.0783 2.2753
-3.7851 -2.2156 2.2753
-3.7031 -2.3501 2.2753
-3.6164 -2.4815 2.2753
-3.5250 -2.6097 2.2753
-3.4290 -2.7346 2.2753
-3.3287 -2.8559 2.2753
-3.2240 -2.9735 2.2753
-3.1152 -3.0874 2.2753
-3.0023 -3.1972 2.2753
-2.8856 -3.3029 2.2753
-2.7652 -3.4043 2.2753
-2.6412 -3.5014 2.2753
-2.5139 -3.5940 2.2753
-2.3832 -3.6819 2.2753
-0.8032 -1.3444 0.8124
-0.7546 -1.3727 0.8126
-0.7051 -1.3992 0.8128
-0.6545 -1.4240 0.8130
-0.6031 -1.4469 0.8132
-0.5509 -1.4679 0.8134
-0.4979 -1.4869 0.8135
-0.4443 -1.5041 0.8136
-0.3901 -1.5193 0.8137
-0.3353 -1.5325 0.8138
-0.2801 -1.5437 0.8139
-0.2246 -1.5529 0.8140
-0.1687 -1.5601 0.8140
-0.1126 -1.5652 0.8141
-0.0563 -1.5682 0.8141
0.0000 -1.4852 0.8135
0.0533 -1.4843 0.8135
0.1066 -1.4813 0.8134
0.1597 -1.4765 0.8134
0.2125 -1.4697 0.8133
0.2651 -1.4610 0.8133
0.3174 -1.4504 0.8132
0.3692 -1.4379 0.8131
0.4205 -1.4235 0.8130
0.4713 -1.4073 0.8129
0.5214 -1.3892 0.8127
0.5708 -1.3694 0.8126
0.6195 -1.3477 0.8124
0.6673 -1.3243 0.8122
0.7142 -1.2992 0.8120
0.7602 -1.2724 0.8118
0.8052 -1.2440 0.8116
2.3811 -3.4042 2.2753
2.5018 -3.3165 2.2753
2.6192 -3.2246 2.2753
2.7333 -3.1285 2.2753
2.8438 -3.0284 2.2753
2.9507 -2.9243 2.2753
3.0537 -2.8165 2.2753
3.1529 -2.7051 2.2753
3.2479 -2.5901 2.2753
3.3388 -2.4719 2.2753
3.4254 -2.3505 2.2753
3.5076 -2.2260 2.2753
3.5852 -2.0986 2.2753
3.6582 -1.9686 2.2753
3.7265 -1.8360 2.2753
3.7900 -1.7011 2.2753
3.8487 -1.5639 2.2753
3.9023 -1.4247 2.2753
3.9509 -1.2838 2.2753
3.9945 -1.1411 2.2753
4.0329 -0.9970 2.2753
4.0661 -0.8516 2.2753
4.0940 -0.7051 2.2753
4.1167 -0.5576 2.2753
4.1341 -0.4095 2.2753
4.1461 -0.2609 2.2753
