ply
format ascii 1.0
element vertex 2177
property float32 x
property float32 y
property float32 z
end_header
8.5136 -2.7662 1.8922
8.6015 -2.4572 1.8909
8.6790 -2.1455 1.8898
8.7459 -1.8317 1.8888
8.8022 -1.5159 1.8880
8.8363 -1.1970 1.8849
8.8667 -0.8783 1.8834
8.9059 -0.5603 1.8862
8.9535 -0.2412 1.8933
8.9981 0.0808 1.9021
8.9901 0.4037 1.9022
8.9704 0.7263 1.9024
8.9395 1.0479 1.9026
8.8974 1.3683 1.9028
8.8442 1.6871 1.9032
8.7798 2.0039 1.9036
8.7044 2.3184 1.9041
8.6181 2.6301 1.9046
8.5209 2.9387 1.9053
8.4130 3.2439 1.9060
8.2945 3.5452 1.9067
8.1654 3.8424 1.9076
8.0278 4.1359 1.9089
7.8844 4.4271 1.9113
7.7233 4.7091 1.9121
7.5524 4.9853 1.9129
7.3718 5.2555 1.9137
7.1816 5.5192 1.9146
6.9822 5.7762 1.9155
6.7723 6.0248 1.9160
6.5517 6.2641 1.9160
6.3226 6.4952 1.9160
6.0854 6.7180 1.9160
5.8403 6.9321 1.9160
5.5877 7.1373 1.9160
5.3279 7.3332 1.9160
5.0612 7.5198 1.9160
4.7881 7.6966 1.9160
4.7162 8.2255 2.0042
-9.0611 -0.2441 1.9160
-9.0465 -0.5692 1.9160
-9.0202 -0.8935 1.9160
-8.9824 -1.2167 1.9160
-8.9329 -1.5384 1.9160
-8.8719 -1.8581 1.9160
-8.7995 -2.1753 1.9160
-8.7157 -2.4898 1.9160
-8.6207 -2.8011 1.9160
-8.5146 -3.1087 1.9160
-8.3976 -3.4123 1.9160
-8.2697 -3.7116 1.9160
-8.1311 -4.0060 1.9160
-7.9821 -4.2953 1.9160
-7.8227 -4.5791 1.9160
-7.6533 -4.8569 1.9160
-7.4740 -5.1285 1.9160
-7.2851 -5.3935 1.9160
-7.0868 -5.6516 1.9160
-6.8794 -5.9023 1.9160
-6.6631 -6.1455 1.9160
-6.4382 -6.3807 1.9160
-6.2050 -6.6077 1.9160
-5.9638 -6.8261 1.9160
-5.7722 -7.1064 1.9352
-5.7579 -7.6331 2.0211
0.0000 -8.8010 2.0684
0.3159 -8.7953 2.0684
0.6314 -8.7783 2.0684
0.9461 -8.7500 2.0684
1.2596 -8.7104 2.0684
1.5715 -8.6595 2.0684
1.8813 -8.5975 2.0684
2.1887 -8.5245 2.0684
2.4933 -8.4404 2.0684
2.7947 -8.3455 2.0684
3.0924 -8.2398 2.0684
3.3862 -8.1235 2.0684
3.6756 -7.9967 2.0684
3.9603 -7.8596 2.0684
4.2399 -7.7124 2.0684
4.5140 -7.5552 2.0684
4.6987 -7.2590 2.0322
4.7168 -6.7435 1.9341
4.9096 -6.5085 1.9160
5.1400 -6.3280 1.9160
5.3639 -6.1394 1.9160
5.5808 -5.9429 1.9160
5.7905 -5.7388 1.9160
5.9928 -5.5272 1.9160
6.1873 -5.3085 1.9160
6.3739 -5.0830 1.9160
6.5523 -4.8509 1.9160
6.7222 -4.6126 1.9160
6.8830 -4.3681 1.9159
7.0276 -4.1137 1.9138
7.1634 -3.8548 1.9118
7.2901 -3.5917 1.9100
7.4077 -3.3247 1.9083
7.5160 -3.0541 1.9067
7.6151 -2.7803 1.9053
7.7047 -2.5034 1.9040
7.7848 -2.2239 1.9028
7.8554 -1.9419 1.9018
7.9164 -1.6579 1.9009
7.9676 -1.3722 1.9001
8.0092 -1.0849 1.8995
8.0391 -0.7963 1.8986
8.0546 -0.5068 1.8968
8.0845 -0.2178 1.9007
8.1177 0.0729 1.9079
8.1101 0.3642 1.9080
8.0923 0.6552 1.9081
8.0643 0.9453 1.9083
8.0262 1.2343 1.9085
7.9780 1.5219 1.9088
7.9198 1.8077 1.9092
7.8516 2.0913 1.9096
7.7736 2.3724 1.9102
7.6857 2.6507 1.9107
7.5881 2.9258 1.9113
7.4809 3.1975 1.9120
7.3642 3.4653 1.9128
7.2381 3.7290 1.9136
7.1028 3.9882 1.9145
6.9591 4.2431 1.9156
6.8039 4.4912 1.9160
6.6383 4.7325 1.9160
6.4641 4.9678 1.9160
6.2816 5.1966 1.9160
6.0910 5.4188 1.9160
5.8926 5.6339 1.9160
5.6866 5.8418 1.9160
5.4732 6.0422 1.9160
5.2528 6.2347 1.9160
5.0256 6.4193 1.9160
4.7919 6.5955 1.9160
4.7059 6.9919 1.9808
4.6489 7.4729 2.0684
4.3777 7.6350 2.0684
4.1008 7.7872 2.0684
3.8186 7.9294 2.0684
3.5315 8.0614 2.0684
3.2398 8.1829 2.0684
2.9440 8.2940 2.0684
2.6444 8.3943 2.0684
2.3414 8.4838 2.0684
2.0353 8.5624 2.0684
1.7267 8.6299 2.0684
1.4158 8.6863 2.0684
1.1031 8.7316 2.0684
0.7889 8.7655 2.0684
0.4738 8.7882 2.0684
0.1580 8.7995 2.0684
-0.1580 8.7995 2.0684
-0.4738 8.7882 2.0684
-0.7889 8.7655 2.0684
-1.1031 8.7316 2.0684
-1.4158 8.6863 2.0684
-1.7267 8.6299 2.0684
-2.0353 8.5624 2.0684
-2.3414 8.4838 2.0684
-2.6444 8.3943 2.0684
-2.9440 8.2940 2.0684
-3.2398 8.1829 2.0684
-3.5315 8.0614 2.0684
-3.8186 7.9294 2.0684
-4.1008 7.7872 2.0684
-4.3777 7.6350 2.0684
-4.6489 7.4729 2.0684
-4.9142 7.3012 2.0684
-5.1731 7.1201 2.0684
-5.4253 6.9298 2.0684
-5.6706 6.7306 2.0684
-5.9085 6.5227 2.0684
-6.1389 6.3064 2.0684
-6.3613 6.0820 2.0684
-6.5755 5.8498 2.0684
-6.7813 5.6099 2.0684
-6.9783 5.3629 2.0684
-7.1663 5.1090 2.0684
-7.3451 4.8484 2.0684
-7.5144 4.5816 2.0684
-7.6740 4.3089 2.0684
-7.8237 4.0307 2.0684
-7.9634 3.7473 2.0684
-8.0927 3.4590 2.0684
-8.2117 3.1663 2.0684
-8.3200 2.8695 2.0684
-8.4177 2.5690 2.0684
-8.5045 2.2651 2.0684
-8.5803 1.9584 2.0684
-8.6451 1.6491 2.0684
-8.6987 1.3377 2.0684
-8.7411 1.0246 2.0684
-8.1259 0.6579 1.9160
-8.1443 0.3658 1.9160
-8.1522 0.0732 1.9160
-8.1496 -0.2195 1.9160
-8.1364 -0.5119 1.9160
-8.1128 -0.8036 1.9160
-8.0787 -1.0943 1.9160
-8.0342 -1.3836 1.9160
-7.9794 -1.6711 1.9160
-7.9143 -1.9565 1.9160
-7.8389 -2.2393 1.9160
-7.7535 -2.5193 1.9160
-7.6581 -2.7960 1.9160
-7.5528 -3.0691 1.9160
-7.4377 -3.3382 1.9160
-7.3131 -3.6030 1.9160
-7.1791 -3.8632 1.9160
-7.0358 -4.1184 1.9160
-6.8834 -4.3683 1.9160
-6.7222 -4.6126 1.9160
-6.5522 -4.8509 1.9160
-6.3739 -5.0830 1.9160
-6.1873 -5.3085 1.9160
-5.9928 -5.5272 1.9160
-5.7905 -5.7388 1.9160
-5.7649 -6.1390 1.9792
-5.7523 -6.5840 2.0548
-5.5489 -6.8313 2.0684
-5.3001 -7.0261 2.0684
-5.0444 -7.2119 2.0684
-4.7823 -7.3883 2.0684
-4.5140 -7.5552 2.0684
-4.2399 -7.7123 2.0684
-3.9603 -7.8596 2.0684
-3.6756 -7.9967 2.0684
-3.3862 -8.1235 2.0684
-3.0924 -8.2398 2.0684
-2.7947 -8.3455 2.0684
-2.4933 -8.4404 2.0684
-2.1887 -8.5245 2.0684
-1.8813 -8.5975 2.0684
-1.5715 -8.6595 2.0684
-1.2596 -8.7104 2.0684
-0.9461 -8.7500 2.0684
-0.6314 -8.7783 2.0684
-0.3159 -8.7953 2.0684
0.0000 -7.9888 2.0684
0.2868 -7.9836 2.0684
0.5732 -7.9682 2.0684
0.8588 -7.9425 2.0684
1.1434 -7.9065 2.0684
1.4264 -7.8604 2.0684
1.7077 -7.8040 2.0684
1.9867 -7.7378 2.0684
2.2632 -7.6615 2.0684
2.5368 -7.5753 2.0684
2.8070 -7.4794 2.0684
3.0737 -7.3738 2.0684
3.3364 -7.2587 2.0684
3.5948 -7.1342 2.0684
3.8486 -7.0006 2.0684
4.0974 -6.8579 2.0684
4.3410 -6.7064 2.0684
4.5789 -6.5463 2.0684
4.7007 -6.2316 2.0211
4.7163 -5.8064 1.9368
4.8688 -5.5728 1.9160
5.0658 -5.3945 1.9160
5.2561 -5.2092 1.9160
5.4397 -5.0171 1.9160
5.6163 -4.8186 1.9160
5.7857 -4.6139 1.9160
5.9476 -4.4033 1.9160
6.1018 -4.1869 1.9160
6.2481 -3.9652 1.9160
6.3865 -3.7384 1.9160
6.5165 -3.5067 1.9160
6.6382 -3.2705 1.9160
6.7513 -3.0301 1.9160
6.8558 -2.7858 1.9160
6.9475 -2.5366 1.9150
7.0297 -2.2841 1.9138
7.1032 -2.0292 1.9127
7.1679 -1.7720 1.9118
7.2238 -1.5129 1.9110
7.2709 -1.2522 1.9103
7.3090 -0.9901 1.9097
7.3382 -0.7269 1.9093
7.3585 -0.4630 1.9090
7.3666 -0.1984 1.9080
7.3870 0.0663 1.9127
7.3800 0.3314 1.9127
7.3638 0.5962 1.9128
7.3383 0.8602 1.9130
7.3035 1.1232 1.9132
7.2596 1.3848 1.9135
7.2065 1.6448 1.9139
7.1443 1.9028 1.9143
7.0731 2.1586 1.9147
6.9929 2.4117 1.9152
6.9039 2.6620 1.9158
6.8046 2.9084 1.9160
6.6959 3.1508 1.9160
6.5784 3.3892 1.9160
6.4525 3.6231 1.9160
6.3183 3.8524 1.9160
6.1760 4.0767 1.9160
6.0256 4.2958 1.9160
5.8676 4.5093 1.9160
5.7019 4.7170 1.9160
5.5289 4.9187 1.9160
5.3488 5.1140 1.9160
5.1618 5.3027 1.9160
4.9681 5.4845 1.9160
4.7680 5.6593 1.9160
4.7029 6.0071 1.9753
4.6869 6.4510 2.0646
4.4606 6.6274 2.0684
4.2199 6.7833 2.0684
3.9737 6.9304 2.0684
3.7223 7.0686 2.0684
3.4662 7.1976 2.0684
3.2056 7.3174 2.0684
2.9409 7.4278 2.0684
2.6723 7.5285 2.0684
2.4004 7.6196 2.0684
2.1253 7.7009 2.0684
1.8475 7.7722 2.0684
1.5673 7.8335 2.0684
1.2851 7.8847 2.0684
1.0013 7.9258 2.0684
0.7161 7.9566 2.0684
0.4300 7.9772 2.0684
0.1434 7.9875 2.0684
-0.1434 7.9875 2.0684
-0.4300 7.9772 2.0684
-0.7161 7.9566 2.0684
-1.0013 7.9258 2.0684
-1.2851 7.8847 2.0684
-1.5673 7.8335 2.0684
-1.8475 7.7722 2.0684
-2.1253 7.7009 2.0684
-2.4004 7.6196 2.0684
-2.6723 7.5285 2.0684
-2.9409 7.4278 2.0684
-3.2056 7.3174 2.0684
-3.4662 7.1976 2.0684
-3.7223 7.0686 2.0684
-3.9737 6.9304 2.0684
-4.2199 6.7833 2.0684
-4.4606 6.6274 2.0684
-4.6957 6.4630 2.0684
-4.9246 6.2903 2.0684
-5.1473 6.1095 2.0684
-5.3633 5.9208 2.0684
-5.5723 5.7244 2.0684
-5.7742 5.5207 2.0684
-5.9687 5.3099 2.0684
-6.1554 5.0922 2.0684
-6.3343 4.8680 2.0684
-6.5049 4.6375 2.0684
-6.6672 4.4010 2.0684
-6.8209 4.1588 2.0684
-6.9658 3.9113 2.0684
-7.1017 3.6587 2.0684
-7.2284 3.4014 2.0684
-7.3459 3.1398 2.0684
-7.4539 2.8741 2.0684
-7.5522 2.6046 2.0684
-7.6408 2.3319 2.0684
-7.7196 2.0561 2.0684
-7.7885 1.7777 2.0684
-7.8472 1.4969 2.0684
-7.8959 1.2143 2.0684
-7.3498 0.8615 1.9160
-7.3760 0.5972 1.9160
-7.3927 0.3320 1.9160
-7.3999 0.0664 1.9160
-7.3975 -0.1993 1.9160
-7.3855 -0.4647 1.9160
-7.3641 -0.7295 1.9160
-7.3332 -0.9933 1.9160
-7.2928 -1.2559 1.9160
-7.2430 -1.5169 1.9160
-7.1839 -1.7759 1.9160
-7.1155 -2.0327 1.9160
-7.0380 -2.2868 1.9160
-6.9513 -2.5379 1.9160
-6.8558 -2.7858 1.9160
-6.7513 -3.0301 1.9160
-6.6382 -3.2705 1.9160
-6.5165 -3.5067 1.9160
-6.3865 -3.7384 1.9160
-6.2481 -3.9652 1.9160
-6.1018 -4.1869 1.9160
-5.9476 -4.4033 1.9160
-5.7857 -4.6139 1.9160
-5.7668 -4.9478 1.9674
-5.7568 -5.3096 2.0277
-5.6742 -5.6235 2.0684
-5.4687 -5.8235 2.0684
-5.2561 -6.0161 2.0684
-5.0368 -6.2009 2.0684
-4.8109 -6.3777 2.0684
-4.5789 -6.5463 2.0684
-4.3410 -6.7064 2.0684
-4.0974 -6.8579 2.0684
-3.8486 -7.0006 2.0684
-3.5948 -7.1343 2.0684
-3.3364 -7.2587 2.0684
-3.0737 -7.3738 2.0684
-2.8070 -7.4793 2.0684
-2.5368 -7.5753 2.0684
-2.2632 -7.6615 2.0684
-1.9867 -7.7378 2.0684
-1.7077 -7.8041 2.0684
-1.4265 -7.8604 2.0684
-1.1434 -7.9065 2.0684
-0.8588 -7.9425 2.0684
-0.5732 -7.9682 2.0684
-0.2868 -7.9836 2.0684
0.0000 -7.3065 2.0684
0.2623 -7.3018 2.0684
0.5242 -7.2877 2.0684
0.7855 -7.2642 2.0684
1.0457 -7.2313 2.0684
1.3046 -7.1891 2.0684
1.5619 -7.1377 2.0684
1.8171 -7.0770 2.0684
2.0699 -7.0072 2.0684
2.3201 -6.9284 2.0684
2.5673 -6.8406 2.0684
2.8112 -6.7441 2.0684
3.0515 -6.6388 2.0684
3.2878 -6.5250 2.0684
3.5200 -6.4028 2.0684
3.7475 -6.2723 2.0684
3.9703 -6.1337 2.0684
4.1879 -5.9872 2.0684
4.4001 -5.8331 2.0684
4.6066 -5.6714 2.0684
4.7005 -5.3801 2.0225
4.7140 -5.0199 1.9495
4.8073 -4.7643 1.9160
4.9752 -4.5887 1.9160
5.1367 -4.4071 1.9160
5.2916 -4.2199 1.9160
5.4397 -4.0272 1.9160
5.5807 -3.8294 1.9160
5.7146 -3.6266 1.9160
5.8411 -3.4191 1.9160
5.9600 -3.2072 1.9160
6.0713 -2.9912 1.9160
6.1748 -2.7714 1.9160
6.2703 -2.5479 1.9160
6.3577 -2.3212 1.9160
6.4369 -2.0915 1.9160
6.5079 -1.8591 1.9160
6.5704 -1.6243 1.9160
6.6245 -1.3874 1.9160
6.6700 -1.1487 1.9160
6.7070 -0.9085 1.9160
6.7352 -0.6672 1.9160
6.7548 -0.4250 1.9160
6.7657 -0.1822 1.9160
6.7679 0.0608 1.9160
6.7614 0.3037 1.9160
6.7461 0.5462 1.9160
6.7222 0.7880 1.9160
6.6896 1.0288 1.9160
6.6483 1.2682 1.9160
6.5985 1.5061 1.9160
6.5402 1.7420 1.9160
6.4735 1.9756 1.9160
6.3984 2.2067 1.9160
6.3150 2.4350 1.9160
6.2235 2.6601 1.9160
6.1241 2.8818 1.9160
6.0167 3.0997 1.9160
5.9015 3.3137 1.9160
5.7788 3.5234 1.9160
5.6486 3.7286 1.9160
5.5111 3.9289 1.9160
5.3665 4.1242 1.9160
5.2150 4.3142 1.9160
5.0568 4.4986 1.9160
4.8920 4.6773 1.9160
4.7238 4.8528 1.9172
4.7007 5.1894 1.9822
4.6869 5.5631 2.0593
4.5041 5.7531 2.0684
4.2947 5.9111 2.0684
4.0797 6.0615 2.0684
3.8595 6.2040 2.0684
3.6343 6.3386 2.0684
3.4044 6.4649 2.0684
3.1702 6.5830 2.0684
2.9318 6.6925 2.0684
2.6897 6.7934 2.0684
2.4441 6.8856 2.0684
2.1954 6.9689 2.0684
1.9438 7.0432 2.0684
1.6897 7.1085 2.0684
1.4335 7.1645 2.0684
1.1754 7.2114 2.0684
0.9158 7.2489 2.0684
0.6550 7.2771 2.0684
0.3933 7.2959 2.0684
0.1312 7.3054 2.0684
-0.1312 7.3054 2.0684
-0.3933 7.2959 2.0684
-0.6550 7.2771 2.0684
-0.9158 7.2489 2.0684
-1.1754 7.2114 2.0684
-1.4335 7.1645 2.0684
-1.6897 7.1085 2.0684
-1.9438 7.0432 2.0684
-2.1954 6.9689 2.0684
-2.4441 6.8856 2.0684
-2.6897 6.7934 2.0684
-2.9318 6.6925 2.0684
-3.1702 6.5830 2.0684
-3.4044 6.4649 2.0684
-3.6343 6.3385 2.0684
-3.8595 6.2040 2.0684
-4.0797 6.0615 2.0684
-4.2947 5.9111 2.0684
-4.5041 5.7531 2.0684
-4.7077 5.5878 2.0684
-4.9053 5.4152 2.0684
-5.0965 5.2356 2.0684
-5.2811 5.0493 2.0684
-5.4590 4.8565 2.0684
-5.6298 4.6574 2.0684
-5.7933 4.4523 2.0684
-5.9494 4.2414 2.0684
-6.0978 4.0251 2.0684
-6.2384 3.8037 2.0684
-6.3709 3.5773 2.0684
-6.4952 3.3463 2.0684
-6.6112 3.1110 2.0684
-6.7186 2.8716 2.0684
-6.8173 2.6286 2.0684
-6.9073 2.3822 2.0684
-6.9883 2.1327 2.0684
-7.0604 1.8805 2.0684
-7.1233 1.6259 2.0684
-7.1771 1.3691 2.0684
-7.2216 1.1106 2.0684
-6.8533 0.8033 1.9534
-6.7461 0.5462 1.9160
-6.7614 0.3037 1.9160
-6.7679 0.0607 1.9160
-6.7657 -0.1822 1.9160
-6.7548 -0.4250 1.9160
-6.7352 -0.6672 1.9160
-6.7070 -0.9085 1.9160
-6.6700 -1.1487 1.9160
-6.6245 -1.3874 1.9160
-6.5704 -1.6243 1.9160
-6.5079 -1.8591 1.9160
-6.4369 -2.0915 1.9160
-6.3577 -2.3212 1.9160
-6.2703 -2.5479 1.9160
-6.1748 -2.7714 1.9160
-6.0713 -2.9912 1.9160
-5.9600 -3.2072 1.9160
-5.8411 -3.4191 1.9160
-5.7722 -3.6631 1.9353
-5.7649 -3.9557 1.9793
-5.7568 -4.2620 2.0277
-5.7125 -4.5555 2.0684
-5.5453 -4.7577 2.0684
-5.3709 -4.9537 2.0684
-5.1896 -5.1433 2.0684
-5.0017 -5.3262 2.0684
-4.8073 -5.5023 2.0684
-4.6066 -5.6714 2.0684
-4.4001 -5.8331 2.0684
-4.1879 -5.9873 2.0684
-3.9703 -6.1337 2.0684
-3.7475 -6.2723 2.0684
-3.5200 -6.4028 2.0684
-3.2878 -6.5250 2.0684
-3.0515 -6.6388 2.0684
-2.8112 -6.7441 2.0684
-2.5673 -6.8406 2.0684
-2.3201 -6.9284 2.0684
-2.0699 -7.0072 2.0684
-1.8171 -7.0770 2.0684
-1.5619 -7.1377 2.0684
-1.3046 -7.1891 2.0684
-1.0457 -7.2313 2.0684
-0.7855 -7.2642 2.0684
-0.5242 -7.2877 2.0684
-0.2623 -7.3018 2.0684
0.0000 -6.7249 2.0684
0.2414 -6.7205 2.0684
0.4825 -6.7076 2.0684
0.7229 -6.6859 2.0684
0.9625 -6.6557 2.0684
1.2008 -6.6168 2.0684
1.4375 -6.5694 2.0684
1.6724 -6.5136 2.0684
1.9051 -6.4494 2.0684
2.1354 -6.3768 2.0684
2.3630 -6.2961 2.0684
2.5874 -6.2072 2.0684
2.8086 -6.1103 2.0684
3.0261 -6.0056 2.0684
3.2397 -5.8931 2.0684
3.4492 -5.7730 2.0684
3.6542 -5.6454 2.0684
3.8545 -5.5106 2.0684
4.0498 -5.3687 2.0684
4.2399 -5.2199 2.0684
4.4246 -5.0643 2.0684
4.6035 -4.9022 2.0684
4.6982 -4.6562 2.0345
4.7100 -4.3441 1.9708
4.7312 -4.0592 1.9174
4.8809 -3.8924 1.9202
5.0066 -3.7066 1.9160
5.1364 -3.5245 1.9160
5.2597 -3.3379 1.9160
5.3761 -3.1469 1.9160
5.4856 -2.9519 1.9160
5.5880 -2.7531 1.9160
5.6832 -2.5507 1.9160
5.7711 -2.3451 1.9160
5.8516 -2.1364 1.9160
5.9245 -1.9250 1.9160
5.9898 -1.7111 1.9160
6.0474 -1.4950 1.9160
6.0971 -1.2769 1.9160
6.1390 -1.0572 1.9160
6.1730 -0.8362 1.9160
6.1991 -0.6141 1.9160
6.2171 -0.3911 1.9160
6.2271 -0.1677 1.9160
6.2292 0.0559 1.9160
6.2231 0.2795 1.9160
6.2091 0.5027 1.9160
6.1870 0.7252 1.9160
6.1570 0.9469 1.9160
6.1191 1.1673 1.9160
6.0732 1.3862 1.9160
6.0195 1.6033 1.9160
5.9581 1.8183 1.9160
5.8890 2.0310 1.9160
5.8123 2.2411 1.9160
5.7281 2.4483 1.9160
5.6365 2.6523 1.9160
5.5377 2.8530 1.9160
5.4317 3.0499 1.9160
5.3187 3.2429 1.9160
5.1989 3.4318 1.9160
5.0724 3.6162 1.9160
4.9393 3.7959 1.9160
4.7998 3.9708 1.9160
4.7081 4.1885 1.9382
4.6969 4.4907 1.9987
4.6849 4.8127 2.0658
4.5148 4.9841 2.0684
4.3329 5.1429 2.0684
4.1455 5.2952 2.0684
3.9528 5.4405 2.0684
3.7549 5.5789 2.0684
3.5523 5.7101 2.0684
3.3450 5.8340 2.0684
3.1334 5.9503 2.0684
2.9178 6.0589 2.0684
2.6984 6.1597 2.0684
2.4756 6.2526 2.0684
2.2496 6.3375 2.0684
2.0206 6.4141 2.0684
1.7891 6.4825 2.0684
1.5552 6.5426 2.0684
1.3194 6.5942 2.0684
1.0818 6.6373 2.0684
0.8429 6.6719 2.0684
0.6028 6.6978 2.0684
0.3620 6.7151 2.0684
0.1207 6.7238 2.0684
-0.1207 6.7238 2.0684
-0.3620 6.7151 2.0684
-0.6028 6.6978 2.0684
-0.8429 6.6719 2.0684
-1.0818 6.6373 2.0684
-1.3194 6.5942 2.0684
-1.5552 6.5426 2.0684
-1.7891 6.4825 2.0684
-2.0206 6.4141 2.0684
-2.2496 6.3375 2.0684
-2.4756 6.2526 2.0684
-2.6984 6.1597 2.0684
-2.9178 6.0589 2.0684
-3.1334 5.9503 2.0684
-3.3450 5.8340 2.0684
-3.5523 5.7101 2.0684
-3.7549 5.5789 2.0684
-3.9528 5.4405 2.0684
-4.1455 5.2951 2.0684
-4.3329 5.1429 2.0684
-4.5148 4.9841 2.0684
-4.6908 4.8188 2.0684
-4.8607 4.6473 2.0684
-5.0244 4.4698 2.0684
-5.1816 4.2866 2.0684
-5.3321 4.0978 2.0684
-5.4758 3.9038 2.0684
-5.6124 3.7047 2.0684
-5.7418 3.5009 2.0684
-5.8637 3.2925 2.0684
-5.9782 3.0799 2.0684
-6.0849 2.8633 2.0684
-6.1837 2.6430 2.0684
-6.2746 2.4194 2.0684
-6.3574 2.1926 2.0684
-6.4320 1.9630 2.0684
-6.4983 1.7308 2.0684
-6.5563 1.4964 2.0684
-6.6058 1.2601 2.0684
-6.6467 1.0222 2.0684
-6.6792 0.7829 2.0684
-6.4589 0.5229 1.9931
-6.2517 0.2808 1.9248
-6.2291 0.0559 1.9160
-6.2271 -0.1677 1.9160
-6.2171 -0.3911 1.9160
-6.1991 -0.6141 1.9160
-6.1730 -0.8362 1.9160
-6.1390 -1.0572 1.9160
-6.0971 -1.2769 1.9160
-6.0474 -1.4950 1.9160
-5.9898 -1.7111 1.9160
-5.9245 -1.9245 1.9160
-5.8516 -2.1364 1.9160
-5.7752 -2.3468 1.9174
-5.7705 -2.5899 1.9454
-5.7653 -2.8404 1.9768
-5.7595 -3.0993 2.0117
-5.7530 -3.3676 2.0504
-5.6780 -3.6034 2.0684
-5.5450 -3.8049 2.0684
-5.4048 -4.0015 2.0684
-5.2577 -4.1929 2.0684
-5.1038 -4.3789 2.0684
-4.9433 -4.5593 2.0684
-4.7765 -4.7338 2.0684
-4.6035 -4.9022 2.0684
-4.4246 -5.0643 2.0684
-4.2399 -5.2199 2.0684
-4.0498 -5.3687 2.0684
-3.8545 -5.5106 2.0684
-3.6542 -5.6454 2.0684
-3.4492 -5.7730 2.0684
-3.2397 -5.8931 2.0684
-3.0261 -6.0056 2.0684
-2.8086 -6.1103 2.0684
-2.5874 -6.2072 2.0684
-2.3630 -6.2961 2.0684
-2.1354 -6.3768 2.0684
-1.9051 -6.4494 2.0684
-1.6724 -6.5136 2.0684
-1.4375 -6.5694 2.0684
-1.2008 -6.6168 2.0684
-0.9625 -6.6557 2.0684
-0.7230 -6.6859 2.0684
-0.4825 -6.7076 2.0684
-0.2414 -6.7206 2.0684
0.0000 -6.2226 2.0684
0.2234 -6.2186 2.0684
0.4464 -6.2066 2.0684
0.6690 -6.1865 2.0684
0.8906 -6.1585 2.0684
1.1111 -6.1226 2.0684
1.3302 -6.0788 2.0684
1.5475 -6.0271 2.0684
1.7629 -5.9677 2.0684
1.9759 -5.9006 2.0684
2.1865 -5.8258 2.0684
2.3942 -5.7436 2.0684
2.5988 -5.6539 2.0684
2.8001 -5.5570 2.0684
2.9978 -5.4529 2.0684
3.1916 -5.3418 2.0684
3.3813 -5.2238 2.0684
3.5666 -5.0990 2.0684
3.7473 -4.9677 2.0684
3.9232 -4.8300 2.0684
4.0941 -4.6861 2.0684
4.2597 -4.5362 2.0684
4.4198 -4.3803 2.0684
4.5741 -4.2188 2.0684
4.6943 -4.0273 2.0560
4.7046 -3.7518 2.0002
4.7140 -3.4900 1.9496
4.7528 -3.2613 1.9160
4.8668 -3.0886 1.9160
4.9746 -2.9119 1.9160
5.0759 -2.7314 1.9160
5.1706 -2.5475 1.9160
5.2588 -2.3602 1.9160
5.3401 -2.1699 1.9160
5.4145 -1.9769 1.9160
5.4820 -1.7812 1.9160
5.5424 -1.5833 1.9160
5.5957 -1.3833 1.9160
5.6417 -1.1816 1.9160
5.6805 -0.9783 1.9160
5.7120 -0.7737 1.9160
5.7361 -0.5682 1.9160
5.7528 -0.3619 1.9160
5.7620 -0.1552 1.9160
5.7639 0.0517 1.9160
5.7583 0.2586 1.9160
5.7453 0.4651 1.9160
5.7249 0.6711 1.9160
5.6972 0.8761 1.9160
5.6620 1.0801 1.9160
5.6196 1.2826 1.9160
5.5700 1.4835 1.9160
5.5131 1.6825 1.9160
5.4492 1.8793 1.9160
5.3782 2.0737 1.9160
5.3003 2.2654 1.9160
5.2155 2.4542 1.9160
5.1241 2.6399 1.9160
5.0260 2.8221 1.9160
4.9215 3.0007 1.9160
4.8106 3.1754 1.9160
4.7174 3.3631 1.9258
4.7036 3.6148 1.9719
4.6931 3.8824 2.0246
4.6491 4.1360 2.0684
4.4977 4.3002 2.0684
4.3404 4.4589 2.0684
4.1776 4.6118 2.0684
4.0093 4.7588 2.0684
3.8359 4.8997 2.0684
3.6576 5.0342 2.0684
3.4745 5.1622 2.0684
3.2869 5.2836 2.0684
3.0952 5.3982 2.0684
2.8994 5.5058 2.0684
2.6999 5.6064 2.0684
2.4969 5.6997 2.0684
2.2907 5.7856 2.0684
2.0815 5.8641 2.0684
1.8697 5.9351 2.0684
1.6554 5.9984 2.0684
1.4391 6.0539 2.0684
1.2208 6.1017 2.0684
1.0010 6.1416 2.0684
0.7799 6.1735 2.0684
0.5578 6.1976 2.0684
0.3350 6.2136 2.0684
0.1117 6.2216 2.0684
-0.1117 6.2216 2.0684
-0.3350 6.2136 2.0684
-0.5578 6.1976 2.0684
-0.7799 6.1735 2.0684
-1.0010 6.1416 2.0684
-1.2208 6.1017 2.0684
-1.4391 6.0539 2.0684
-1.6554 5.9984 2.0684
-1.8697 5.9351 2.0684
-2.0815 5.8641 2.0684
-2.2907 5.7856 2.0684
-2.4969 5.6997 2.0684
-2.6999 5.6064 2.0684
-2.8994 5.5058 2.0684
-3.0952 5.3982 2.0684
-3.2869 5.2836 2.0684
-3.4745 5.1622 2.0684
-3.6576 5.0342 2.0684
-3.8359 4.8997 2.0684
-4.0093 4.7588 2.0684
-4.1776 4.6118 2.0684
-4.3404 4.4589 2.0684
-4.4977 4.3002 2.0684
-4.6491 4.1360 2.0684
-4.7946 3.9664 2.0684
-4.9339 3.7918 2.0684
-5.0668 3.6122 2.0684
-5.1932 3.4280 2.0684
-5.3129 3.2394 2.0684
-5.4258 3.0466 2.0684
-5.5317 2.8499 2.0684
-5.6304 2.6495 2.0684
-5.7219 2.4456 2.0684
-5.8060 2.2387 2.0684
-5.8826 2.0288 2.0684
-5.9516 1.8163 2.0684
-6.0130 1.6015 2.0684
-6.0666 1.3847 2.0684
-6.1124 1.1660 2.0684
-6.1503 0.9458 2.0684
-6.1803 0.7245 2.0684
-6.2023 0.5021 2.0684
-6.2163 0.2792 2.0684
-6.0725 0.0545 2.0186
-5.9642 -0.1607 1.9833
-5.8823 -0.3701 1.9592
-5.8234 -0.5769 1.9452
-5.7861 -0.7838 1.9409
-5.7707 -0.9938 1.9464
-5.7682 -1.2081 1.9590
-5.7657 -1.4253 1.9742
-5.7627 -1.6462 1.9922
-5.7593 -1.8713 2.0129
-5.7553 -2.1013 2.0366
-5.7508 -2.3368 2.0634
-5.6770 -2.5480 2.0684
-5.5819 -2.7501 2.0684
-5.4796 -2.9487 2.0684
-5.3702 -3.1435 2.0684
-5.2539 -3.3342 2.0684
-5.1308 -3.5207 2.0684
-5.0012 -3.7026 2.0684
-4.8650 -3.8797 2.0684
-4.7226 -4.0519 2.0684
-4.5741 -4.2188 2.0684
-4.4198 -4.3803 2.0684
-4.2597 -4.5361 2.0684
-4.0941 -4.6861 2.0684
-3.9232 -4.8300 2.0684
-3.7473 -4.9677 2.0684
-3.5666 -5.0990 2.0684
-3.3813 -5.2238 2.0684
-3.1916 -5.3418 2.0684
-2.9978 -5.4529 2.0684
-2.8001 -5.5570 2.0684
-2.5988 -5.6539 2.0684
-2.3942 -5.7436 2.0684
-2.1865 -5.8258 2.0684
-1.9759 -5.9006 2.0684
-1.7629 -5.9677 2.0684
-1.5475 -6.0271 2.0684
-1.3302 -6.0788 2.0684
-1.1111 -6.1226 2.0684
-0.8906 -6.1585 2.0684
-0.6690 -6.1866 2.0684
-0.4464 -6.2066 2.0684
-0.2234 -6.2186 2.0684
0.0000 -5.7841 2.0684
0.2076 -5.7804 2.0684
0.4150 -5.7692 2.0684
0.6218 -5.7506 2.0684
0.8278 -5.7245 2.0684
1.0328 -5.6911 2.0684
1.2364 -5.6504 2.0684
1.4384 -5.6024 2.0684
1.6386 -5.5471 2.0684
1.8367 -5.4847 2.0684
2.0324 -5.4153 2.0684
2.2255 -5.3388 2.0684
2.4157 -5.2555 2.0684
2.6028 -5.1654 2.0684
2.7865 -5.0686 2.0684
2.9667 -4.9653 2.0684
3.1430 -4.8556 2.0684
3.3153 -4.7397 2.0684
3.4833 -4.6176 2.0684
3.6468 -4.4896 2.0684
3.8056 -4.3558 2.0684
3.9595 -4.2164 2.0684
4.1083 -4.0716 2.0684
4.2518 -3.9215 2.0684
4.3898 -3.7663 2.0684
4.5222 -3.6063 2.0684
4.6487 -3.4417 2.0684
4.6977 -3.2235 2.0374
4.7059 -2.9865 1.9931
4.7133 -2.7590 1.9531
4.7284 -2.5445 1.9202
4.8063 -2.3679 1.9160
4.8882 -2.1939 1.9160
4.9638 -2.0170 1.9160
5.0330 -1.8375 1.9160
5.0957 -1.6557 1.9160
5.1518 -1.4717 1.9160
5.2013 -1.2858 1.9160
5.2441 -1.0983 1.9160
5.2802 -0.9093 1.9160
5.3094 -0.7192 1.9160
5.3318 -0.5282 1.9160
5.3473 -0.3364 1.9160
5.3560 -0.1443 1.9160
5.3577 0.0481 1.9160
5.3525 0.2404 1.9160
5.3404 0.4324 1.9160
5.3215 0.6238 1.9160
5.2957 0.8144 1.9160
5.2630 1.0040 1.9160
5.2236 1.1923 1.9160
5.1774 1.3790 1.9160
5.1246 1.5640 1.9160
5.0651 1.7469 1.9160
4.9992 1.9276 1.9160
4.9268 2.1058 1.9160
4.8480 2.2813 1.9160
4.7630 2.4538 1.9160
4.7137 2.6467 1.9332
4.7060 2.8693 1.9710
4.6976 3.1008 2.0129
4.6883 3.3424 2.0590
4.5862 3.5246 2.0684
4.4567 3.6869 2.0684
4.3215 3.8445 2.0684
4.1807 3.9972 2.0684
4.0345 4.1447 2.0684
3.8832 4.2868 2.0684
3.7268 4.4234 2.0684
3.5656 4.5544 2.0684
3.3998 4.6794 2.0684
3.2296 4.7984 2.0684
3.0553 4.9113 2.0684
2.8770 5.0178 2.0684
2.6951 5.1178 2.0684
2.5096 5.2113 2.0684
2.3209 5.2980 2.0684
0.8097 2.0452 0.7866
0.7356 2.0724 0.7864
0.6606 2.0970 0.7862
1.5388 5.5756 2.0684
1.3376 5.6273 2.0684
1.1348 5.6717 2.0684
0.9305 5.7087 2.0684
0.7249 5.7385 2.0684
0.5185 5.7608 2.0684
0.3114 5.7757 2.0684
0.1038 5.7832 2.0684
-0.1038 5.7831 2.0684
-0.3114 5.7757 2.0684
-0.5185 5.7608 2.0684
-0.7249 5.7385 2.0684
-0.9305 5.7088 2.0684
-1.1348 5.6717 2.0684
-1.3376 5.6273 2.0684
-1.5388 5.5756 2.0684
-0.6606 2.0971 0.7863
-0.7357 2.0725 0.7865
-0.8098 2.0453 0.7867
-2.3209 5.2980 2.0684
-2.5096 5.2113 2.0684
-2.6951 5.1178 2.0684
-2.8770 5.0178 2.0684
-3.0553 4.9113 2.0684
-3.2296 4.7984 2.0684
-3.3998 4.6794 2.0684
-3.5656 4.5544 2.0684
-3.7268 4.4234 2.0684
-3.8832 4.2868 2.0684
-4.0345 4.1447 2.0684
-4.1807 3.9972 2.0684
-4.3215 3.8445 2.0684
-4.4567 3.6869 2.0684
-4.5862 3.5246 2.0684
-4.7097 3.3577 2.0684
-4.8272 3.1864 2.0684
-4.9385 3.0111 2.0684
-5.0434 2.8319 2.0684
-5.1418 2.6490 2.0684
-5.2336 2.4627 2.0684
-5.3186 2.2733 2.0684
-5.3968 2.0809 2.0684
-5.4680 1.8858 2.0684
-5.5322 1.6883 2.0684
-5.5892 1.4887 2.0684
-5.6391 1.2871 2.0684
-5.6816 1.0838 2.0684
-5.7169 0.8792 2.0684
-5.7448 0.6734 2.0684
-5.7652 0.4667 2.0684
-5.7783 0.2595 2.0684
-5.7838 0.0519 2.0684
-5.7820 -0.1557 2.0684
-5.7727 -0.3632 2.0684
-5.7559 -0.5702 2.0684
-5.7317 -0.7764 2.0684
-5.7002 -0.9817 2.0684
-5.6613 -1.1856 2.0684
-5.6150 -1.3881 2.0684
-5.5616 -1.5888 2.0684
-5.5010 -1.7874 2.0684
-5.4333 -1.9837 2.0684
-5.3586 -2.1775 2.0684
-5.2770 -2.3684 2.0684
-5.1885 -2.5563 2.0684
-5.0934 -2.7409 2.0684
-4.9918 -2.9220 2.0684
-4.8837 -3.0993 2.0684
-4.7693 -3.2726 2.0684
-4.6487 -3.4417 2.0684
-4.5222 -3.6063 2.0684
-4.3898 -3.7663 2.0684
-4.2518 -3.9215 2.0684
-4.1083 -4.0716 2.0684
-3.9595 -4.2164 2.0684
-3.8056 -4.3558 2.0684
-3.6468 -4.4896 2.0684
-3.4833 -4.6176 2.0684
-3.3153 -4.7397 2.0684
-3.1430 -4.8556 2.0684
-2.9667 -4.9653 2.0684
-2.7865 -5.0686 2.0684
-2.6028 -5.1654 2.0684
-2.4157 -5.2555 2.0684
-2.2255 -5.3388 2.0684
-2.0324 -5.4153 2.0684
-1.8367 -5.4847 2.0684
-1.6386 -5.5471 2.0684
-1.4384 -5.6024 2.0684
-1.2364 -5.6504 2.0684
-1.0328 -5.6911 2.0684
-0.8278 -5.7245 2.0684
-0.6218 -5.7506 2.0684
-0.4150 -5.7692 2.0684
-0.2076 -5.7804 2.0684
0.0000 -5.3975 2.0684
0.1938 -5.3940 2.0684
0.1532 -2.1300 0.8184
0.2296 -2.1230 0.8183
0.3056 -2.1132 0.8182
0.3812 -2.1006 0.8181
0.4563 -2.0852 0.8180
0.5308 -2.0672 0.8179
0.6045 -2.0464 0.8177
0.6774 -2.0229 0.8175
0.7494 -1.9968 0.8173
0.8204 -1.9681 0.8171
2.2542 -4.9043 2.0684
2.4288 -4.8202 2.0684
2.6003 -4.7299 2.0684
2.7684 -4.6335 2.0684
2.9329 -4.5311 2.0684
3.0937 -4.4229 2.0684
3.2505 -4.3090 2.0684
3.4030 -4.1896 2.0684
3.5512 -4.0647 2.0684
3.6949 -3.9346 2.0684
3.8337 -3.7995 2.0684
3.9676 -3.6594 2.0684
4.0964 -3.5146 2.0684
4.2200 -3.3653 2.0684
4.3380 -3.2117 2.0684
4.4505 -3.0539 2.0684
4.5573 -2.8921 2.0684
4.6582 -2.7267 2.0684
4.6965 -2.5273 2.0438
4.7029 -2.3170 2.0091
4.7087 -2.1134 1.9779
4.7139 -1.9155 1.9499
4.7222 -1.7241 1.9265
4.7551 -1.5450 1.9160
4.8075 -1.3734 1.9160
4.8537 -1.1999 1.9160
4.8937 -1.0249 1.9160
4.9273 -0.8486 1.9160
4.9546 -0.6711 1.9160
4.9755 -0.4929 1.9160
4.9900 -0.3139 1.9160
4.9980 -0.1346 1.9160
4.9996 0.0449 1.9160
4.9948 0.2243 1.9160
4.9835 0.4035 1.9160
4.9658 0.5821 1.9160
4.9417 0.7600 1.9160
4.9113 0.9369 1.9160
4.8819 1.1143 1.9190
4.8314 1.2868 1.9160
4.7821 1.4594 1.9160
4.7303 1.6314 1.9175
4.7154 1.8182 1.9367
4.7101 2.0132 1.9629
4.7040 2.2135 1.9923
4.6974 2.4200 2.0250
4.6900 2.6335 2.0612
4.6085 2.8099 2.0684
4.5046 2.9735 2.0684
4.3950 3.1333 2.0684
4.2797 3.2890 2.0684
4.1589 3.4405 2.0684
4.0327 3.5876 2.0684
3.9013 3.7300 2.0684
3.7649 3.8677 2.0684
3.6236 4.0003 2.0684
3.4777 4.1278 2.0684
3.3273 4.2500 2.0684
3.1726 4.3667 2.0684
3.0138 4.4778 2.0684
2.8511 4.5831 2.0684
2.6848 4.6824 2.0684
2.5150 4.7758 2.0684
2.3419 4.8630 2.0684
0.8249 1.8831 0.7878
0.7566 1.9110 0.7876
0.6874 1.9364 0.7874
0.6173 1.9594 0.7873
0.5464 1.9799 0.7871
0.4749 1.9979 0.7870
0.4028 2.0134 0.7869
0.3303 2.0263 0.7868
0.2573 2.0367 0.7867
0.1840 2.0445 0.7866
0.1105 2.0496 0.7866
0.0368 2.0522 0.7866
-0.0368 2.0523 0.7866
-0.1105 2.0497 0.7866
-0.1840 2.0445 0.7867
-0.2573 2.0367 0.7867
-0.3303 2.0264 0.7868
-0.4029 2.0135 0.7869
-0.4749 1.9980 0.7870
-0.5465 1.9800 0.7872
-0.6173 1.9596 0.7873
-0.6874 1.9366 0.7875
-0.7567 1.9111 0.7877
-0.8250 1.8832 0.7879
-2.3419 4.8630 2.0684
-2.5150 4.7758 2.0684
-2.6848 4.6825 2.0684
-2.8511 4.5831 2.0684
-3.0138 4.4778 2.0684
-3.1726 4.3667 2.0684
-3.3273 4.2500 2.0684
-3.4777 4.1278 2.0684
-3.6236 4.0003 2.0684
-3.7649 3.8677 2.0684
-3.9013 3.7300 2.0684
-4.0327 3.5876 2.0684
-4.1589 3.4405 2.0684
-4.2797 3.2890 2.0684
-4.3950 3.1333 2.0684
-4.5046 2.9735 2.0684
-4.6085 2.8099 2.0684
-4.7064 2.6426 2.0684
-4.7982 2.4720 2.0684
-4.8838 2.2982 2.0684
-4.9632 2.1214 2.0684
-5.0361 1.9418 2.0684
-5.1026 1.7598 2.0684
-5.1625 1.5755 2.0684
-5.2157 1.3892 2.0684
-5.2622 1.2011 2.0684
-5.3019 1.0114 2.0684
-5.3348 0.8204 2.0684
-5.3608 0.6284 2.0684
-5.3799 0.4356 2.0684
-5.3921 0.2422 2.0684
-5.3973 0.0484 2.0684
-5.3956 -0.1453 2.0684
-5.3869 -0.3389 2.0684
-5.3712 -0.5321 2.0684
-5.3487 -0.7245 2.0684
-5.3192 -0.9161 2.0684
-5.2829 -1.1064 2.0684
-5.2398 -1.2953 2.0684
-5.1899 -1.4826 2.0684
-5.1334 -1.6679 2.0684
-5.0702 -1.8511 2.0684
-5.0005 -2.0319 2.0684
-4.9243 -2.2101 2.0684
-4.8418 -2.3855 2.0684
-4.7530 -2.5577 2.0684
-4.6582 -2.7267 2.0684
-4.5573 -2.8921 2.0684
-4.4505 -3.0539 2.0684
-4.3380 -3.2117 2.0684
-4.2200 -3.3653 2.0684
-4.0964 -3.5146 2.0684
-3.9676 -3.6594 2.0684
-3.8337 -3.7995 2.0684
-3.6949 -3.9346 2.0684
-3.5512 -4.0647 2.0684
-3.4030 -4.1896 2.0684
-3.2505 -4.3090 2.0684
-3.0937 -4.4229 2.0684
-2.9329 -4.5311 2.0684
-2.7684 -4.6335 2.0684
-2.6003 -4.7299 2.0684
-2.4288 -4.8202 2.0684
-2.2542 -4.9043 2.0684
-0.8205 -1.9682 0.8172
-0.7495 -1.9970 0.8174
-0.6775 -2.0231 0.8176
-0.6045 -2.0465 0.8178
-0.5308 -2.0673 0.8179
-0.4563 -2.0853 0.8180
-0.3812 -2.1007 0.8182
-0.3056 -2.1132 0.8183
-0.2296 -2.1230 0.8183
-0.1532 -2.1300 0.8184
-0.1938 -5.3941 2.0684
0.0000 -1.9971 0.8174
0.0717 -1.9958 0.8173
0.1433 -1.9918 0.8173
0.2147 -1.9853 0.8173
0.2858 -1.9761 0.8172
0.3565 -1.9644 0.8171
0.4267 -1.9500 0.8170
0.4963 -1.9331 0.8169
0.5653 -1.9137 0.8167
0.6335 -1.8918 0.8165
0.7009 -1.8674 0.8163
0.7672 -1.8406 0.8161
2.1107 -4.5920 2.0684
2.2742 -4.5133 2.0684
2.4347 -4.4288 2.0684
2.5921 -4.3385 2.0684
2.7462 -4.2427 2.0684
2.8967 -4.1414 2.0684
3.0435 -4.0347 2.0684
3.1864 -3.9229 2.0684
3.3252 -3.8059 2.0684
3.4596 -3.6841 2.0684
3.5896 -3.5576 2.0684
3.7150 -3.4264 2.0684
3.8356 -3.2909 2.0684
3.9513 -3.1510 2.0684
4.0619 -3.0072 2.0684
4.1672 -2.8594 2.0684
4.2671 -2.7080 2.0684
4.3616 -2.5531 2.0684
4.4504 -2.3949 2.0684
4.5335 -2.2336 2.0684
4.6108 -2.0694 2.0684
4.6821 -1.9026 2.0684
4.6961 -1.7145 2.0461
4.7004 -1.5273 2.0228
4.7042 -1.3438 2.0023
4.7075 -1.1637 1.9846
4.7103 -0.9865 1.9696
4.7126 -0.8116 1.9571
4.7144 -0.6386 1.9471
4.7158 -0.4671 1.9395
4.7168 -0.2968 1.9343
4.7173 -0.1271 1.9314
4.7177 0.0424 1.9309
4.7171 0.2118 1.9325
4.7164 0.3818 1.9366
4.7152 0.5527 1.9430
4.7136 0.7249 1.9518
4.7115 0.8988 1.9631
4.7088 1.0748 1.9768
4.7056 1.2533 1.9930
4.7019 1.4350 2.0120
4.6976 1.6201 2.0337
4.6928 1.8095 2.0585
4.6472 1.9863 2.0684
4.5729 2.1518 2.0684
4.4927 2.3146 2.0684
4.4067 2.4744 2.0684
4.3151 2.6310 2.0684
4.2178 2.7842 2.0684
4.1152 2.9338 2.0684
4.0072 3.0796 2.0684
3.8941 3.2215 2.0684
3.7759 3.3592 2.0684
3.6529 3.4926 2.0684
3.5252 3.6214 2.0684
3.3929 3.7456 2.0684
3.2563 3.8650 2.0684
3.1155 3.9794 2.0684
2.9706 4.0887 2.0684
2.8219 4.1927 2.0684
2.6696 4.2913 2.0684
2.5138 4.3843 2.0684
2.3548 4.4717 2.0684
0.8364 1.7368 0.7889
0.7733 1.7652 0.7887
0.7093 1.7914 0.7885
0.6443 1.8153 0.7884
0.5787 1.8369 0.7882
0.5123 1.8561 0.7881
0.4452 1.8730 0.7879
0.3777 1.8875 0.7878
0.3096 1.8996 0.7877
0.2412 1.9094 0.7877
0.1725 1.9167 0.7876
0.1036 1.9215 0.7876
0.0345 1.9240 0.7876
-0.0345 1.9240 0.7876
-0.1036 1.9215 0.7876
-0.1725 1.9167 0.7876
-0.2412 1.9094 0.7877
-0.3096 1.8997 0.7878
-0.3777 1.8876 0.7879
-0.4452 1.8731 0.7880
-0.5123 1.8562 0.7881
-0.5787 1.8370 0.7882
-0.6444 1.8154 0.7884
-0.7093 1.7915 0.7886
-0.7734 1.7653 0.7888
-2.1928 4.5534 2.0684
-2.3548 4.4717 2.0684
-2.5138 4.3843 2.0684
-2.6696 4.2913 2.0684
-2.8219 4.1927 2.0684
-2.9706 4.0887 2.0684
-3.1155 3.9794 2.0684
-3.2563 3.8650 2.0684
-3.3929 3.7456 2.0684
-3.5252 3.6214 2.0684
-3.6529 3.4925 2.0684
-3.7759 3.3592 2.0684
-3.8941 3.2215 2.0684
-4.0072 3.0796 2.0684
-4.1152 2.9338 2.0684
-4.2178 2.7842 2.0684
-4.3151 2.6310 2.0684
-4.4067 2.4744 2.0684
-4.4927 2.3146 2.0684
-4.5729 2.1518 2.0684
-4.6472 1.9863 2.0684
-4.7155 1.8182 2.0684
-4.7777 1.6478 2.0684
-4.8338 1.4752 2.0684
-4.8836 1.3007 2.0684
-4.9272 1.1246 2.0684
-4.9644 0.9470 2.0684
-4.9952 0.7682 2.0684
-5.0195 0.5884 2.0684
-5.0374 0.4078 2.0684
-5.0488 0.2267 2.0684
-5.0537 0.0454 2.0684
-5.0521 -0.1361 2.0684
-5.0439 -0.3173 2.0684
-5.0293 -0.4982 2.0684
-5.0082 -0.6784 2.0684
-4.9806 -0.8577 2.0684
-4.9466 -1.0360 2.0684
-4.9062 -1.2129 2.0684
-4.8595 -1.3882 2.0684
-4.8065 -1.5617 2.0684
-4.7474 -1.7333 2.0684
-4.6821 -1.9026 2.0684
-4.6108 -2.0694 2.0684
-4.5335 -2.2336 2.0684
-4.4504 -2.3949 2.0684
-4.3616 -2.5531 2.0684
-4.2671 -2.7080 2.0684
-4.1672 -2.8594 2.0684
-4.0619 -3.0072 2.0684
-3.9513 -3.1511 2.0684
-3.8356 -3.2909 2.0684
-3.7150 -3.4264 2.0684
-3.5896 -3.5576 2.0684
-3.4596 -3.6841 2.0684
-3.3252 -3.8059 2.0684
-3.1864 -3.9229 2.0684
-3.0435 -4.0347 2.0684
-2.8967 -4.1414 2.0684
-2.7462 -4.2427 2.0684
-2.5921 -4.3385 2.0684
-2.4347 -4.4288 2.0684
-2.2742 -4.5133 2.0684
-0.8327 -1.8115 0.8160
-0.7673 -1.8407 0.8162
-0.7009 -1.8676 0.8164
-0.6336 -1.8919 0.8166
-0.5654 -1.9138 0.8167
-0.4964 -1.9332 0.8169
-0.4267 -1.9501 0.8170
-0.3565 -1.9644 0.8171
-0.2858 -1.9762 0.8172
-0.2147 -1.9853 0.8173
-0.1433 -1.9919 0.8173
-0.0717 -1.9958 0.8174
-0.0000 -1.8733 0.8164
0.0672 -1.8721 0.8164
0.1344 -1.8684 0.8164
0.2014 -1.8622 0.8163
0.2681 -1.8537 0.8163
0.3344 -1.8426 0.8162
0.4003 -1.8292 0.8161
0.4656 -1.8134 0.8159
0.5303 -1.7952 0.8158
0.5943 -1.7747 0.8156
0.6575 -1.7518 0.8155
0.7198 -1.7267 0.8153
0.7811 -1.6993 0.8151
2.1357 -4.2384 2.0684
2.2865 -4.1590 2.0684
2.4343 -4.0743 2.0684
2.5790 -3.9843 2.0684
2.7203 -3.8891 2.0684
2.8582 -3.7890 2.0684
2.9923 -3.6839 2.0684
3.1226 -3.5742 2.0684
3.2489 -3.4598 2.0684
3.3710 -3.3409 2.0684
3.4888 -3.2178 2.0684
3.6020 -3.0904 2.0684
3.7107 -2.9591 2.0684
3.8145 -2.8240 2.0684
3.9134 -2.6853 2.0684
4.0073 -2.5431 2.0684
4.0960 -2.3976 2.0684
4.1794 -2.2490 2.0684
4.2574 -2.0976 2.0684
4.3300 -1.9434 2.0684
4.3970 -1.7867 2.0684
4.4583 -1.6277 2.0684
4.5138 -1.4666 2.0684
4.5635 -1.3037 2.0684
4.6074 -1.1390 2.0684
4.6453 -0.9729 2.0684
4.6772 -0.8055 2.0684
4.6928 -0.6357 2.0639
4.6943 -0.4650 2.0559
4.6953 -0.2954 2.0503
4.6959 -0.1265 2.0473
4.6960 0.0422 2.0467
4.6956 0.2109 2.0485
4.6949 0.3801 2.0528
4.6936 0.5502 2.0596
4.6910 0.7214 2.0684
4.6620 0.8893 2.0684
4.6271 1.0561 2.0684
4.5862 1.2215 2.0684
4.5394 1.3854 2.0684
4.4868 1.5474 2.0684
4.4283 1.7075 2.0684
4.3642 1.8653 2.0684
4.2944 2.0208 2.0684
4.2191 2.1736 2.0684
4.1383 2.3237 2.0684
4.0523 2.4707 2.0684
3.9610 2.6146 2.0684
3.8646 2.7551 2.0684
3.7632 2.8921 2.0684
3.6569 3.0253 2.0684
3.5460 3.1546 2.0684
3.4305 3.2799 2.0684
3.3105 3.4009 2.0684
3.1863 3.5175 2.0684
3.0580 3.6296 2.0684
2.9257 3.7371 2.0684
2.7897 3.8397 2.0684
2.6501 3.9373 2.0684
2.5070 4.0299 2.0684
2.3607 4.1173 2.0684
0.8446 1.6038 0.7900
0.7862 1.6326 0.7897
0.7269 1.6594 0.7895
0.6668 1.6840 0.7894
0.6057 1.7065 0.7892
0.5440 1.7268 0.7890
0.4816 1.7449 0.7889
0.4186 1.7608 0.7888
0.3550 1.7745 0.7887
0.2911 1.7859 0.7886
0.2268 1.7951 0.7885
0.1622 1.8019 0.7885
0.0974 1.8065 0.7884
0.0325 1.8088 0.7884
-0.0325 1.8088 0.7884
-0.0974 1.8065 0.7885
-0.1622 1.8020 0.7885
-0.2268 1.7951 0.7885
-0.2911 1.7860 0.7886
-0.3551 1.7746 0.7887
-0.4186 1.7609 0.7888
-0.4816 1.7450 0.7889
-0.5440 1.7269 0.7891
-0.6058 1.7066 0.7892
-0.6668 1.6841 0.7894
-0.7270 1.6595 0.7896
-0.7863 1.6328 0.7898
-2.2114 4.1994 2.0684
-2.3607 4.1173 2.0684
-2.5070 4.0299 2.0684
-2.6501 3.9373 2.0684
-2.7897 3.8397 2.0684
-2.9257 3.7371 2.0684
-3.0580 3.6296 2.0684
-3.1863 3.5175 2.0684
-3.3105 3.4009 2.0684
-3.4305 3.2798 2.0684
-3.5460 3.1546 2.0684
-3.6569 3.0253 2.0684
-3.7632 2.8921 2.0684
-3.8646 2.7551 2.0684
-3.9610 2.6146 2.0684
-4.0523 2.4707 2.0684
-4.1383 2.3237 2.0684
-4.2191 2.1736 2.0684
-4.2944 2.0208 2.0684
-4.3642 1.8653 2.0684
-4.4283 1.7075 2.0684
-4.4868 1.5474 2.0684
-4.5394 1.3854 2.0684
-4.5862 1.2215 2.0684
-4.6271 1.0561 2.0684
-4.6620 0.8893 2.0684
-4.6910 0.7214 2.0684
-4.7138 0.5525 2.0684
-4.7306 0.3830 2.0684
-4.7413 0.2129 2.0684
-4.7459 0.0426 2.0684
-4.7444 -0.1278 2.0684
-4.7367 -0.2980 2.0684
-4.7230 -0.4679 2.0684
-4.7031 -0.6371 2.0684
-4.6772 -0.8055 2.0684
-4.6453 -0.9729 2.0684
-4.6074 -1.1390 2.0684
-4.5635 -1.3037 2.0684
-4.5138 -1.4666 2.0684
-4.4583 -1.6277 2.0684
-4.3970 -1.7867 2.0684
-4.3300 -1.9434 2.0684
-4.2574 -2.0976 2.0684
-4.1794 -2.2490 2.0684
-4.0960 -2.3976 2.0684
-4.0073 -2.5431 2.0684
-3.9134 -2.6853 2.0684
-3.8145 -2.8240 2.0684
-3.7107 -2.9591 2.0684
-3.6020 -3.0904 2.0684
-3.4888 -3.2177 2.0684
-3.3710 -3.3409 2.0684
-3.2489 -3.4598 2.0684
-3.1226 -3.5742 2.0684
-2.9923 -3.6839 2.0684
-2.8582 -3.7890 2.0684
-2.7203 -3.8891 2.0684
-2.5790 -3.9843 2.0684
-2.4343 -4.0743 2.0684
-2.2865 -4.1590 2.0684
-0.8414 -1.6698 0.8149
-0.7811 -1.6994 0.8151
-0.7198 -1.7268 0.8153
-0.6575 -1.7519 0.8155
-0.5943 -1.7748 0.8157
-0.5303 -1.7953 0.8158
-0.4656 -1.8135 0.8160
-0.4003 -1.8293 0.8161
-0.3344 -1.8427 0.8162
-0.2681 -1.8537 0.8163
-0.2014 -1.8623 0.8163
-0.1344 -1.8684 0.8164
-0.0672 -1.8721 0.8164
0.0000 -1.7619 0.8156
0.0632 -1.7608 0.8156
0.1264 -1.7573 0.8155
0.1894 -1.7515 0.8155
0.2521 -1.7435 0.8154
0.3145 -1.7331 0.8153
0.3765 -1.7205 0.8152
0.4379 -1.7056 0.8151
0.4988 -1.6886 0.8150
0.5590 -1.6693 0.8148
0.6184 -1.6478 0.8147
0.6770 -1.6242 0.8145
0.7347 -1.5984 0.8143
0.7914 -1.5706 0.8141
2.1527 -3.9158 2.0684
2.2919 -3.8360 2.0684
2.4281 -3.7513 2.0684
2.5612 -3.6617 2.0684
2.6910 -3.5674 2.0684
2.8173 -3.4685 2.0684
2.9400 -3.3651 2.0684
3.0589 -3.2574 2.0684
3.1739 -3.1455 2.0684
3.2848 -3.0296 2.0684
3.3914 -2.9097 2.0684
3.4937 -2.7861 2.0684
3.5914 -2.6589 2.0684
3.6846 -2.5283 2.0684
3.7729 -2.3944 2.0684
3.8564 -2.2574 2.0684
3.9350 -2.1175 2.0684
4.0085 -1.9749 2.0684
4.0768 -1.8297 2.0684
4.1398 -1.6822 2.0684
4.1976 -1.5325 2.0684
4.2499 -1.3809 2.0684
4.2967 -1.2274 2.0684
4.3380 -1.0724 2.0684
4.3737 -0.9160 2.0684
4.4037 -0.7584 2.0684
4.4281 -0.5998 2.0684
4.4468 -0.4405 2.0684
4.4597 -0.2806 2.0684
4.4669 -0.1203 2.0684
4.4684 0.0401 2.0684
4.4641 0.2005 2.0684
4.4540 0.3606 2.0684
4.4382 0.5202 2.0684
4.4166 0.6792 2.0684
4.3894 0.8373 2.0684
4.3565 0.9943 2.0684
4.3180 1.1501 2.0684
4.2740 1.3043 2.0684
4.2244 1.4569 2.0684
4.1694 1.6076 2.0684
4.1090 1.7563 2.0684
4.0433 1.9026 2.0684
3.9724 2.0465 2.0684
3.8963 2.1878 2.0684
3.8153 2.3263 2.0684
3.7293 2.4617 2.0684
3.6386 2.5940 2.0684
3.5431 2.7229 2.0684
3.4431 2.8484 2.0684
3.3386 2.9701 2.0684
3.2299 3.0881 2.0684
3.1169 3.2020 2.0684
3.0000 3.3118 2.0684
2.8792 3.4174 2.0684
2.7546 3.5185 2.0684
2.6266 3.6151 2.0684
2.4951 3.7071 2.0684
2.3604 3.7943 2.0684
2.2227 3.8766 2.0684
0.7959 1.5114 0.7907
0.7409 1.5386 0.7905
0.6851 1.5638 0.7903
0.6283 1.5870 0.7901
0.5709 1.6082 0.7899
0.5127 1.6274 0.7898
0.4538 1.6445 0.7897
0.3945 1.6595 0.7896
0.3346 1.6724 0.7895
0.2743 1.6831 0.7894
0.2137 1.6918 0.7893
0.1528 1.6982 0.7893
0.0918 1.7026 0.7892
0.0306 1.7047 0.7892
-0.0306 1.7047 0.7892
-0.0918 1.7026 0.7892
-0.1528 1.6983 0.7893
-0.2137 1.6918 0.7893
-0.2743 1.6832 0.7894
-0.3346 1.6724 0.7895
-0.3945 1.6596 0.7896
-0.4539 1.6446 0.7897
-0.5127 1.6275 0.7898
-0.5709 1.6083 0.7900
-0.6284 1.5871 0.7901
-0.6851 1.5639 0.7903
-0.7410 1.5387 0.7905
-0.7960 1.5115 0.7907
-2.2227 3.8766 2.0684
-2.3604 3.7943 2.0684
-2.4951 3.7071 2.0684
-2.6266 3.6151 2.0684
-2.7546 3.5185 2.0684
-2.8792 3.4174 2.0684
-3.0000 3.3118 2.0684
-3.1169 3.2020 2.0684
-3.2299 3.0881 2.0684
-3.3386 2.9701 2.0684
-3.4431 2.8484 2.0684
-3.5431 2.7229 2.0684
-3.6386 2.5940 2.0684
-3.7293 2.4617 2.0684
-3.8153 2.3263 2.0684
-3.8963 2.1878 2.0684
-3.9724 2.0465 2.0684
-4.0433 1.9026 2.0684
-4.1090 1.7563 2.0684
-4.1694 1.6076 2.0684
-4.2244 1.4569 2.0684
-4.2740 1.3044 2.0684
-4.3180 1.1501 2.0684
-4.3565 0.9943 2.0684
-4.3894 0.8373 2.0684
-4.4166 0.6792 2.0684
-4.4382 0.5202 2.0684
-4.4540 0.3606 2.0684
-4.4641 0.2005 2.0684
-4.4684 0.0401 2.0684
-4.4669 -0.1203 2.0684
-4.4597 -0.2806 2.0684
-4.4468 -0.4405 2.0684
-4.4281 -0.5998 2.0684
-4.4037 -0.7584 2.0684
-4.3737 -0.9160 2.0684
-4.3380 -1.0724 2.0684
-4.2967 -1.2274 2.0684
-4.2499 -1.3809 2.0684
-4.1975 -1.5325 2.0684
-4.1398 -1.6822 2.0684
-4.0768 -1.8297 2.0684
-4.0085 -1.9749 2.0684
-3.9350 -2.1175 2.0684
-3.8564 -2.2574 2.0684
-3.7729 -2.3944 2.0684
-3.6846 -2.5283 2.0684
-3.5914 -2.6589 2.0684
-3.4937 -2.7861 2.0684
-3.3914 -2.9097 2.0684
-3.2848 -3.0296 2.0684
-3.1739 -3.1455 2.0684
-3.0589 -3.2574 2.0684
-2.9400 -3.3651 2.0684
-2.8173 -3.4685 2.0684
-2.6910 -3.5674 2.0684
-2.5612 -3.6617 2.0684
-2.4281 -3.7513 2.0684
-2.2919 -3.8360 2.0684
-2.1527 -3.9158 2.0684
-0.7915 -1.5707 0.8142
-0.7348 -1.5985 0.8144
-0.6771 -1.6243 0.8146
-0.6185 -1.6479 0.8147
-0.5590 -1.6693 0.8149
-0.4988 -1.6886 0.8150
-0.4380 -1.7057 0.8152
-0.3765 -1.7206 0.8153
-0.3145 -1.7332 0.8154
-0.2521 -1.7435 0.8154
-0.1894 -1.7516 0.8155
-0.1264 -1.7573 0.8155
-0.0632 -1.7608 0.8156
0.0000 -1.6611 0.8148
0.0596 -1.6600 0.8148
0.1192 -1.6567 0.8148
0.1786 -1.6513 0.8147
0.2377 -1.6437 0.8147
0.2965 -1.6340 0.8146
0.3549 -1.6221 0.8145
0.4129 -1.6081 0.8144
0.4703 -1.5920 0.8143
0.5270 -1.5738 0.8141
0.5831 -1.5536 0.8140
0.6383 -1.5313 0.8138
0.6927 -1.5071 0.8136
0.7462 -1.4809 0.8134
0.7987 -1.4527 0.8132
2.1628 -3.6199 2.0684
2.2913 -3.5399 2.0684
2.4169 -3.4554 2.0684
2.5394 -3.3664 2.0684
2.6586 -3.2731 2.0684
2.7744 -3.1755 2.0684
2.8866 -3.0739 2.0684
2.9951 -2.9683 2.0684
3.0997 -2.8589 2.0684
3.2003 -2.7458 2.0684
3.2968 -2.6291 2.0684
3.3891 -2.5091 2.0684
3.4769 -2.3858 2.0684
3.5603 -2.2595 2.0684
3.6392 -2.1302 2.0684
3.7133 -1.9982 2.0684
3.7826 -1.8636 2.0684
3.8471 -1.7266 2.0684
3.9066 -1.5874 2.0684
3.9610 -1.4462 2.0684
4.0104 -1.3031 2.0684
4.0546 -1.1583 2.0684
4.0936 -1.0120 2.0684
4.1272 -0.8644 2.0684
4.1556 -0.7157 2.0684
4.1786 -0.5660 2.0684
4.1962 -0.4157 2.0684
4.2085 -0.2648 2.0684
4.2153 -0.1135 2.0684
4.2166 0.0378 2.0684
4.2125 0.1892 2.0684
4.2030 0.3403 2.0684
4.1881 0.4909 2.0684
4.1678 0.6409 2.0684
4.1421 0.7901 2.0684
4.1111 0.9383 2.0684
4.0747 1.0853 2.0684
4.0331 1.2309 2.0684
3.9864 1.3748 2.0684
3.9344 1.5170 2.0684
3.8775 1.6573 2.0684
3.8155 1.7954 2.0684
3.7486 1.9312 2.0684
3.6768 2.0645 2.0684
3.6003 2.1952 2.0684
3.5192 2.3230 2.0684
3.4336 2.4478 2.0684
3.3435 2.5695 2.0684
3.2491 2.6879 2.0684
3.1505 2.8028 2.0684
3.0479 2.9141 2.0684
2.9413 3.0216 2.0684
2.8309 3.1252 2.0684
2.7169 3.2248 2.0684
2.5994 3.3203 2.0684
2.4786 3.4114 2.0684
2.3545 3.4982 2.0684
2.2274 3.5805 2.0684
0.8026 1.3998 0.7915
0.7517 1.4274 0.7913
0.6998 1.4531 0.7911
0.6470 1.4769 0.7909
0.5934 1.4989 0.7908
0.5392 1.5189 0.7906
0.4842 1.5370 0.7905
0.4287 1.5532 0.7904
0.3726 1.5674 0.7903
0.3160 1.5796 0.7902
0.2591 1.5897 0.7901
0.2019 1.5979 0.7900
0.1444 1.6040 0.7900
0.0867 1.6081 0.7900
0.0289 1.6102 0.7899
-0.0289 1.6102 0.7899
-0.0867 1.6081 0.7900
-0.1444 1.6040 0.7900
-0.2019 1.5979 0.7900
-0.2591 1.5898 0.7901
-0.3160 1.5796 0.7902
-0.3726 1.5674 0.7903
-0.4287 1.5533 0.7904
-0.4842 1.5371 0.7905
-0.5392 1.5190 0.7907
-0.5935 1.4990 0.7908
-0.6470 1.4770 0.7910
-0.6998 1.4532 0.7912
-0.7517 1.4275 0.7914
-0.8027 1.3999 0.7916
-2.2274 3.5805 2.0684
-2.3545 3.4982 2.0684
-2.4786 3.4114 2.0684
-2.5994 3.3203 2.0684
-2.7169 3.2248 2.0684
-2.8309 3.1252 2.0684
-2.9413 3.0216 2.0684
-3.0479 2.9141 2.0684
-3.1505 2.8028 2.0684
-3.2491 2.6879 2.0684
-3.3435 2.5695 2.0684
-3.4336 2.4478 2.0684
-3.5192 2.3230 2.0684
-3.6003 2.1952 2.0684
-3.6768 2.0645 2.0684
-3.7486 1.9312 2.0684
-3.8155 1.7954 2.0684
-3.8774 1.6573 2.0684
-3.9344 1.5170 2.0684
-3.9864 1.3748 2.0684
-4.0331 1.2309 2.0684
-4.0747 1.0853 2.0684
-4.1111 0.9383 2.0684
-4.1421 0.7902 2.0684
-4.1678 0.6409 2.0684
-4.1881 0.4909 2.0684
-4.2030 0.3403 2.0684
-4.2125 0.1892 2.0684
-4.2166 0.0379 2.0684
-4.2153 -0.1135 2.0684
-4.2085 -0.2648 2.0684
-4.1962 -0.4157 2.0684
-4.1786 -0.5660 2.0684
-4.1556 -0.7157 2.0684
-4.1272 -0.8644 2.0684
-4.0936 -1.0120 2.0684
-4.0546 -1.1583 2.0684
-4.0104 -1.3031 2.0684
-3.9610 -1.4462 2.0684
-3.9066 -1.5874 2.0684
-3.8471 -1.7266 2.0684
-3.7826 -1.8636 2.0684
-3.7133 -1.9982 2.0684
-3.6392 -2.1302 2.0684
-3.5603 -2.2595 2.0684
-3.4769 -2.3858 2.0684
-3.3891 -2.5091 2.0684
-3.2968 -2.6291 2.0684
-3.2003 -2.7458 2.0684
-3.0997 -2.8589 2.0684
-2.9951 -2.9683 2.0684
-2.8866 -3.0739 2.0684
-2.7744 -3.1755 2.0684
-2.6586 -3.2731 2.0684
-2.5394 -3.3664 2.0684
-2.4169 -3.4554 2.0684
-2.2913 -3.5399 2.0684
-2.1628 -3.6199 2.0684
-0.7987 -1.4529 0.8133
-0.7462 -1.4810 0.8135
-0.6928 -1.5072 0.8137
-0.6384 -1.5314 0.8138
-0.5831 -1.5537 0.8140
-0.5271 -1.5739 0.8142
-0.4703 -1.5921 0.8143
-0.4129 -1.6081 0.8144
-0.3550 -1.6221 0.8145
-0.2965 -1.6340 0.8146
-0.2377 -1.6437 0.8147
-0.1786 -1.6513 0.8147
-0.1192 -1.6568 0.8148
-0.0596 -1.6600 0.8148
-0.0000 -1.5693 0.8141
0.0563 -1.5682 0.8141
0.1126 -1.5652 0.8141
0.1687 -1.5600 0.8140
0.2246 -1.5529 0.8140
0.2801 -1.5437 0.8139
0.3353 -1.5324 0.8138
0.3901 -1.5192 0.8137
0.4443 -1.5040 0.8136
0.4979 -1.4869 0.8135
0.5509 -1.4678 0.8133
0.6031 -1.4468 0.8132
0.6545 -1.4239 0.8130
0.7050 -1.3991 0.8128
0.7546 -1.3726 0.8126
0.8032 -1.3443 0.8124
2.1665 -3.3471 2.0684
2.2853 -3.2672 2.0684
2.4011 -3.1831 2.0684
2.5138 -3.0948 2.0684
2.6233 -3.0026 2.0684
2.7294 -2.9065 2.0684
2.8319 -2.8066 2.0684
2.9309 -2.7032 2.0684
3.0260 -2.5962 2.0684
3.1172 -2.4859 2.0684
3.2045 -2.3724 2.0684
3.2876 -2.2559 2.0684
3.3664 -2.1364 2.0684
3.4409 -2.0142 2.0684
3.5110 -1.8894 2.0684
3.5766 -1.7621 2.0684
3.6375 -1.6326 2.0684
3.6938 -1.5010 2.0684
3.7453 -1.3674 2.0684
3.7920 -1.2321 2.0684
3.8338 -1.0952 2.0684
3.8706 -0.9569 2.0684
3.9024 -0.8173 2.0684
3.9293 -0.6767 2.0684
3.9510 -0.5352 2.0684
3.9677 -0.3930 2.0684
3.9792 -0.2504 2.0684
3.9857 -0.1074 2.0684
3.9870 0.0358 2.0684
3.9831 0.1789 2.0684
3.9741 0.3217 2.0684
3.9600 0.4642 2.0684
3.9408 0.6060 2.0684
3.9165 0.7471 2.0684
3.8871 0.8872 2.0684
3.8528 1.0262 2.0684
3.8135 1.1638 2.0684
3.7692 1.3000 2.0684
3.7201 1.4344 2.0684
3.6663 1.5670 2.0684
3.6076 1.6976 2.0684
3.5444 1.8260 2.0684
3.4766 1.9521 2.0684
3.4042 2.0756 2.0684
3.3275 2.1965 2.0684
3.2465 2.3145 2.0684
3.1614 2.4296 2.0684
3.0721 2.5415 2.0684
2.9789 2.6501 2.0684
2.8819 2.7553 2.0684
2.7811 2.8570 2.0684
2.6767 2.9550 2.0684
2.5690 3.0492 2.0684
2.4578 3.1394 2.0684
2.3436 3.2256 2.0684
2.2263 3.3077 2.0684
0.8067 1.2968 0.7923
0.7595 1.3245 0.7921
0.7112 1.3506 0.7919
0.6621 1.3750 0.7917
0.6122 1.3975 0.7915
0.5616 1.4183 0.7914
0.5102 1.4373 0.7912
0.4582 1.4545 0.7911
0.4056 1.4698 0.7910
0.3526 1.4832 0.7909
0.2991 1.4947 0.7908
0.2452 1.5044 0.7907
0.1910 1.5121 0.7907
0.1366 1.5179 0.7906
0.0820 1.5218 0.7906
0.0274 1.5237 0.7906
-0.0274 1.5237 0.7906
-0.0820 1.5218 0.7906
-0.1366 1.5179 0.7907
-0.1910 1.5121 0.7907
-0.2452 1.5044 0.7908
-0.2991 1.4948 0.7908
-0.3526 1.4833 0.7909
-0.4057 1.4698 0.7910
-0.4582 1.4546 0.7911
-0.5102 1.4374 0.7913
-0.5616 1.4184 0.7914
-0.6123 1.3976 0.7916
-0.6622 1.3751 0.7918
-0.7113 1.3507 0.7919
-0.7595 1.3246 0.7921
-0.8068 1.2969 0.7924
-2.2263 3.3077 2.0684
-2.3436 3.2256 2.0684
-2.4578 3.1394 2.0684
-2.5690 3.0492 2.0684
-2.6768 2.9550 2.0684
-2.7811 2.8570 2.0684
-2.8819 2.7553 2.0684
-2.9789 2.6501 2.0684
-3.0721 2.5415 2.0684
-3.1614 2.4296 2.0684
-3.2465 2.3145 2.0684
-3.3275 2.1965 2.0684
-3.4042 2.0756 2.0684
-3.4765 1.9521 2.0684
-3.5444 1.8260 2.0684
-3.6076 1.6976 2.0684
-3.6663 1.5670 2.0684
-3.7201 1.4344 2.0684
-3.7692 1.3000 2.0684
-3.8135 1.1638 2.0684
-3.8528 1.0262 2.0684
-3.8871 0.8872 2.0684
-3.9165 0.7471 2.0684
-3.9408 0.6060 2.0684
-3.9600 0.4642 2.0684
-3.9741 0.3217 2.0684
-3.9831 0.1789 2.0684
-3.9869 0.0358 2.0684
-3.9857 -0.1073 2.0684
-3.9792 -0.2503 2.0684
-3.9677 -0.3930 2.0684
-3.9510 -0.5352 2.0684
-3.9293 -0.6767 2.0684
-3.9024 -0.8173 2.0684
-3.8706 -0.9569 2.0684
-3.8338 -1.0952 2.0684
-3.7920 -1.2321 2.0684
-3.7453 -1.3674 2.0684
-3.6938 -1.5010 2.0684
-3.6375 -1.6326 2.0684
-3.5766 -1.7621 2.0684
-3.5110 -1.8894 2.0684
-3.4409 -2.0142 2.0684
-3.3664 -2.1364 2.0684
-3.2876 -2.2559 2.0684
-3.2045 -2.3724 2.0684
-3.1172 -2.4859 2.0684
-3.0260 -2.5962 2.0684
-2.9309 -2.7032 2.0684
-2.8319 -2.8066 2.0684
-2.7294 -2.9065 2.0684
-2.6233 -3.0026 2.0684
-2.5138 -3.0948 2.0684
-2.4011 -3.1831 2.0684
-2.2853 -3.2672 2.0684
-2.1665 -3.3471 2.0684
-0.8032 -1.3444 0.8124
-0.7546 -1.3727 0.8126
-0.7051 -1.3992 0.8128
-0.6545 -1.4240 0.8130
-0.6031 -1.4469 0.8132
-0.5509 -1.4679 0.8134
-0.4979 -1.4869 0.8135
-0.4443 -1.5041 0.8136
-0.3901 -1.5193 0.8137
-0.3353 -1.5325 0.8138
-0.2801 -1.5437 0.8139
-0.2246 -1.5529 0.8140
-0.1687 -1.5601 0.8140
-0.1126 -1.5652 0.8141
-0.0563 -1.5683 0.8141
0.0000 -1.4852 0.8135
0.0533 -1.4843 0.8135
0.1066 -1.4813 0.8134
0.1597 -1.4765 0.8134
0.2125 -1.4697 0.8133
0.2651 -1.4610 0.8133
0.3174 -1.4504 0.8132
0.3692 -1.4379 0.8131
0.4205 -1.4235 0.8130
0.4713 -1.4073 0.8129
0.5214 -1.3892 0.8127
0.5708 -1.3694 0.8126
