ply
format ascii 1.0
element vertex 2178
property float32 x
property float32 y
property float32 z
end_header
8.8320 2.3524 2.1481
8.7393 2.6671 2.1474
8.6350 2.9781 2.1467
8.5194 3.2849 2.1459
8.3926 3.5872 2.1451
8.2549 3.8844 2.1441
8.1063 4.1763 2.1432
7.9473 4.4624 2.1421
7.7779 4.7423 2.1410
7.5984 5.0157 2.1398
7.4092 5.2821 2.1385
7.2104 5.5413 2.1372
7.0024 5.7929 2.1359
6.7854 6.0365 2.1345
6.5599 6.2719 2.1330
6.3260 6.4987 2.1315
6.0842 6.7166 2.1299
5.8347 6.9255 2.1283
4.9307 6.2981 1.8799
5.3145 7.3147 2.1250
5.0443 7.4947 2.1232
4.7714 7.6697 2.1229
4.4930 7.8361 2.1229
4.2088 7.9923 2.1229
3.9192 8.1382 2.1229
3.6245 8.2737 2.1229
3.3252 8.3985 2.1229
3.0216 8.5124 2.1229
2.8876 9.1662 2.2586
2.5756 9.3323 2.2753
2.2389 9.4188 2.2753
1.8994 9.4931 2.2753
1.5574 9.5551 2.2753
1.2134 9.6049 2.2753
0.8678 9.6422 2.2753
0.5211 9.6672 2.2753
0.1738 9.6796 2.2753
-0.1738 9.6796 2.2753
-0.5211 9.6672 2.2753
-0.8678 9.6422 2.2753
-1.2134 9.6049 2.2753
-1.5574 9.5551 2.2753
-1.8994 9.4931 2.2753
-2.2389 9.4188 2.2753
-2.5756 9.3323 2.2753
-2.9089 9.2339 2.2753
-3.2385 9.1235 2.2753
-3.5639 9.0014 2.2753
-3.8847 8.8676 2.2753
-4.2005 8.7225 2.2753
-4.5109 8.5661 2.2753
-4.8155 8.3986 2.2753
-5.1139 8.2203 2.2753
-5.4057 8.0315 2.2753
-5.6905 7.8323 2.2753
-5.9680 7.6229 2.2753
-6.2377 7.4038 2.2753
-6.4995 7.1751 2.2753
-6.7529 6.9372 2.2753
-6.9975 6.6903 2.2753
-7.2332 6.4348 2.2753
-7.4595 6.1710 2.2753
-7.6762 5.8993 2.2753
-7.8830 5.6199 2.2753
-8.0797 5.3333 2.2753
-8.2659 5.0399 2.2753
-8.4415 4.7399 2.2753
-8.6062 4.4338 2.2753
-8.7598 4.1221 2.2753
-8.9021 3.8050 2.2753
-9.0330 3.4829 2.2753
-9.1522 3.1565 2.2753
-9.2596 2.8259 2.2753
-9.3551 2.4917 2.2753
-9.4385 2.1543 2.2753
-9.5097 1.8141 2.2753
-9.5687 1.4715 2.2753
-9.6154 1.1271 2.2753
-9.6496 0.7812 2.2753
-9.6715 0.4343 2.2753
-9.6808 0.0869 2.2753
-9.6777 -0.2607 2.2753
-9.6621 -0.6079 2.2753
-9.6340 -0.9544 2.2753
-9.5936 -1.2995 2.2753
-9.5408 -1.6431 2.2753
-9.4756 -1.9845 2.2753
-9.3983 -2.3234 2.2753
-9.3088 -2.6592 2.2753
-9.2074 -2.9917 2.2753
-9.0941 -3.3202 2.2753
-8.9690 -3.6445 2.2753
-8.8324 -3.9641 2.2753
-8.6844 -4.2786 2.2753
-8.5252 -4.5876 2.2753
-8.3551 -4.8907 2.2753
-8.1741 -5.1875 2.2753
-7.9826 -5.4775 2.2753
-7.7809 -5.7605 2.2753
-7.5691 -6.0361 2.2753
-7.3475 -6.3039 2.2753
-6.6398 -6.1240 2.1229
-6.4157 -6.3584 2.1229
-6.1833 -6.5846 2.1229
-6.3696 -7.2906 2.2753
-6.1038 -7.5146 2.2753
-5.8302 -7.7289 2.2753
-3.8423 -5.4932 1.5755
-3.6512 -5.6409 1.5792
-4.9655 -8.3108 2.2753
-4.6640 -8.4837 2.2753
-4.3564 -8.6457 2.2753
-4.0433 -8.7965 2.2753
-3.7249 -8.9359 2.2753
-3.4017 -9.0639 2.2753
-3.0742 -9.1802 2.2753
-2.7427 -9.2846 2.2753
-2.4076 -9.3771 2.2753
-2.0695 -9.4574 2.2753
-1.7286 -9.5256 2.2753
-1.3856 -9.5815 2.2753
-1.0408 -9.6251 2.2753
-0.6946 -9.6563 2.2753
-0.3475 -9.6750 2.2753
-0.0000 -8.7878 2.2753
0.3154 -8.7821 2.2753
0.6305 -8.7651 2.2753
0.9447 -8.7368 2.2753
1.2577 -8.6973 2.2753
1.5691 -8.6465 2.2753
1.8785 -8.5846 2.2753
2.1854 -8.5117 2.2753
2.4896 -8.4277 2.2753
2.7905 -8.3329 2.2753
3.0878 -8.2274 2.2753
3.3811 -8.1113 2.2753
3.6701 -7.9847 2.2753
3.6940 -7.3311 2.1255
3.9506 -7.1862 2.1233
4.2076 -7.0423 2.1240
4.4593 -6.8892 2.1248
4.7054 -6.7271 2.1256
4.9455 -6.5561 2.1263
5.1795 -6.3766 2.1270
5.4069 -6.1887 2.1278
5.6268 -5.9919 2.1282
5.8383 -5.7861 2.1282
6.0422 -5.5728 2.1282
6.2384 -5.3523 2.1282
6.4265 -5.1249 2.1282
6.6063 -4.8909 2.1282
6.7712 -4.6463 2.1262
6.9331 -4.3999 2.1261
7.0925 -4.1516 2.1278
7.2428 -3.8975 2.1296
7.3837 -3.6378 2.1312
7.5152 -3.3729 2.1328
7.6368 -3.1032 2.1343
5.1424 -1.8775 1.4174
4.8631 -1.5801 1.3239
4.7794 -1.3653 1.2870
4.8046 -1.1878 1.2815
4.8537 -1.0165 1.2840
5.0225 -0.8650 1.3196
5.3723 -0.7277 1.4037
8.2397 -0.8162 2.1438
8.2669 -0.5201 2.1447
8.2807 -0.2230 2.1448
8.2834 0.0744 2.1448
8.2752 0.3716 2.1447
8.2560 0.6684 2.1446
8.2259 0.9642 2.1444
8.1849 1.2587 2.1441
8.1330 1.5515 2.1438
8.0705 1.8420 2.1433
7.9973 2.1300 2.1428
7.9136 2.4151 2.1423
7.8195 2.6968 2.1416
7.7151 2.9748 2.1409
7.6006 3.2487 2.1402
7.4762 3.5180 2.1393
7.3421 3.7826 2.1384
7.1983 4.0419 2.1375
7.0452 4.2956 2.1365
6.8831 4.5435 2.1354
6.7120 4.7851 2.1343
6.5323 5.0202 2.1331
6.3442 5.2484 2.1319
6.1480 5.4695 2.1306
5.9440 5.6831 2.1293
5.7325 5.8890 2.1279
5.5138 6.0869 2.1265
5.2881 6.2766 2.1250
4.8684 6.2184 2.0448
4.8193 6.6333 2.1229
4.5781 6.8020 2.1229
4.3310 6.9619 2.1229
4.0783 7.1129 2.1229
3.8204 7.2547 2.1229
3.5575 7.3872 2.1229
3.2900 7.5101 2.1229
3.0183 7.6234 2.1229
2.8421 8.0067 2.1998
2.6404 8.3817 2.2753
2.3379 8.4711 2.2753
2.0323 8.5495 2.2753
1.7241 8.6170 2.2753
1.4137 8.6733 2.2753
1.1014 8.7185 2.2753
0.7877 8.7524 2.2753
0.4730 8.7750 2.2753
0.1577 8.7863 2.2753
-0.1577 8.7863 2.2753
-0.4730 8.7750 2.2753
-0.7877 8.7524 2.2753
-1.1014 8.7185 2.2753
-1.4136 8.6733 2.2753
-1.7241 8.6170 2.2753
-2.0323 8.5495 2.2753
-2.3379 8.4711 2.2753
-2.6404 8.3817 2.2753
-2.9397 8.2815 2.2753
-3.2349 8.1706 2.2753
-3.5262 8.0493 2.2753
-3.8129 7.9175 2.2753
-4.0946 7.7755 2.2753
-4.3711 7.6235 2.2753
-4.6419 7.4617 2.2753
-4.9068 7.2903 2.2753
-5.1653 7.1094 2.2753
-5.4172 6.9194 2.2753
-5.6621 6.7205 2.2753
-5.8997 6.5130 2.2753
-6.1296 6.2970 2.2753
-6.3517 6.0729 2.2753
-6.5657 5.8410 2.2753
-6.7711 5.6015 2.2753
-6.9678 5.3549 2.2753
-7.1556 5.1013 2.2753
-7.3340 4.8411 2.2753
-7.5031 4.5748 2.2753
-7.6625 4.3025 2.2753
-7.8120 4.0247 2.2753
-7.9514 3.7416 2.2753
-8.0806 3.4538 2.2753
-8.1994 3.1615 2.2753
-8.3076 2.8652 2.2753
-8.4051 2.5651 2.2753
-8.4917 2.2617 2.2753
-8.5674 1.9555 2.2753
-8.6321 1.6467 2.2753
-8.6857 1.3357 2.2753
-8.7280 1.0231 2.2753
-8.7591 0.7091 2.2753
-8.7789 0.3943 2.2753
-8.7874 0.0789 2.2753
-8.7846 -0.2366 2.2753
-8.7704 -0.5518 2.2753
-8.7450 -0.8663 2.2753
-8.7082 -1.1796 2.2753
-8.6603 -1.4914 2.2753
-8.6011 -1.8014 2.2753
-8.5309 -2.1089 2.2753
-8.4497 -2.4138 2.2753
-8.3577 -2.7156 2.2753
-8.2548 -3.0138 2.2753
-8.1413 -3.3082 2.2753
-8.0173 -3.5983 2.2753
-7.8830 -3.8838 2.2753
-7.7385 -4.1642 2.2753
-7.5840 -4.4393 2.2753
-7.4198 -4.7087 2.2753
-7.2459 -4.9720 2.2753
-7.0628 -5.2289 2.2753
-6.8705 -5.4791 2.2753
-6.2227 -5.3389 2.1229
-6.0271 -5.5588 2.1229
-5.8236 -5.7716 2.1229
-5.6127 -5.9769 2.1229
-5.3945 -6.1746 2.1229
-5.1694 -6.3642 2.1229
-4.9376 -6.5457 2.1229
-3.8410 -5.4913 1.7351
-3.6501 -5.6391 1.7392
-4.2053 -7.0386 2.1229
-3.9500 -7.1850 2.1229
-3.6895 -7.3221 2.1229
-3.4243 -7.4499 2.1229
-3.1547 -7.5680 2.1229
-2.8810 -7.6763 2.1229
-2.6036 -7.7748 2.1229
-2.4896 -8.4277 2.2753
-2.1854 -8.5117 2.2753
-1.8785 -8.5846 2.2753
-1.5691 -8.6465 2.2753
-1.2577 -8.6973 2.2753
-0.9447 -8.7368 2.2753
-0.6305 -8.7651 2.2753
-0.3154 -8.7821 2.2753
0.0000 -8.0373 2.2753
0.2885 -8.0321 2.2753
0.5767 -8.0166 2.2753
0.8640 -7.9907 2.2753
1.1503 -7.9546 2.2753
1.4351 -7.9082 2.2753
1.7181 -7.8515 2.2753
1.9988 -7.7848 2.2753
2.2770 -7.7081 2.2753
2.5522 -7.6213 2.2753
2.8241 -7.5248 2.2753
3.0924 -7.4186 2.2753
3.3567 -7.3028 2.2753
3.5929 -7.1305 2.2604
3.6209 -6.5863 2.1277
3.8474 -6.4395 2.1236
4.0775 -6.2993 2.1243
4.3023 -6.1509 2.1250
4.5218 -5.9944 2.1256
4.7355 -5.8300 2.1263
4.9433 -5.6580 2.1269
5.1447 -5.4786 2.1276
5.3396 -5.2919 2.1282
5.5262 -5.0969 2.1282
5.7056 -4.8952 2.1282
5.8777 -4.6873 2.1282
6.0421 -4.4733 2.1282
6.1988 -4.2535 2.1282
6.3465 -4.0276 2.1279
6.4817 -3.7941 2.1262
6.6109 -3.5575 2.1253
6.7391 -3.3202 2.1268
6.8586 -3.0783 2.1282
6.9692 -2.8319 2.1296
7.0708 -2.5815 2.1309
4.9747 -1.6164 1.4808
4.8979 -1.3992 1.4420
4.9212 -1.2166 1.4351
4.9871 -1.0445 1.4424
5.1284 -0.8832 1.4732
7.4820 -1.0135 2.1374
7.5164 -0.7446 2.1383
7.5410 -0.4744 2.1390
7.5556 -0.2035 2.1397
7.5597 0.0679 2.1402
7.5521 0.3392 2.1401
7.5347 0.6100 2.1400
7.5073 0.8800 2.1398
7.4700 1.1488 2.1395
7.4228 1.4160 2.1392
7.3659 1.6812 2.1389
7.2993 1.9441 2.1384
7.2231 2.2044 2.1379
7.1374 2.4616 2.1373
7.0423 2.7154 2.1367
6.9380 2.9654 2.1360
6.8247 3.2115 2.1352
6.7025 3.4531 2.1344
6.5716 3.6900 2.1336
6.4321 3.9218 2.1327
6.2844 4.1483 2.1317
6.1285 4.3691 2.1307
5.9647 4.5840 2.1296
5.7933 4.7926 2.1285
5.6144 4.9948 2.1273
5.4284 5.1901 2.1261
5.2356 5.3785 2.1249
5.0361 5.5596 2.1236
4.8317 5.7349 2.1229
4.6227 5.9047 2.1229
4.4078 6.0668 2.1229
4.1872 6.2211 2.1229
3.9612 6.3674 2.1229
3.7300 6.5055 2.1229
3.4941 6.6352 2.1229
3.2537 6.7563 2.1229
3.0091 6.8688 2.1229
2.8129 7.1047 2.1632
2.6886 7.5743 2.2753
2.4150 7.6659 2.2753
2.1382 7.7477 2.2753
1.8587 7.8194 2.2753
1.5768 7.8811 2.2753
1.2929 7.9326 2.2753
1.0073 7.9739 2.2753
0.7205 8.0050 2.2753
0.4326 8.0257 2.2753
0.1443 8.0360 2.2753
-0.1443 8.0360 2.2753
-0.4326 8.0257 2.2753
-0.7205 8.0050 2.2753
-1.0073 7.9739 2.2753
-1.2929 7.9326 2.2753
-1.5768 7.8811 2.2753
-1.8587 7.8194 2.2753
-2.1382 7.7477 2.2753
-2.4149 7.6659 2.2753
-2.6886 7.5743 2.2753
-2.9587 7.4729 2.2753
-3.2250 7.3619 2.2753
-3.4873 7.2414 2.2753
-3.7449 7.1115 2.2753
-3.9978 6.9725 2.2753
-4.2455 6.8245 2.2753
-4.4878 6.6677 2.2753
-4.7242 6.5023 2.2753
-4.9546 6.3286 2.2753
-5.1786 6.1466 2.2753
-5.3959 5.9568 2.2753
-5.6062 5.7593 2.2753
-5.8093 5.5543 2.2753
-6.0050 5.3422 2.2753
-6.1929 5.1232 2.2753
-6.3728 4.8976 2.2753
-6.5445 4.6657 2.2753
-6.7077 4.4277 2.2753
-6.8623 4.1841 2.2753
-7.0081 3.9351 2.2753
-7.1449 3.6810 2.2753
-7.2724 3.4221 2.2753
-7.3905 3.1589 2.2753
-7.4992 2.8915 2.2753
-7.5981 2.6205 2.2753
-7.6873 2.3461 2.2753
-7.7666 2.0686 2.2753
-7.8358 1.7885 2.2753
-7.8949 1.5060 2.2753
-7.9439 1.2217 2.2753
-7.9827 0.9357 2.2753
-8.0111 0.6486 2.2753
-8.0292 0.3606 2.2753
-8.0370 0.0721 2.2753
-8.0344 -0.2164 2.2753
-8.0215 -0.5047 2.2753
-7.9982 -0.7923 2.2753
-7.9646 -1.0789 2.2753
-7.9207 -1.3641 2.2753
-7.8666 -1.6475 2.2753
-7.8024 -1.9288 2.2753
-7.7282 -2.2077 2.2753
-7.6439 -2.4837 2.2753
-7.5499 -2.7565 2.2753
-7.4460 -3.0257 2.2753
-7.3326 -3.2910 2.2753
-7.2098 -3.5521 2.2753
-7.0776 -3.8086 2.2753
-6.9363 -4.0602 2.2753
-6.7861 -4.3066 2.2753
-6.6272 -4.5474 2.2753
-6.4597 -4.7824 2.2753
-6.2838 -5.0112 2.2753
-5.6913 -4.8830 2.1229
-5.5124 -5.0841 2.1229
-5.3263 -5.2787 2.1229
-5.1334 -5.4665 2.1229
-4.9339 -5.6473 2.1229
-4.7280 -5.8207 2.1229
-4.5160 -5.9867 2.1229
-3.8396 -5.4893 1.8964
-3.6490 -5.6373 1.9010
-3.8462 -6.4375 2.1229
-3.6127 -6.5714 2.1229
-3.3744 -6.6969 2.1229
-3.1319 -6.8137 2.1229
-2.8853 -6.9217 2.1229
-2.6350 -7.0208 2.1229
-2.3812 -7.1109 2.1229
-2.1244 -7.1918 2.1229
-1.9988 -7.7848 2.2753
-1.7181 -7.8515 2.2753
-1.4351 -7.9082 2.2753
-1.1503 -7.9546 2.2753
-0.8640 -7.9907 2.2753
-0.5766 -8.0166 2.2753
-0.2885 -8.0321 2.2753
0.0000 -7.3975 2.2753
0.2655 -7.3927 2.2753
0.5307 -7.3784 2.2753
0.7953 -7.3546 2.2753
1.0588 -7.3213 2.2753
1.3209 -7.2786 2.2753
1.5813 -7.2265 2.2753
1.8397 -7.1651 2.2753
2.0957 -7.0944 2.2753
2.3490 -7.0146 2.2753
2.5993 -6.9258 2.2753
2.8462 -6.8280 2.2753
3.0895 -6.7215 2.2753
3.3288 -6.6062 2.2753
3.3251 -6.0483 2.1229
3.5404 -5.9257 2.1231
3.7520 -5.7965 2.1238
3.9588 -5.6598 2.1244
4.1606 -5.5156 2.1250
4.3572 -5.3642 2.1256
4.5482 -5.2058 2.1262
4.7334 -5.0405 2.1268
4.9126 -4.8687 2.1273
5.0855 -4.6904 2.1279
5.2514 -4.5056 2.1282
5.4098 -4.3141 2.1282
5.5611 -4.1172 2.1282
5.7053 -3.9149 2.1282
5.8422 -3.7076 2.1282
5.9715 -3.4955 2.1282
6.0919 -3.2782 2.1278
6.2013 -3.0553 2.1263
6.3011 -2.8280 2.1243
6.4024 -2.6016 2.1256
6.4953 -2.3714 2.1268
5.0900 -1.6538 1.6461
4.9666 -1.4188 1.5887
4.9874 -1.2329 1.5802
5.0666 -1.0611 1.5922
5.2489 -0.9039 1.6382
6.8713 -0.9308 2.1328
6.9028 -0.6838 2.1335
6.9251 -0.4357 2.1342
6.9383 -0.1869 2.1348
6.9423 0.0623 2.1354
6.9372 0.3115 2.1359
6.9221 0.5604 2.1361
6.8970 0.8085 2.1359
6.8628 1.0554 2.1357
6.8196 1.3009 2.1354
6.7674 1.5446 2.1350
6.7063 1.7862 2.1346
6.6364 2.0253 2.1342
6.5579 2.2617 2.1337
6.4707 2.4950 2.1331
6.3751 2.7249 2.1325
6.2712 2.9510 2.1318
6.1591 3.1731 2.1310
6.0390 3.3909 2.1302
5.9110 3.6041 2.1294
5.7754 3.8123 2.1285
5.6324 4.0154 2.1276
5.4821 4.2131 2.1266
5.3248 4.4050 2.1256
5.1606 4.5910 2.1245
4.9899 4.7708 2.1234
4.8143 4.9457 2.1229
4.6337 5.1153 2.1229
4.4471 5.2784 2.1229
4.2547 5.4346 2.1229
4.0569 5.5838 2.1229
3.8538 5.7259 2.1229
3.6458 5.8605 2.1229
3.4331 5.9876 2.1229
3.2160 6.1070 2.1229
2.9947 6.2185 2.1229
2.7922 6.3737 2.1403
2.7232 6.8780 2.2753
2.4745 6.9713 2.2753
2.2227 7.0557 2.2753
1.9680 7.1309 2.2753
1.7108 7.1969 2.2753
1.4513 7.2537 2.2753
1.1900 7.3011 2.2753
0.9272 7.3392 2.2753
0.6631 7.3677 2.2753
0.3982 7.3868 2.2753
0.1328 7.3963 2.2753
-0.1328 7.3963 2.2753
-0.3982 7.3868 2.2753
-0.6631 7.3677 2.2753
-0.9271 7.3392 2.2753
-1.1900 7.3011 2.2753
-1.4513 7.2537 2.2753
-1.7108 7.1969 2.2753
-1.9680 7.1309 2.2753
-2.2227 7.0557 2.2753
-2.4745 6.9713 2.2753
-2.7232 6.8780 2.2753
-2.9683 6.7758 2.2753
-3.2096 6.6649 2.2753
-3.4468 6.5454 2.2753
-3.6796 6.4174 2.2753
-3.9075 6.2812 2.2753
-4.1305 6.1369 2.2753
-4.3481 5.9847 2.2753
-4.5602 5.8248 2.2753
-4.7663 5.6573 2.2753
-4.9663 5.4826 2.2753
-5.1599 5.3008 2.2753
-5.3469 5.1121 2.2753
-5.5270 4.9169 2.2753
-5.6999 4.7153 2.2753
-5.8654 4.5077 2.2753
-6.0235 4.2942 2.2753
-6.1737 4.0753 2.2753
-6.3160 3.8510 2.2753
-6.4502 3.6218 2.2753
-6.5761 3.3879 2.2753
-6.6934 3.1497 2.2753
-6.8022 2.9074 2.2753
-6.9022 2.6613 2.2753
-6.9933 2.4119 2.2753
-7.0753 2.1593 2.2753
-7.1483 1.9039 2.2753
-7.2120 1.6461 2.2753
-7.2665 1.3861 2.2753
-7.3115 1.1244 2.2753
-7.3472 0.8612 2.2753
-7.3734 0.5969 2.2753
-7.3900 0.3319 2.2753
-7.3972 0.0664 2.2753
-7.3948 -0.1992 2.2753
-7.3829 -0.4645 2.2753
-7.3615 -0.7292 2.2753
-7.3305 -0.9930 2.2753
-7.2902 -1.2555 2.2753
-7.2404 -1.5164 2.2753
-7.1813 -1.7753 2.2753
-7.1129 -2.0319 2.2753
-7.0354 -2.2860 2.2753
-6.9488 -2.5370 2.2753
-6.8533 -2.7848 2.2753
-6.7489 -3.0290 2.2753
-6.6358 -3.2693 2.2753
-6.5142 -3.5054 2.2753
-6.3842 -3.7370 2.2753
-6.2459 -3.9638 2.2753
-6.0996 -4.1854 2.2753
-5.9454 -4.4017 2.2753
-5.7836 -4.6123 2.2753
-5.2382 -4.4943 2.1229
-5.0735 -4.6794 2.1229
-4.9023 -4.8585 2.1229
-4.7247 -5.0313 2.1229
-4.5411 -5.1977 2.1229
-4.3516 -5.3574 2.1229
-4.1565 -5.5101 2.1229
-3.7699 -5.3897 2.0230
-3.6146 -5.5843 2.0460
-3.5400 -5.9250 2.1229
-3.3251 -6.0483 2.1229
-3.1058 -6.1637 2.1229
-2.8826 -6.2712 2.1229
-2.6556 -6.3707 2.1229
-2.4252 -6.4619 2.1229
-2.1917 -6.5448 2.1229
-1.9553 -6.6192 2.1229
-1.8397 -7.1651 2.2753
-1.5813 -7.2265 2.2753
-1.3209 -7.2786 2.2753
-1.0587 -7.3213 2.2753
-0.7953 -7.3546 2.2753
-0.5308 -7.3784 2.2753
-0.2655 -7.3927 2.2753
0.0000 -6.8450 2.2753
0.2457 -6.8406 2.2753
0.4911 -6.8273 2.2753
0.7359 -6.8053 2.2753
0.9797 -6.7745 2.2753
1.2222 -6.7350 2.2753
1.4632 -6.6868 2.2753
1.7023 -6.6299 2.2753
1.9392 -6.5645 2.2753
2.1736 -6.4907 2.2753
2.4052 -6.4085 2.2753
2.6336 -6.3180 2.2753
2.8587 -6.2194 2.2753
3.0802 -6.1128 2.2753
3.2502 -5.9122 2.2426
3.2756 -5.4825 2.1229
3.4710 -5.3624 2.1233
3.6622 -5.2357 2.1239
3.8488 -5.1023 2.1244
4.0305 -4.9621 2.1250
4.2071 -4.8154 2.1255
4.3784 -4.6625 2.1261
4.5440 -4.5034 2.1266
4.7038 -4.3384 2.1271
4.8576 -4.1677 2.1275
5.0052 -3.9915 2.1280
5.1458 -3.8097 2.1282
5.2792 -3.6225 2.1282
5.4059 -3.4307 2.1282
5.5255 -3.2344 2.1282
5.6381 -3.0340 2.1282
5.7433 -2.8296 2.1282
5.8405 -2.6213 2.1280
5.9272 -2.4085 2.1267
6.0064 -2.1929 2.1255
6.0780 -1.9749 2.1243
5.0960 -1.4557 1.7617
5.0899 -1.2583 1.7428
5.1960 -1.0882 1.7647
6.3089 -1.0865 2.1280
6.3462 -0.8596 2.1288
6.3750 -0.6315 2.1295
6.3955 -0.4024 2.1301
6.4075 -0.1726 2.1307
6.4111 0.0575 2.1312
6.4063 0.2877 2.1316
6.3929 0.5176 2.1320
6.3711 0.7468 2.1323
6.3403 0.9751 2.1323
6.3004 1.2019 2.1320
6.2523 1.4270 2.1317
6.1959 1.6503 2.1314
6.1315 1.8712 2.1309
6.0590 2.0897 2.1305
5.9786 2.3052 2.1299
5.8904 2.5177 2.1294
5.7946 2.7267 2.1287
5.6911 2.9320 2.1281
5.5803 3.1334 2.1273
5.4623 3.3305 2.1266
5.3372 3.5230 2.1258
5.2052 3.7108 2.1249
5.0664 3.8936 2.1240
4.9212 4.0712 2.1231
4.7716 4.2449 2.1229
4.6161 4.4135 2.1229
4.4547 4.5763 2.1229
4.2876 4.7333 2.1229
4.1149 4.8841 2.1229
3.9369 5.0287 2.1229
3.7539 5.1668 2.1229
3.5660 5.2982 2.1229
3.3735 5.4228 2.1229
3.1767 5.5404 2.1229
2.9758 5.6509 2.1229
2.7802 5.7732 2.1300
2.7466 6.2697 2.2753
2.5198 6.3643 2.2753
2.2897 6.4506 2.2753
2.0567 6.5287 2.2753
1.8210 6.5983 2.2753
1.5830 6.6594 2.2753
1.3429 6.7119 2.2753
1.1011 6.7558 2.2753
0.8579 6.7910 2.2753
0.6136 6.8174 2.2753
0.3685 6.8350 2.2753
0.1229 6.8439 2.2753
-0.1229 6.8439 2.2753
-0.3685 6.8351 2.2753
-0.6136 6.8174 2.2753
-0.8579 6.7910 2.2753
-1.1011 6.7558 2.2753
-1.3429 6.7119 2.2753
-1.5830 6.6594 2.2753
-1.8210 6.5983 2.2753
-2.0567 6.5287 2.2753
-2.2897 6.4506 2.2753
-2.5198 6.3643 2.2753
-2.7466 6.2697 2.2753
-2.9699 6.1671 2.2753
-3.1894 6.0565 2.2753
-3.4047 5.9381 2.2753
-3.6157 5.8121 2.2753
-3.8220 5.6786 2.2753
-4.0234 5.5377 2.2753
-4.2196 5.3897 2.2753
-4.4103 5.2348 2.2753
-4.5954 5.0731 2.2753
-4.7745 4.9049 2.2753
-4.9475 4.7303 2.2753
-5.1141 4.5497 2.2753
-5.2741 4.3631 2.2753
-5.4274 4.1710 2.2753
-5.5736 3.9735 2.2753
-5.7126 3.7709 2.2753
-5.8443 3.5634 2.2753
-5.9684 3.3513 2.2753
-6.0849 3.1349 2.2753
-6.1935 2.9144 2.2753
-6.2941 2.6902 2.2753
-6.3867 2.4626 2.2753
-6.4709 2.2317 2.2753
-6.5469 1.9980 2.2753
-6.6144 1.7617 2.2753
-6.6734 1.5231 2.2753
-6.7237 1.2826 2.2753
-6.7654 1.0404 2.2753
-6.7984 0.7969 2.2753
-6.8226 0.5524 2.2753
-6.8381 0.3071 2.2753
-6.8447 0.0614 2.2753
-6.8425 -0.1843 2.2753
-6.8315 -0.4298 2.2753
-6.8116 -0.6747 2.2753
-6.7830 -0.9188 2.2753
-6.7457 -1.1617 2.2753
-6.6996 -1.4031 2.2753
-6.6449 -1.6427 2.2753
-6.5817 -1.8802 2.2753
-6.5099 -2.1152 2.2753
-6.4298 -2.3475 2.2753
-6.3414 -2.5768 2.2753
-6.2448 -2.8028 2.2753
-6.1402 -3.0252 2.2753
-6.0277 -3.2436 2.2753
-5.9073 -3.4579 2.2753
-5.7794 -3.6677 2.2753
-5.6440 -3.8728 2.2753
-5.5014 -4.0729 2.2753
-5.3516 -4.2678 2.2753
-4.8470 -4.1586 2.1229
-4.6946 -4.3299 2.1229
-4.5362 -4.4956 2.1229
-4.3719 -4.6556 2.1229
-4.2019 -4.8095 2.1229
-4.0266 -4.9572 2.1229
-3.8460 -5.0986 2.1229
-3.6605 -5.2333 2.1229
-3.4703 -5.3614 2.1229
-3.2756 -5.4825 2.1229
-3.0767 -5.5965 2.1229
-2.8738 -5.7034 2.1229
-2.6673 -5.8028 2.1229
-2.4572 -5.8949 2.1229
-2.2441 -5.9793 2.1229
-2.0280 -6.0560 2.1229
-1.8168 -6.1505 2.1318
-1.7023 -6.6299 2.2753
-1.4632 -6.6868 2.2753
-1.2222 -6.7350 2.2753
-0.9797 -6.7745 2.2753
-0.7359 -6.8053 2.2753
-0.4911 -6.8273 2.2753
-0.2457 -6.8406 2.2753
0.0000 -6.3626 2.2753
0.2284 -6.3585 2.2753
0.4565 -6.3462 2.2753
0.6840 -6.3257 2.2753
0.9106 -6.2971 2.2753
1.1361 -6.2603 2.2753
1.3601 -6.2155 2.2753
1.5823 -6.1627 2.2753
1.8025 -6.1019 2.2753
2.0204 -6.0333 2.2753
2.2357 -5.9569 2.2753
2.4480 -5.8728 2.2753
2.6573 -5.7811 2.2753
2.8631 -5.6820 2.2753
3.0652 -5.5756 2.2753
3.1053 -5.1975 2.1651
3.2349 -4.9976 2.1289
3.4034 -4.8657 2.1234
3.5767 -4.7415 2.1239
3.7455 -4.6112 2.1244
3.9095 -4.4748 2.1249
4.0685 -4.3325 2.1254
4.2224 -4.1846 2.1259
4.3708 -4.0312 2.1263
4.5136 -3.8725 2.1268
4.6506 -3.7087 2.1272
4.7817 -3.5401 2.1276
4.9065 -3.3668 2.1280
5.0249 -3.1889 2.1282
5.1361 -3.0065 2.1282
5.2407 -2.8202 2.1282
5.3386 -2.6302 2.1282
5.4296 -2.4369 2.1282
5.5135 -2.2404 2.1282
5.5904 -2.0411 2.1282
5.6574 -1.8382 2.1272
5.2111 -1.4886 1.9381
5.7691 -1.4262 2.1252
5.4352 -1.1383 1.9859
5.4325 -0.9356 1.9713
5.8893 -0.7978 2.1253
5.9159 -0.5860 2.1259
5.9348 -0.3734 2.1265
5.9458 -0.1601 2.1270
5.9491 0.0534 2.1275
5.9445 0.2670 2.1279
5.9320 0.4802 2.1283
5.9117 0.6930 2.1285
5.8836 0.9048 2.1288
5.8478 1.1155 2.1289
5.8038 1.3247 2.1289
5.7516 1.5319 2.1285
5.6918 1.7371 2.1281
5.6247 1.9399 2.1277
5.5501 2.1400 2.1272
5.4684 2.3373 2.1267
5.3795 2.5314 2.1261
5.2836 2.7221 2.1255
5.1809 2.9091 2.1248
5.0714 3.0921 2.1241
4.9554 3.2710 2.1233
4.8330 3.4455 2.1225
4.7070 3.6174 2.1229
4.5741 3.7840 2.1229
4.4353 3.9458 2.1229
4.2908 4.1024 2.1229
4.1408 4.2538 2.1229
3.9854 4.3997 2.1229
3.8249 4.5399 2.1229
3.6595 4.6743 2.1229
3.4893 4.8027 2.1229
3.3147 4.9248 2.1229
3.1358 5.0406 2.1229
2.9528 5.1499 2.1229
2.7713 5.2625 2.1269
2.7464 5.7030 2.2636
2.5531 5.8279 2.2753
0.8097 2.0452 0.7866
0.7356 2.0724 0.7864
0.6606 2.0970 0.7862
1.6927 6.1333 2.2753
1.4714 6.1901 2.2753
1.2483 6.2389 2.2753
1.0235 6.2797 2.2753
0.7974 6.3124 2.2753
0.5703 6.3370 2.2753
0.3425 6.3534 2.2753
0.1142 6.3616 2.2753
-0.1142 6.3616 2.2753
-0.3425 6.3534 2.2753
-0.5703 6.3370 2.2753
-0.7975 6.3124 2.2753
-1.0235 6.2797 2.2753
-1.2483 6.2389 2.2753
-1.4714 6.1901 2.2753
-1.6927 6.1333 2.2753
-0.6606 2.0971 0.7863
-0.7357 2.0725 0.7865
-0.8098 2.0453 0.7867
-2.5531 5.8279 2.2753
-2.7606 5.7325 2.2753
-2.9646 5.6297 2.2753
-3.1648 5.5197 2.2753
-3.3609 5.4025 2.2753
-3.5526 5.2784 2.2753
-3.7398 5.1474 2.2753
-3.9222 5.0099 2.2753
-4.0995 4.8659 2.2753
-4.2715 4.7156 2.2753
-4.4380 4.5592 2.2753
-4.5988 4.3969 2.2753
-4.7537 4.2290 2.2753
-4.9025 4.0557 2.2753
-5.0449 3.8771 2.2753
-5.1808 3.6935 2.2753
-5.3100 3.5051 2.2753
-5.4324 3.3123 2.2753
-5.5478 3.1151 2.2753
-5.6561 2.9140 2.2753
-5.7570 2.7091 2.2753
-5.8506 2.5007 2.2753
-5.9366 2.2890 2.2753
-6.0149 2.0745 2.2753
-6.0855 1.8572 2.2753
-6.1482 1.6376 2.2753
-6.2031 1.4158 2.2753
-6.2499 1.1922 2.2753
-6.2887 0.9671 2.2753
-6.3193 0.7407 2.2753
-6.3418 0.5134 2.2753
-6.3562 0.2855 2.2753
-6.3623 0.0571 2.2753
-6.3603 -0.1713 2.2753
-6.3500 -0.3995 2.2753
-6.3316 -0.6272 2.2753
-6.3050 -0.8541 2.2753
-6.2703 -1.0798 2.2753
-6.2275 -1.3042 2.2753
-6.1766 -1.5269 2.2753
-6.1179 -1.7477 2.2753
-6.0512 -1.9661 2.2753
-5.9767 -2.1821 2.2753
-5.8945 -2.3952 2.2753
-5.8047 -2.6053 2.2753
-5.7075 -2.8120 2.2753
-5.6029 -3.0150 2.2753
-5.4910 -3.2142 2.2753
-5.3721 -3.4092 2.2753
-5.2463 -3.5999 2.2753
-5.1137 -3.7859 2.2753
-4.9745 -3.9670 2.2753
-4.5054 -3.8655 2.1229
-4.3638 -4.0248 2.1229
-4.2165 -4.1788 2.1229
-4.0638 -4.3275 2.1229
-3.9058 -4.4706 2.1229
-3.7428 -4.6079 2.1229
-3.5750 -4.7393 2.1229
-3.4026 -4.8645 2.1229
-3.2258 -4.9835 2.1229
-3.0448 -5.0961 2.1229
-2.8599 -5.2021 2.1229
-2.6713 -5.3014 2.1229
-2.4793 -5.3939 2.1229
-2.2841 -5.4794 2.1229
-2.0859 -5.5579 2.1229
-1.8863 -5.6328 2.1243
-1.7953 -6.0775 2.2662
-1.5823 -6.1627 2.2753
-1.3601 -6.2155 2.2753
-1.1360 -6.2603 2.2753
-0.9106 -6.2971 2.2753
-0.6840 -6.3257 2.2753
-0.4565 -6.3462 2.2753
-0.2284 -6.3585 2.2753
0.0000 -5.9374 2.2753
0.2131 -5.9335 2.2753
0.1532 -2.1300 0.8184
0.2296 -2.1230 0.8183
0.3056 -2.1132 0.8182
0.3812 -2.1006 0.8181
0.4563 -2.0852 0.8180
0.5308 -2.0672 0.8179
0.6045 -2.0464 0.8177
0.6774 -2.0229 0.8175
0.7494 -1.9968 0.8173
0.8204 -1.9681 0.8171
2.4797 -5.3948 2.2753
2.6717 -5.3023 2.2753
2.8604 -5.2030 2.2753
3.0453 -5.0969 2.2753
3.0187 -4.6636 2.1289
3.1752 -4.5395 2.1230
3.3369 -4.4236 2.1234
3.4943 -4.3019 2.1239
3.6473 -4.1746 2.1244
3.7955 -4.0418 2.1248
3.9390 -3.9038 2.1252
4.0774 -3.7606 2.1256
4.2106 -3.6125 2.1260
4.3383 -3.4597 2.1264
4.4605 -3.3023 2.1268
4.5769 -3.1406 2.1272
4.6874 -2.9747 2.1275
4.7919 -2.8050 2.1278
4.8902 -2.6315 2.1281
4.9818 -2.4544 2.1282
5.0667 -2.2740 2.1282
5.1451 -2.0907 2.1282
5.2168 -1.9046 2.1282
5.2818 -1.7162 2.1282
5.2157 -1.4899 2.0787
5.3905 -1.3326 2.1279
5.4327 -1.1378 2.1271
5.4679 -0.9417 2.1262
5.4961 -0.7445 2.1255
5.5174 -0.5465 2.1247
5.5299 -0.3479 2.1234
5.5402 -0.1492 2.1239
5.5431 0.0498 2.1243
5.5387 0.2487 2.1247
5.5270 0.4475 2.1250
5.5081 0.6457 2.1253
5.4819 0.8430 2.1255
5.4485 1.0393 2.1256
5.4079 1.2343 2.1257
5.3601 1.4277 2.1257
5.3053 1.6191 2.1257
5.2427 1.8081 2.1252
5.1734 1.9947 2.1248
5.0972 2.1787 2.1243
5.0145 2.3596 2.1238
4.9252 2.5374 2.1232
4.8295 2.7118 2.1226
4.7298 2.8839 2.1229
4.6233 3.0518 2.1229
4.5108 3.2158 2.1229
4.3924 3.3756 2.1229
4.2684 3.5311 2.1229
4.1389 3.6821 2.1229
4.0041 3.8283 2.1229
3.8641 3.9695 2.1229
3.7191 4.1057 2.1229
3.5693 4.2365 2.1229
3.4149 4.3619 2.1229
3.2561 4.4817 2.1229
3.0932 4.5957 2.1229
2.9262 4.7038 2.1229
2.7616 4.8164 2.1276
2.7377 5.1988 2.2516
2.5761 5.3494 2.2753
0.8249 1.8831 0.7878
0.7566 1.9110 0.7876
0.6874 1.9364 0.7874
0.6173 1.9594 0.7873
0.5464 1.9799 0.7871
0.4749 1.9979 0.7870
0.4028 2.0134 0.7869
0.3303 2.0263 0.7868
0.2573 2.0367 0.7867
0.1840 2.0445 0.7866
0.1105 2.0496 0.7866
0.0368 2.0522 0.7866
-0.0368 2.0523 0.7866
-0.1105 2.0497 0.7866
-0.1840 2.0445 0.7867
-0.2573 2.0367 0.7867
-0.3303 2.0264 0.7868
-0.4029 2.0135 0.7869
-0.4749 1.9980 0.7870
-0.5465 1.9801 0.7872
-0.6173 1.9596 0.7873
-0.6874 1.9366 0.7875
-0.7567 1.9111 0.7877
-0.8250 1.8832 0.7879
-2.5761 5.3494 2.2753
-2.7665 5.2535 2.2753
-2.9533 5.1508 2.2753
-3.1363 5.0414 2.2753
-3.3152 4.9256 2.2753
-3.4899 4.8034 2.2753
-3.6601 4.6751 2.2753
-3.8255 4.5407 2.2753
-3.9861 4.4004 2.2753
-4.1414 4.2545 2.2753
-4.2915 4.1031 2.2753
-4.4360 3.9464 2.2753
-4.5748 3.7846 2.2753
-4.7077 3.6180 2.2753
-4.8346 3.4466 2.2753
-4.9552 3.2709 2.2753
-5.0694 3.0909 2.2753
-5.1771 2.9069 2.2753
-5.2781 2.7192 2.2753
-5.3723 2.5280 2.2753
-5.4596 2.3335 2.2753
-5.5398 2.1360 2.2753
-5.6129 1.9358 2.2753
-5.6788 1.7331 2.2753
-5.7373 1.5281 2.2753
-5.7885 1.3212 2.2753
-5.8322 1.1125 2.2753
-5.8684 0.9025 2.2753
-5.8970 0.6912 2.2753
-5.9180 0.4791 2.2753
-5.9314 0.2664 2.2753
-5.9371 0.0533 2.2753
-5.9352 -0.1599 2.2753
-5.9257 -0.3728 2.2753
-5.9084 -0.5853 2.2753
-5.8836 -0.7970 2.2753
-5.8512 -1.0077 2.2753
-5.8113 -1.2171 2.2753
-5.7639 -1.4249 2.2753
-5.7090 -1.6309 2.2753
-5.6468 -1.8347 2.2753
-5.5773 -2.0363 2.2753
-5.5006 -2.2352 2.2753
-5.4168 -2.4312 2.2753
-5.3260 -2.6240 2.2753
-5.2284 -2.8135 2.2753
-5.1241 -2.9994 2.2753
-5.0131 -3.1814 2.2753
-4.8957 -3.3593 2.2753
-4.7719 -3.5329 2.2753
-4.6420 -3.7019 2.2753
-4.2043 -3.6072 2.1229
-4.0721 -3.7558 2.1229
-3.9347 -3.8995 2.1229
-3.7922 -4.0383 2.1229
-3.6448 -4.1718 2.1229
-3.4927 -4.2999 2.1229
-3.3361 -4.4225 2.1229
-3.1752 -4.5394 2.1229
-3.0102 -4.6505 2.1229
-2.8413 -4.7555 2.1229
-2.6688 -4.8545 2.1229
-2.4928 -4.9471 2.1229
-2.3136 -5.0334 2.1229
-0.8205 -1.9682 0.8172
-0.7495 -1.9970 0.8174
-0.6775 -2.0231 0.8176
-0.6045 -2.0465 0.8178
-0.5308 -2.0673 0.8179
-0.4563 -2.0853 0.8180
-0.3812 -2.1007 0.8182
-0.3056 -2.1132 0.8183
-0.2296 -2.1230 0.8183
-0.1532 -2.1300 0.8184
-0.2131 -5.9335 2.2753
-0.0000 -1.9971 0.8174
0.0717 -1.9958 0.8173
0.1433 -1.9918 0.8173
0.2147 -1.9853 0.8173
0.2858 -1.9761 0.8172
0.3565 -1.9644 0.8171
0.4267 -1.9500 0.8170
0.4963 -1.9331 0.8169
0.5653 -1.9137 0.8167
0.6335 -1.8918 0.8165
0.7009 -1.8674 0.8163
0.7672 -1.8406 0.8161
2.3218 -5.0513 2.2753
2.5016 -4.9647 2.2753
2.6782 -4.8717 2.2753
2.8514 -4.7724 2.2753
2.9787 -4.6019 2.2436
2.9730 -4.2504 2.1229
3.1238 -4.1411 2.1230
3.2711 -4.0271 2.1234
3.4142 -3.9079 2.1238
3.5530 -3.7836 2.1242
3.6872 -3.6543 2.1246
3.8167 -3.5202 2.1250
3.9413 -3.3815 2.1254
4.0608 -3.2384 2.1258
4.1751 -3.0910 2.1261
4.2840 -2.9396 2.1264
4.3874 -2.7843 2.1267
4.4852 -2.6254 2.1270
4.5771 -2.4630 2.1273
4.6631 -2.2974 2.1276
4.7431 -2.1288 2.1278
4.8169 -1.9574 2.1280
4.8845 -1.7833 2.1282
4.9455 -1.6069 2.1282
5.0000 -1.4283 2.1282
5.0481 -1.2479 2.1282
5.0896 -1.0659 2.1282
5.1246 -0.8825 2.1282
5.1525 -0.6980 2.1280
5.1726 -0.5124 2.1274
5.1861 -0.3263 2.1267
5.1931 -0.1399 2.1262
5.1935 0.0466 2.1256
5.1873 0.2330 2.1252
5.1746 0.4189 2.1247
5.1553 0.6043 2.1244
5.1295 0.7889 2.1241
5.0973 0.9724 2.1238
5.0586 1.1546 2.1236
5.0119 1.3349 2.1228
4.9607 1.5139 2.1227
4.9029 1.6909 2.1226
4.8397 1.8661 2.1229
4.7696 2.0386 2.1229
4.6933 2.2085 2.1229
4.6110 2.3756 2.1229
4.5228 2.5396 2.1229
4.4287 2.7003 2.1229
4.3289 2.8575 2.1229
4.2236 3.0111 2.1229
4.1128 3.1607 2.1229
3.9967 3.3063 2.1229
3.8754 3.4476 2.1229
3.7491 3.5845 2.1229
3.6180 3.7168 2.1229
3.4823 3.8443 2.1229
3.3421 3.9668 2.1229
3.1975 4.0842 2.1229
3.0488 4.1964 2.1229
2.9033 4.3136 2.1281
2.7502 4.4209 2.1309
2.7299 4.7611 2.2462
2.5904 4.9190 2.2753
0.8364 1.7368 0.7889
0.7733 1.7652 0.7887
0.7093 1.7914 0.7885
0.6443 1.8153 0.7884
0.5787 1.8369 0.7882
0.5123 1.8561 0.7881
0.4452 1.8730 0.7879
0.3777 1.8875 0.7878
0.3096 1.8996 0.7877
0.2412 1.9094 0.7877
0.1725 1.9167 0.7876
0.1036 1.9215 0.7876
0.0345 1.9240 0.7876
-0.0345 1.9240 0.7876
-0.1036 1.9215 0.7876
-0.1725 1.9167 0.7876
-0.2412 1.9094 0.7877
-0.3096 1.8997 0.7878
-0.3777 1.8876 0.7879
-0.4452 1.8731 0.7880
-0.5123 1.8562 0.7881
-0.5787 1.8370 0.7882
-0.6444 1.8154 0.7884
-0.7093 1.7915 0.7886
-0.7734 1.7653 0.7888
-2.4121 5.0088 2.2753
-2.5903 4.9190 2.2753
-2.7652 4.8228 2.2753
-2.9366 4.7205 2.2753
-3.1042 4.6120 2.2753
-3.2677 4.4976 2.2753
-3.4270 4.3774 2.2753
-3.5821 4.2516 2.2753
-3.7323 4.1203 2.2753
-3.8778 3.9836 2.2753
-4.0183 3.8419 2.2753
-4.1536 3.6951 2.2753
-4.2836 3.5437 2.2753
-4.4080 3.3876 2.2753
-4.5268 3.2272 2.2753
-4.6397 3.0626 2.2753
-4.7466 2.8941 2.2753
-4.8475 2.7219 2.2753
-4.9420 2.5461 2.2753
-5.0303 2.3671 2.2753
-5.1120 2.1850 2.2753
-5.1871 2.0001 2.2753
-5.2556 1.8126 2.2753
-5.3172 1.6228 2.2753
-5.3721 1.4308 2.2753
-5.4200 1.2371 2.2753
-5.4609 1.0417 2.2753
-5.4948 0.8450 2.2753
-5.5216 0.6472 2.2753
-5.5412 0.4486 2.2753
-5.5538 0.2494 2.2753
-5.5591 0.0499 2.2753
-5.5573 -0.1497 2.2753
-5.5484 -0.3491 2.2753
-5.5323 -0.5480 2.2753
-5.5090 -0.7463 2.2753
-5.4787 -0.9435 2.2753
-5.4413 -1.1396 2.2753
-5.3969 -1.3342 2.2753
-5.3455 -1.5270 2.2753
-5.2873 -1.7179 2.2753
-5.2222 -1.9066 2.2753
-5.1504 -2.0929 2.2753
-5.0719 -2.2764 2.2753
-4.9870 -2.4570 2.2753
-4.8955 -2.6344 2.2753
-4.7978 -2.8084 2.2753
-4.6939 -2.9789 2.2753
-4.5840 -3.1454 2.2753
-4.4681 -3.3080 2.2753
-4.3465 -3.4662 2.2753
-3.9367 -3.3775 2.1229
-3.8129 -3.5167 2.1229
-3.6842 -3.6513 2.1229
-3.5507 -3.7812 2.1229
-3.4127 -3.9062 2.1229
-3.2703 -4.0262 2.1229
-3.1237 -4.1410 2.1229
-2.9730 -4.2504 2.1229
-2.8185 -4.3544 2.1229
-2.6604 -4.4528 2.1229
-2.4989 -4.5454 2.1229
-2.3341 -4.6322 2.1229
-0.8327 -1.8115 0.8160
-0.7673 -1.8407 0.8162
-0.7009 -1.8676 0.8164
-0.6336 -1.8919 0.8166
-0.5654 -1.9138 0.8167
-0.4964 -1.9332 0.8169
-0.4267 -1.9501 0.8170
-0.3565 -1.9644 0.8171
-0.2858 -1.9762 0.8172
-0.2147 -1.9853 0.8173
-0.1433 -1.9919 0.8173
-0.0717 -1.9958 0.8174
-0.0000 -1.8733 0.8164
0.0672 -1.8721 0.8164
0.1344 -1.8684 0.8164
0.2014 -1.8622 0.8163
0.2681 -1.8537 0.8163
0.3344 -1.8426 0.8162
0.4003 -1.8292 0.8161
0.4656 -1.8134 0.8159
0.5303 -1.7952 0.8158
0.5943 -1.7747 0.8156
0.6575 -1.7518 0.8155
0.7198 -1.7267 0.8153
0.7811 -1.6993 0.8151
2.3493 -4.6623 2.2753
2.5151 -4.5750 2.2753
2.6777 -4.4818 2.2753
2.8369 -4.3828 2.2753
2.9152 -4.1677 2.2166
2.9334 -3.8888 2.1229
3.0712 -3.7811 2.1230
3.2056 -3.6691 2.1234
3.3358 -3.5523 2.1237
3.4618 -3.4308 2.1241
3.5833 -3.3049 2.1245
3.7002 -3.1747 2.1248
3.8124 -3.0403 2.1252
3.9197 -2.9019 2.1255
4.0219 -2.7597 2.1258
4.1189 -2.6139 2.1261
4.2106 -2.4647 2.1263
4.2969 -2.3123 2.1266
4.3776 -2.1568 2.1268
4.4526 -1.9984 2.1270
4.5219 -1.8375 2.1272
4.5854 -1.6741 2.1274
4.6428 -1.5085 2.1276
4.6943 -1.3410 2.1277
4.7397 -1.1717 2.1278
4.7790 -1.0009 2.1279
4.8120 -0.8287 2.1280
4.8388 -0.6555 2.1281
4.8594 -0.4814 2.1282
4.8736 -0.3066 2.1282
4.8815 -0.1315 2.1282
4.8709 0.0437 2.1229
4.8662 0.2185 2.1229
4.8552 0.3931 2.1229
4.8380 0.5671 2.1229
4.8145 0.7404 2.1229
4.7848 0.9128 2.1229
4.7490 1.0839 2.1229
4.7070 1.2537 2.1229
4.6590 1.4218 2.1229
4.6049 1.5882 2.1229
4.5450 1.7524 2.1229
4.4791 1.9145 2.1229
4.4075 2.0740 2.1229
4.3302 2.2309 2.1229
4.2473 2.3849 2.1229
4.1590 2.5358 2.1229
4.0653 2.6835 2.1229
3.9663 2.8277 2.1229
3.8623 2.9682 2.1229
3.7533 3.1050 2.1229
3.6394 3.2377 2.1229
3.5208 3.3662 2.1229
3.3977 3.4904 2.1229
3.2702 3.6102 2.1229
3.1385 3.7252 2.1229
3.0028 3.8355 2.1229
2.8632 3.9408 2.1229
2.7374 4.0671 2.1366
2.7221 4.3757 2.2459
2.5969 4.5291 2.2753
0.8446 1.6038 0.7900
0.7862 1.6326 0.7897
0.7269 1.6594 0.7895
0.6668 1.6840 0.7894
0.6057 1.7065 0.7892
0.5440 1.7268 0.7890
0.4816 1.7449 0.7889
0.4186 1.7608 0.7888
0.3550 1.7745 0.7887
0.2911 1.7859 0.7886
0.2268 1.7951 0.7885
0.1622 1.8019 0.7885
0.0974 1.8065 0.7884
0.0325 1.8088 0.7884
-0.0325 1.8088 0.7884
-0.0974 1.8065 0.7885
-0.1622 1.8020 0.7885
-0.2268 1.7951 0.7885
-0.2911 1.7860 0.7886
-0.3551 1.7746 0.7887
-0.4186 1.7609 0.7888
-0.4816 1.7450 0.7889
-0.5440 1.7269 0.7891
-0.6058 1.7066 0.7892
-0.6668 1.6841 0.7894
-0.7270 1.6595 0.7896
-0.7863 1.6328 0.7898
-2.4326 4.6194 2.2753
-2.5968 4.5291 2.2753
-2.7578 4.4330 2.2753
-2.9151 4.3311 2.2753
-3.0687 4.2237 2.2753
-3.2183 4.1108 2.2753
-3.3638 3.9927 2.2753
-3.5050 3.8693 2.2753
-3.6416 3.7410 2.2753
-3.7736 3.6079 2.2753
-3.9006 3.4701 2.2753
-4.0227 3.3279 2.2753
-4.1396 3.1813 2.2753
-4.2511 3.0307 2.2753
-4.3571 2.8761 2.2753
-4.4576 2.7179 2.2753
-4.5522 2.5561 2.2753
-4.6411 2.3910 2.2753
-4.7239 2.2229 2.2753
-4.8007 2.0519 2.2753
-4.8712 1.8783 2.2753
-4.9355 1.7022 2.2753
-4.9934 1.5239 2.2753
-5.0449 1.3437 2.2753
-5.0899 1.1617 2.2753
-5.1283 0.9783 2.2753
-5.1601 0.7936 2.2753
-5.1853 0.6078 2.2753
-5.2038 0.4213 2.2753
-5.2155 0.2342 2.2753
-5.2206 0.0469 2.2753
-5.2189 -0.1406 2.2753
-5.2105 -0.3278 2.2753
-5.1954 -0.5146 2.2753
-5.1735 -0.7008 2.2753
-5.1450 -0.8861 2.2753
-5.1099 -1.0702 2.2753
-5.0682 -1.2529 2.2753
-5.0200 -1.4340 2.2753
-4.9653 -1.6133 2.2753
-4.9042 -1.7905 2.2753
-4.8367 -1.9654 2.2753
-4.7631 -2.1377 2.2753
-4.6832 -2.3073 2.2753
-4.5974 -2.4740 2.2753
-4.5056 -2.6374 2.2753
-4.4081 -2.7974 2.2753
-4.3048 -2.9539 2.2753
-4.1960 -3.1065 2.2753
-4.0818 -3.2551 2.2753
-3.6972 -3.1721 2.1231
-3.5807 -3.3025 2.1229
-3.4598 -3.4289 2.1229
-3.3345 -3.5509 2.1229
-3.2049 -3.6683 2.1229
-3.0711 -3.7810 2.1229
-2.9334 -3.8888 2.1229
-2.7920 -3.9916 2.1229
-2.6469 -4.0892 2.1229
-2.4984 -4.1816 2.1229
-2.3467 -4.2686 2.1229
-0.8414 -1.6698 0.8149
-0.7811 -1.6994 0.8151
-0.7198 -1.7268 0.8153
-0.6575 -1.7519 0.8155
-0.5943 -1.7748 0.8157
-0.5303 -1.7953 0.8158
-0.4656 -1.8135 0.8160
-0.4003 -1.8293 0.8161
-0.3344 -1.8427 0.8162
-0.2681 -1.8537 0.8163
-0.2014 -1.8623 0.8163
-0.1344 -1.8684 0.8164
-0.0672 -1.8721 0.8164
-0.0000 -1.7619 0.8156
0.0632 -1.7608 0.8156
0.1264 -1.7573 0.8155
0.1894 -1.7515 0.8155
0.2521 -1.7435 0.8154
0.3145 -1.7331 0.8153
0.3765 -1.7205 0.8152
0.4379 -1.7056 0.8151
0.4988 -1.6886 0.8150
0.5590 -1.6693 0.8148
0.6184 -1.6478 0.8147
0.6770 -1.6242 0.8145
0.7347 -1.5984 0.8143
0.7914 -1.5706 0.8141
2.3681 -4.3075 2.2753
2.5212 -4.2197 2.2753
2.6710 -4.1265 2.2753
2.8174 -4.0279 2.2753
2.8665 -3.8000 2.2033
2.8916 -3.5599 2.1229
3.0175 -3.4538 2.1229
3.1401 -3.3438 2.1233
3.2586 -3.2295 2.1236
3.3730 -3.1109 2.1240
3.4830 -2.9883 2.1243
3.5885 -2.8618 2.1246
3.6895 -2.7315 2.1249
3.7856 -2.5976 2.1252
3.8769 -2.4604 2.1254
3.9632 -2.3199 2.1257
4.0444 -2.1764 2.1259
4.1203 -2.0300 2.1261
4.1909 -1.8810 2.1263
4.2561 -1.7295 2.1265
4.3158 -1.5757 2.1267
4.3698 -1.4199 2.1268
4.4183 -1.2622 2.1270
4.4610 -1.1028 2.1271
4.4979 -0.9420 2.1272
4.5290 -0.7800 2.1273
4.5542 -0.6169 2.1273
4.5736 -0.4531 2.1274
4.5870 -0.2886 2.1274
4.5944 -0.1237 2.1275
4.5861 0.0412 2.1229
4.5816 0.2058 2.1229
4.5713 0.3701 2.1229
4.5551 0.5339 2.1229
4.5330 0.6971 2.1229
4.5050 0.8594 2.1229
4.4713 1.0205 2.1229
4.4318 1.1804 2.1229
4.3865 1.3387 2.1229
4.3356 1.4953 2.1229
4.2792 1.6500 2.1229
4.2172 1.8025 2.1229
4.1498 1.9527 2.1229
4.0770 2.1004 2.1229
3.9990 2.2454 2.1229
3.9158 2.3875 2.1229
3.8276 2.5266 2.1229
3.7344 2.6623 2.1229
3.6364 2.7947 2.1229
3.5338 2.9234 2.1229
3.4266 3.0484 2.1229
3.3149 3.1694 2.1229
3.1990 3.2863 2.1229
3.0790 3.3991 2.1229
2.9550 3.5074 2.1229
2.8272 3.6112 2.1229
2.7280 3.7547 2.1483
2.7144 4.0329 2.2502
2.5965 4.1738 2.2753
2.4450 4.2643 2.2753
0.7959 1.5114 0.7907
0.7409 1.5386 0.7905
0.6851 1.5638 0.7903
0.6283 1.5870 0.7901
0.5709 1.6082 0.7899
0.5127 1.6274 0.7898
0.4539 1.6445 0.7897
0.3945 1.6595 0.7896
0.3346 1.6724 0.7895
0.2743 1.6831 0.7894
0.2137 1.6918 0.7893
0.1528 1.6982 0.7893
0.0918 1.7026 0.7892
0.0306 1.7047 0.7892
-0.0306 1.7047 0.7892
-0.0918 1.7026 0.7892
-0.1528 1.6983 0.7893
-0.2137 1.6918 0.7893
-0.2743 1.6832 0.7894
-0.3346 1.6724 0.7895
-0.3945 1.6596 0.7896
-0.4539 1.6446 0.7897
-0.5127 1.6275 0.7898
-0.5709 1.6083 0.7900
-0.6284 1.5871 0.7901
-0.6851 1.5639 0.7903
-0.7410 1.5387 0.7905
-0.7960 1.5115 0.7907
-2.4450 4.2643 2.2753
-2.5965 4.1738 2.2753
-2.7446 4.0779 2.2753
-2.8893 3.9767 2.2753
-3.0301 3.8704 2.2753
-3.1671 3.7592 2.2753
-3.3000 3.6431 2.2753
-3.4287 3.5223 2.2753
-3.5529 3.3969 2.2753
-3.6725 3.2672 2.2753
-3.7875 3.1333 2.2753
-3.8975 2.9953 2.2753
-4.0025 2.8534 2.2753
-4.1023 2.7079 2.2753
-4.1969 2.5589 2.2753
-4.2860 2.4066 2.2753
-4.3697 2.2512 2.2753
-4.4477 2.0929 2.2753
-4.5199 1.9319 2.2753
-4.5864 1.7684 2.2753
-4.6469 1.6026 2.2753
-4.7014 1.4348 2.2753
-4.7499 1.2651 2.2753
-4.7922 1.0938 2.2753
-4.8284 0.9211 2.2753
-4.8584 0.7472 2.2753
-4.8821 0.5723 2.2753
-4.8995 0.3967 2.2753
-4.9105 0.2205 2.2753
-4.9153 0.0441 2.2753
-4.9137 -0.1323 2.2753
-4.9058 -0.3086 2.2753
-4.8916 -0.4845 2.2753
-4.8710 -0.6598 2.2753
-4.8442 -0.8343 2.2753
-4.8111 -1.0076 2.2753
-4.7718 -1.1797 2.2753
-4.7264 -1.3502 2.2753
-4.6749 -1.5190 2.2753
-4.6174 -1.6858 2.2753
-4.5539 -1.8505 2.2753
-4.4845 -2.0127 2.2753
-4.4094 -2.1724 2.2753
-4.3286 -2.3293 2.2753
-4.2422 -2.4832 2.2753
-4.1503 -2.6339 2.2753
-4.0531 -2.7811 2.2753
-3.9506 -2.9248 2.2753
-3.5951 -2.8670 2.1285
-3.4807 -2.9864 2.1229
-3.3713 -3.1094 2.1229
-3.2575 -3.2284 2.1229
-3.1395 -3.3432 2.1229
-3.0175 -3.4538 2.1229
-2.8915 -3.5599 2.1229
-2.7619 -3.6614 2.1229
-2.6287 -3.7582 2.1229
-2.4921 -3.8501 2.1229
-2.3523 -3.9371 2.1229
-2.2094 -4.0190 2.1229
-0.7915 -1.5707 0.8142
-0.7348 -1.5985 0.8144
-0.6771 -1.6243 0.8146
-0.6185 -1.6479 0.8147
-0.5590 -1.6694 0.8149
-0.4988 -1.6886 0.8150
-0.4380 -1.7057 0.8152
-0.3765 -1.7206 0.8153
-0.3145 -1.7332 0.8154
-0.2521 -1.7435 0.8154
-0.1894 -1.7516 0.8155
-0.1264 -1.7573 0.8155
-0.0632 -1.7608 0.8156
-0.0000 -1.6611 0.8148
0.0596 -1.6600 0.8148
0.1192 -1.6567 0.8148
0.1786 -1.6513 0.8147
0.2377 -1.6437 0.8147
0.2965 -1.6340 0.8146
0.3549 -1.6221 0.8145
0.4129 -1.6081 0.8144
0.4703 -1.5920 0.8143
0.5270 -1.5738 0.8141
0.5831 -1.5536 0.8140
0.6383 -1.5313 0.8138
0.6927 -1.5071 0.8136
0.7462 -1.4809 0.8134
0.7986 -1.4527 0.8132
2.3791 -3.9819 2.2753
2.5205 -3.8940 2.2753
2.6587 -3.8010 2.2753
2.7934 -3.7031 2.2753
2.8314 -3.4858 2.2029
2.8475 -3.2592 2.1229
2.9626 -3.1549 2.1229
3.0744 -3.0469 2.1232
3.1822 -2.9350 2.1235
3.2860 -2.8193 2.1238
3.3855 -2.6999 2.1241
3.4807 -2.5769 2.1244
3.5714 -2.4506 2.1246
3.6575 -2.3211 2.1249
3.7389 -2.1886 2.1251
3.8154 -2.0532 2.1253
3.8870 -1.9151 2.1255
3.9536 -1.7745 2.1257
4.0151 -1.6315 2.1259
4.0714 -1.4864 2.1260
4.1224 -1.3394 2.1262
4.1680 -1.1907 2.1263
4.2083 -1.0403 2.1264
4.2431 -0.8886 2.1265
4.2725 -0.7358 2.1266
4.2962 -0.5820 2.1267
4.3145 -0.4274 2.1267
4.3271 -0.2722 2.1267
4.3341 -0.1167 2.1268
4.3277 0.0388 2.1229
4.3235 0.1942 2.1229
4.3137 0.3492 2.1229
4.2984 0.5039 2.1229
4.2776 0.6578 2.1229
4.2512 0.8110 2.1229
4.2193 0.9630 2.1229
4.1820 1.1139 2.1229
4.1394 1.2633 2.1229
4.0914 1.4110 2.1229
4.0381 1.5570 2.1229
3.9796 1.7009 2.1229
3.9160 1.8427 2.1229
3.8473 1.9821 2.1229
3.7737 2.1189 2.1229
3.6952 2.2530 2.1229
3.6119 2.3842 2.1229
3.5240 2.5123 2.1229
3.4315 2.6372 2.1229
3.3347 2.7587 2.1229
3.2335 2.8766 2.1229
3.1281 2.9908 2.1229
3.0188 3.1012 2.1229
2.9055 3.2075 2.1229
2.7885 3.3098 2.1229
2.7227 3.4778 2.1665
2.7072 3.7262 2.2593
2.5900 3.8481 2.2753
2.4502 3.9386 2.2753
0.8026 1.3998 0.7915
0.7517 1.4274 0.7913
0.6998 1.4531 0.7911
0.6470 1.4769 0.7909
0.5934 1.4989 0.7908
0.5392 1.5189 0.7906
0.4842 1.5370 0.7905
0.4287 1.5532 0.7904
0.3726 1.5674 0.7903
0.3160 1.5796 0.7902
0.2591 1.5897 0.7901
0.2019 1.5979 0.7900
0.1444 1.6040 0.7900
0.0867 1.6081 0.7900
0.0289 1.6102 0.7899
-0.0289 1.6102 0.7899
-0.0867 1.6081 0.7900
-0.1444 1.6040 0.7900
-0.2019 1.5979 0.7900
-0.2591 1.5898 0.7901
-0.3160 1.5796 0.7902
-0.3726 1.5674 0.7903
-0.4287 1.5533 0.7904
-0.4842 1.5371 0.7905
-0.5392 1.5190 0.7907
-0.5935 1.4990 0.7908
-0.6470 1.4770 0.7910
-0.6998 1.4532 0.7912
-0.7517 1.4275 0.7914
-0.8027 1.3999 0.7916
-2.4502 3.9386 2.2753
-2.5900 3.8481 2.2753
-2.7265 3.7526 2.2753
-2.8594 3.6524 2.2753
-2.9887 3.5474 2.2753
-3.1141 3.4378 2.2753
-3.2355 3.3238 2.2753
-3.3527 3.2055 2.2753
-3.4656 3.0831 2.2753
-3.5740 2.9567 2.2753
-3.6779 2.8265 2.2753
-3.7770 2.6927 2.2753
-3.8712 2.5554 2.2753
-3.9604 2.4147 2.2753
-4.0445 2.2710 2.2753
-4.1235 2.1244 2.2753
-4.1971 1.9750 2.2753
-4.2653 1.8231 2.2753
-4.3279 1.6688 2.2753
-4.3851 1.5123 2.2753
-4.4365 1.3540 2.2753
-4.4823 1.1938 2.2753
-4.5222 1.0322 2.2753
-4.5564 0.8692 2.2753
-4.5846 0.7051 2.2753
-4.6070 0.5400 2.2753
-4.6234 0.3743 2.2753
-4.6339 0.2081 2.2753
-4.6383 0.0416 2.2753
-4.6368 -0.1249 2.2753
-4.6294 -0.2913 2.2753
-4.6159 -0.4572 2.2753
-4.5965 -0.6226 2.2753
-4.5712 -0.7872 2.2753
-4.5400 -0.9508 2.2753
-4.5030 -1.1132 2.2753
-4.4601 -1.2741 2.2753
-4.4115 -1.4334 2.2753
-4.3572 -1.5908 2.2753
-4.2973 -1.7462 2.2753
-4.2318 -1.8993 2.2753
-4.1609 -2.0500 2.2753
-4.0847 -2.1980 2.2753
-4.0031 -2.3433 2.2753
-3.9164 -2.4854 2.2753
-3.8247 -2.6244 2.2753
-3.7280 -2.7600 2.2753
-3.3836 -2.6984 2.1229
-3.2846 -2.8181 2.1229
-3.1813 -2.9342 2.1229
-3.0739 -3.0465 2.1229
-2.9626 -3.1549 2.1229
-2.8475 -3.2592 2.1229
-2.7286 -3.3593 2.1229
-2.6063 -3.4551 2.1229
-2.4806 -3.5464 2.1229
-2.3517 -3.6332 2.1229
-2.2197 -3.7152 2.1229
-0.7987 -1.4529 0.8133
-0.7462 -1.4810 0.8135
-0.6928 -1.5072 0.8137
-0.6384 -1.5314 0.8138
-0.5831 -1.5537 0.8140
-0.5271 -1.5739 0.8142
-0.4703 -1.5921 0.8143
-0.4129 -1.6081 0.8144
-0.3550 -1.6221 0.8145
-0.2965 -1.6340 0.8146
-0.2377 -1.6437 0.8147
-0.1786 -1.6513 0.8147
-0.1192 -1.6568 0.8148
-0.0596 -1.6600 0.8148
0.0000 -1.5693 0.8141
0.0563 -1.5682 0.8141
0.1126 -1.5652 0.8141
0.1687 -1.5600 0.8140
0.2246 -1.5529 0.8140
0.2801 -1.5437 0.8139
0.3353 -1.5325 0.8138
0.3901 -1.5192 0.8137
0.4443 -1.5040 0.8136
0.4979 -1.4869 0.8135
0.5509 -1.4678 0.8133
0.6031 -1.4468 0.8132
0.6545 -1.4239 0.8130
0.7050 -1.3991 0.8128
0.7546 -1.3726 0.8126
0.8032 -1.3443 0.8124
2.3832 -3.6819 2.2753
2.5139 -3.5940 2.2753
2.6412 -3.5014 2.2753
2.7652 -3.4043 2.2753
2.8021 -3.2073 2.2095
2.8063 -2.9884 2.1267
2.9065 -2.8806 2.1229
3.0083 -2.7746 2.1231
3.1063 -2.6651 2.1233
3.2004 -2.5522 2.1236
3.2904 -2.4360 2.1239
3.3761 -2.3166 2.1241
3.4574 -2.1942 2.1243
3.5343 -2.0689 2.1246
3.6067 -1.9408 2.1248
3.6743 -1.8103 2.1250
3.7373 -1.6774 2.1251
3.7954 -1.5422 2.1253
3.8485 -1.4051 2.1254
3.8967 -1.2661 2.1256
3.9399 -1.1255 2.1257
3.9779 -0.9834 2.1258
4.0108 -0.8400 2.1259
4.0386 -0.6955 2.1260
4.0611 -0.5501 2.1260
4.0783 -0.4040 2.1261
4.0902 -0.2573 2.1261
4.0969 -0.1103 2.1261
4.0920 0.0367 2.1229
4.0880 0.1836 2.1229
4.0788 0.3302 2.1229
4.0643 0.4764 2.1229
4.0446 0.6220 2.1229
4.0196 0.7668 2.1229
3.9895 0.9106 2.1229
3.9543 1.0532 2.1229
3.9139 1.1945 2.1229
3.8685 1.3342 2.1229
3.8181 1.4722 2.1229
3.7628 1.6083 2.1229
3.7027 1.7423 2.1229
3.6377 1.8741 2.1229
3.5681 2.0035 2.1229
3.4939 2.1303 2.1229
3.4152 2.2543 2.1229
3.3321 2.3755 2.1229
3.2446 2.4935 2.1229
3.1530 2.6084 2.1229
3.0574 2.7199 2.1229
2.9578 2.8279 2.1229
2.8543 2.9323 2.1229
2.7472 3.0328 2.1229
2.7171 3.2250 2.1877
2.7026 3.4521 2.2744
2.5780 3.5483 2.2753
2.4489 3.6385 2.2753
0.8067 1.2968 0.7923
0.7595 1.3245 0.7921
0.7112 1.3506 0.7919
0.6621 1.3750 0.7917
0.6122 1.3975 0.7915
0.5616 1.4183 0.7914
0.5102 1.4373 0.7912
0.4582 1.4545 0.7911
0.4056 1.4698 0.7910
0.3526 1.4832 0.7909
0.2991 1.4947 0.7908
0.2452 1.5044 0.7907
0.1910 1.5121 0.7907
0.1366 1.5179 0.7906
0.0820 1.5218 0.7906
0.0274 1.5237 0.7906
-0.0274 1.5237 0.7906
-0.0820 1.5218 0.7906
-0.1366 1.5179 0.7907
-0.1910 1.5121 0.7907
-0.2452 1.5044 0.7908
-0.2991 1.4948 0.7908
-0.3526 1.4833 0.7909
-0.4057 1.4698 0.7910
-0.4582 1.4545 0.7911
-0.5102 1.4374 0.7913
-0.5616 1.4184 0.7914
-0.6123 1.3976 0.7916
-0.6622 1.3751 0.7918
-0.7113 1.3507 0.7919
-0.7595 1.3247 0.7921
-0.8068 1.2969 0.7924
-2.4489 3.6385 2.2753
-2.5780 3.5483 2.2753
-2.7037 3.4534 2.2753
-2.8259 3.3542 2.2753
-2.9445 3.2506 2.2753
-3.0593 3.1428 2.2753
-3.1701 3.0309 2.2753
-3.2768 2.9152 2.2753
-3.3794 2.7957 2.2753
-3.4776 2.6726 2.2753
-3.5712 2.5460 2.2753
-3.6603 2.4162 2.2753
-3.7447 2.2832 2.2753
-3.8243 2.1473 2.2753
-3.8989 2.0087 2.2753
-3.9685 1.8674 2.2753
-4.0329 1.7238 2.2753
-4.0922 1.5779 2.2753
-4.1462 1.4300 2.2753
-4.1949 1.2802 2.2753
-4.2381 1.1288 2.2753
-4.2759 0.9760 2.2753
-4.3082 0.8218 2.2753
-4.3349 0.6667 2.2753
-4.3561 0.5106 2.2753
-4.3716 0.3539 2.2753
-4.3815 0.1968 2.2753
-4.3857 0.0394 2.2753
-4.3843 -0.1181 2.2753
-4.3772 -0.2754 2.2753
-4.3645 -0.4323 2.2753
-4.3462 -0.5887 2.2753
-4.3223 -0.7444 2.2753
-4.2928 -0.8990 2.2753
-4.2577 -1.0526 2.2753
-4.2172 -1.2047 2.2753
-4.1712 -1.3553 2.2753
-4.1199 -1.5042 2.2753
-4.0632 -1.6511 2.2753
-4.0014 -1.7959 2.2753
-3.9343 -1.9384 2.2753
-3.8622 -2.0783 2.2753
-3.7851 -2.2156 2.2753
-3.7031 -2.3501 2.2753
-3.6164 -2.4815 2.2753
-3.5250 -2.6097 2.2753
-3.1993 -2.5514 2.1229
-3.1057 -2.6646 2.1229
-3.0081 -2.7744 2.1229
-2.9065 -2.8806 2.1229
-2.8012 -2.9830 2.1229
-2.6924 -3.0817 2.1229
-2.5800 -3.1763 2.1229
-2.4643 -3.2669 2.1229
-2.3455 -3.3532 2.1229
-2.2236 -3.4353 2.1229
-0.8032 -1.3444 0.8124
-0.7546 -1.3727 0.8126
-0.7051 -1.3992 0.8128
-0.6545 -1.4240 0.8130
-0.6031 -1.4469 0.8132
-0.5509 -1.4679 0.8134
-0.4979 -1.4870 0.8135
-0.4443 -1.5041 0.8136
-0.3901 -1.5193 0.8137
-0.3353 -1.5325 0.8138
-0.2801 -1.5437 0.8139
-0.2246 -1.5529 0.8140
-0.1687 -1.5601 0.8140
-0.1126 -1.5652 0.8141
-0.0563 -1.5683 0.8141
0.0000 -1.4852 0.8135
0.0533 -1.4843 0.8135
0.1066 -1.4813 0.8134
0.1597 -1.4765 0.8134
0.2125 -1.4697 0.8133
0.2651 -1.4610 0.8133
0.3174 -1.4504 0.8132
0.3692 -1.4379 0.8131
0.4205 -1.4235 0.8130
0.4713 -1.4073 0.8129
0.5214 -1.3892 0.8127
0.5708 -1.3694 0.8126
0.6195 -1.3477 0.8124
0.6673 -1.3243 0.8122
0.7142 -1.2992 0.8120
0.7602 -1.2724 0.8118
0.8052 -1.2440 0.8116
2.3811 -3.4042 2.2753
2.5018 -3.3165 2.2753
2.6192 -3.2246 2.2753
2.7333 -3.1285 2.2753
2.7772 -2.9574 2.2220
2.7785 -2.7536 2.1425
2.8492 -2.6278 2.1229
2.9417 -2.5239 2.1229
3.0308 -2.4170 2.1232
3.1160 -2.3069 2.1234
3.1971 -2.1938 2.1237
3.2741 -2.0778 2.1239
3.3469 -1.9591 2.1241
3.4154 -1.8379 2.1243
3.4795 -1.7143 2.1244
3.5390 -1.5884 2.1246
3.5940 -1.4604 2.1248
3.6444 -1.3306 2.1249
3.6900 -1.1990 2.1250
3.7308 -1.0658 2.1251
3.7669 -0.9312 2.1252
3.7980 -0.7954 2.1253
3.8243 -0.6586 2.1254
3.8456 -0.5209 2.1255
3.8619 -0.3825 2.1255
3.8732 -0.2437 2.1255
3.8795 -0.1045 2.1256
3.8759 0.0348 2.1229
3.8721 0.1739 2.1229
3.8634 0.3128 2.1229
3.8497 0.4513 2.1229
3.8310 0.5892 2.1229
3.8074 0.7263 2.1229
3.7788 0.8625 2.1229
3.7454 0.9976 2.1229
3.7072 1.1314 2.1229
3.6642 1.2637 2.1229
3.6165 1.3944 2.1229
3.5641 1.5234 2.1229
3.5071 1.6503 2.1229
3.4456 1.7751 2.1229
3.3797 1.8977 2.1229
3.3094 2.0178 2.1229
3.2348 2.1353 2.1229
3.1561 2.2500 2.1229
3.0733 2.3619 2.1229
2.9865 2.4707 2.1229
2.8959 2.5763 2.1229
2.8016 2.6786 2.1229
2.7234 2.7977 2.1384
2.7111 2.9929 2.2118
2.6767 3.1770 2.2753
2.5609 3.2711 2.2753
2.4418 3.3609 2.2753
0.8085 1.2012 0.7930
0.7646 1.2291 0.7928
0.7198 1.2554 0.7926
0.6741 1.2802 0.7924
0.6276 1.3033 0.7923
0.5803 1.3247 0.7921
0.5323 1.3444 0.7919
0.4836 1.3624 0.7918
0.4343 1.3787 0.7917
0.3845 1.3932 0.7916
0.3342 1.4059 0.7915
0.2835 1.4169 0.7914
0.2324 1.4260 0.7913
0.1811 1.4333 0.7913
0.1295 1.4388 0.7912
0.0778 1.4425 0.7912
0.0259 1.4444 0.7912
-0.0259 1.4444 0.7912
-0.0778 1.4425 0.7912
-0.1295 1.4389 0.7913
-0.1811 1.4334 0.7913
-0.2324 1.4260 0.7914
-0.2835 1.4169 0.7914
-0.3342 1.4060 0.7915
-0.3845 1.3932 0.7916
-0.4343 1.3787 0.7917
-0.4836 1.3625 0.7918
-0.5323 1.3445 0.7920
-0.5803 1.3247 0.7921
-0.6277 1.3033 0.7923
-0.6742 1.2803 0.7925
-0.7199 1.2555 0.7927
-0.7647 1.2292 0.7929
-0.8085 1.2013 0.7931
-2.4418 3.3609 2.2753
-2.5609 3.2711 2.2753
-2.6766 3.1770 2.2753
-2.7890 3.0789 2.2753
-2.8977 2.9768 2.2753
-3.0027 2.8709 2.2753
-3.1038 2.7612 2.2753
-3.2009 2.6480 2.2753
-3.2939 2.5314 2.2753
-3.3827 2.4116 2.2753
-3.4670 2.2886 2.2753
-3.5470 2.1626 2.2753
-3.6223 2.0339 2.2753
-3.6930 1.9026 2.2753
-3.7589 1.7688 2.2753
-3.8200 1.6327 2.2753
-3.8761 1.4946 2.2753
-3.9273 1.3545 2.2753
-3.9733 1.2126 2.2753
-4.0143 1.0692 2.2753
-4.0501 0.9244 2.2753
-4.0807 0.7784 2.2753
-4.1060 0.6315 2.2753
-4.1260 0.4836 2.2753
