ply
format ascii 1.0
element vertex 2175
property float32 x
property float32 y
property float32 z
end_header
-7.9679 -2.2810 1.8455
-7.8831 -2.5670 1.8452
-7.7884 -2.8500 1.8448
-7.6840 -3.1296 1.8445
-7.5699 -3.4056 1.8441
-7.4462 -3.6776 1.8437
-7.3132 -3.9453 1.8432
-7.1709 -4.2084 1.8428
-7.0195 -4.4665 1.8423
-6.8677 -4.7253 1.8441
-6.8919 -5.1168 1.8969
-6.9293 -5.5420 1.9587
-6.8569 -5.9007 1.9946
-6.6483 -6.1509 1.9946
-6.4309 -6.3940 1.9946
-6.2049 -6.6297 1.9946
-5.9706 -6.8579 1.9946
-5.7283 -7.0780 1.9946
-5.4781 -7.2900 1.9946
-5.2203 -7.4934 1.9946
-4.9552 -7.6881 1.9946
-4.6831 -7.8737 1.9946
-4.4042 -8.0499 1.9946
-4.1189 -8.2167 1.9946
-3.8275 -8.3736 1.9946
-3.5302 -8.5204 1.9946
-3.2275 -8.6571 1.9946
-2.9197 -8.7832 1.9946
-2.6070 -8.8986 1.9946
-2.2899 -9.0031 1.9946
-1.9688 -9.0965 1.9946
-1.6439 -9.1787 1.9946
-1.3157 -9.2495 1.9946
-0.9846 -9.3087 1.9946
-0.6510 -9.3561 1.9946
-0.3153 -9.3918 1.9946
0.0221 -8.4700 1.9946
0.3267 -8.4789 1.9946
0.6319 -8.4769 1.9946
0.9374 -8.4639 1.9946
1.2428 -8.4398 1.9946
1.5476 -8.4048 1.9946
1.7611 -7.9507 1.8973
1.9894 -7.6675 1.8423
2.2681 -7.6076 1.8430
2.5449 -7.5374 1.8437
2.8195 -7.4570 1.8444
3.0916 -7.3664 1.8451
3.3607 -7.2658 1.8458
3.6264 -7.1551 1.8465
3.8884 -7.0346 1.8471
4.1470 -6.9054 1.8481
4.4083 -6.7775 1.8520
4.6768 -6.6555 1.8605
4.9395 -6.5194 1.8679
5.1975 -6.3720 1.8750
5.4403 -6.2019 1.8785
5.6758 -6.0207 1.8814
5.9048 -5.8301 1.8842
6.1267 -5.6303 1.8869
6.3413 -5.4215 1.8895
6.5482 -5.2041 1.8919
3.4248 -2.5271 0.9616
3.5571 -2.4328 0.9725
7.1180 -4.5027 1.8987
7.2898 -4.2537 1.9006
7.4520 -3.9977 1.9025
7.6043 -3.7350 1.9042
7.7462 -3.4661 1.9058
7.8776 -3.1914 1.9072
7.9981 -2.9114 1.9085
8.1076 -2.6264 1.9096
8.2057 -2.3370 1.9106
8.2923 -2.0437 1.9115
8.3672 -1.7469 1.9121
8.4302 -1.4472 1.9126
8.4813 -1.1451 1.9130
8.5202 -0.8410 1.9132
5.7864 -0.3625 1.2953
5.4932 -0.1470 1.2275
5.5618 0.0504 1.2423
8.5536 0.3841 1.9123
8.5312 0.6898 1.9117
8.4967 0.9943 1.9110
8.4501 1.2971 1.9100
8.3915 1.5975 1.9089
8.2971 1.8897 1.9022
8.2180 2.1839 1.9015
8.1261 2.4743 1.9004
8.0230 2.7604 1.8991
7.9089 3.0421 1.8978
7.7841 3.3188 1.8964
7.6546 3.5927 1.8963
7.5060 3.8568 1.8939
7.3492 4.1154 1.8919
7.7815 4.7313 2.0473
7.5941 4.9985 2.0457
7.3970 5.2579 2.0441
7.1903 5.5090 2.0423
6.9743 5.7515 2.0404
6.7462 5.9821 2.0375
6.5162 6.2090 2.0364
6.2780 6.4268 2.0352
6.0322 6.6349 2.0339
5.7792 6.8333 2.0326
5.5193 7.0216 2.0312
5.2530 7.1996 2.0298
4.9807 7.3671 2.0284
4.7029 7.5240 2.0269
4.4200 7.6701 2.0253
4.1325 7.8052 2.0237
3.8408 7.9292 2.0221
3.5453 8.0421 2.0204
3.2477 8.1465 2.0194
2.9475 8.2409 2.0186
2.6446 8.3241 2.0179
2.3394 8.3960 2.0171
2.0325 8.4567 2.0164
1.7242 8.5061 2.0156
1.4149 8.5443 2.0149
1.1051 8.5711 2.0141
0.7951 8.5867 2.0134
0.4855 8.5912 2.0126
0.1765 8.5846 2.0119
-0.1315 8.5669 2.0112
-0.4379 8.5383 2.0104
-0.7425 8.4988 2.0097
-1.0449 8.4486 2.0090
-1.3447 8.3878 2.0083
-1.6416 8.3165 2.0076
-1.9351 8.2349 2.0069
-2.2250 8.1433 2.0062
-2.5109 8.0416 2.0055
-2.7925 7.9301 2.0049
-3.0694 7.8091 2.0042
-3.3414 7.6786 2.0036
-3.6081 7.5390 2.0030
-3.8694 7.3904 2.0024
-4.1247 7.2331 2.0018
-4.3740 7.0673 2.0013
-4.6170 6.8932 2.0007
-4.8533 6.7111 2.0002
-5.0828 6.5212 1.9997
-5.3052 6.3239 1.9992
-5.5204 6.1192 1.9987
-5.7280 5.9076 1.9982
-5.9278 5.6894 1.9978
-6.1198 5.4646 1.9974
-6.3036 5.2338 1.9970
-6.4792 4.9970 1.9966
-6.6463 4.7547 1.9962
-6.8049 4.5071 1.9959
-6.9530 4.2535 1.9951
-7.0932 3.9960 1.9946
-7.2260 3.7349 1.9946
-6.7881 3.2045 1.8422
-6.8937 2.9559 1.8422
-6.9906 2.7040 1.8422
-7.0787 2.4491 1.8422
-7.1580 2.1915 1.8422
-7.2283 1.9314 1.8422
-7.2896 1.6692 1.8422
-7.3528 1.4073 1.8450
-7.3962 1.1414 1.8450
-7.4302 0.8742 1.8450
-7.4550 0.6060 1.8450
-7.4705 0.3372 1.8450
-7.4767 0.0681 1.8449
-7.4735 -0.2010 1.8448
-7.4610 -0.4698 1.8447
-7.4392 -0.7380 1.8446
-7.4081 -1.0054 1.8444
-7.3678 -1.2715 1.8442
-7.3182 -1.5360 1.8440
-7.2596 -1.7987 1.8438
-7.1918 -2.0593 1.8435
-7.1150 -2.3175 1.8432
-7.0293 -2.5729 1.8429
-6.9348 -2.8252 1.8426
-6.8315 -3.0742 1.8422
-6.7209 -3.3203 1.8422
-6.7246 -3.6288 1.8765
-6.7548 -3.9653 1.9220
-6.7861 -4.3193 1.9722
-6.7076 -4.6166 1.9946
-6.5433 -4.8595 1.9946
-6.3706 -5.0968 1.9946
-6.1896 -5.3282 1.9946
-6.0006 -5.5536 1.9946
-5.8036 -5.7724 1.9946
-5.5989 -5.9845 1.9946
-5.3867 -6.1896 1.9946
-5.1673 -6.3875 1.9946
-4.9408 -6.5779 1.9946
-4.7076 -6.7605 1.9946
-4.4678 -6.9351 1.9946
-4.2217 -7.1015 1.9946
-3.9695 -7.2594 1.9946
-3.7117 -7.4085 1.9946
-3.4484 -7.5488 1.9946
-3.1799 -7.6800 1.9946
-2.9065 -7.8018 1.9946
-2.6286 -7.9141 1.9946
-2.3465 -8.0167 1.9946
-2.0605 -8.1095 1.9946
-1.7708 -8.1922 1.9946
-1.4780 -8.2647 1.9946
-1.1823 -8.3269 1.9946
-0.8841 -8.3787 1.9946
-0.5837 -8.4198 1.9946
-0.2815 -8.4503 1.9946
0.0221 -7.6897 1.9946
0.2986 -7.6965 1.9946
0.5756 -7.6935 1.9946
0.8527 -7.6805 1.9946
1.1296 -7.6575 1.9946
1.4060 -7.6245 1.9946
1.6813 -7.5815 1.9946
1.8550 -7.1419 1.8922
2.0576 -6.8951 1.8422
2.3081 -6.8302 1.8429
2.5565 -6.7560 1.8435
2.8024 -6.6727 1.8441
3.0456 -6.5804 1.8448
3.2857 -6.4790 1.8454
3.5223 -6.3686 1.8460
3.7551 -6.2495 1.8465
3.9837 -6.1216 1.8471
4.2081 -5.9857 1.8478
4.4294 -5.8436 1.8492
4.6602 -5.7108 1.8563
4.8854 -5.5669 1.8628
5.1048 -5.4128 1.8689
5.3193 -5.2500 1.8749
5.5206 -5.0714 1.8783
5.7125 -4.8821 1.8807
3.3855 -2.6897 1.0809
3.4011 -2.5087 1.0554
3.5217 -2.4078 1.0642
6.4060 -4.0509 1.8889
6.5592 -3.8261 1.8906
6.7038 -3.5951 1.8923
6.8395 -3.3583 1.8938
6.9660 -3.1160 1.8952
7.0830 -2.8686 1.8965
7.1904 -2.6165 1.8976
7.2878 -2.3601 1.8986
7.3752 -2.0998 1.8995
7.4523 -1.8361 1.9002
7.5190 -1.5693 1.9008
7.5751 -1.3000 1.9013
7.6205 -1.0285 1.9016
7.6552 -0.7553 1.9018
5.5797 -0.3494 1.3819
5.4155 -0.1448 1.3389
5.4367 0.0493 1.3436
7.6851 0.3450 1.9010
7.6653 0.6197 1.9005
7.6347 0.8933 1.8998
7.5934 1.1653 1.8990
7.5413 1.4354 1.8980
7.4787 1.7029 1.8969
7.3978 1.9655 1.8937
7.3339 2.2325 1.8973
7.2387 2.4900 1.8954
7.1327 2.7428 1.8932
7.0191 2.9918 1.8913
6.8976 3.2366 1.8898
6.7657 3.4755 1.8879
6.6262 3.7095 1.8862
6.4788 3.9381 1.8847
6.3243 4.1615 1.8836
6.6754 4.7435 2.0393
6.4899 4.9709 2.0377
6.2954 5.1899 2.0357
6.0900 5.3984 2.0327
5.8834 5.6042 2.0317
5.6695 5.8017 2.0306
5.4485 5.9906 2.0295
5.2210 6.1709 2.0283
4.9873 6.3421 2.0271
4.7477 6.5042 2.0258
4.5026 6.6569 2.0245
4.2525 6.8001 2.0231
3.9977 6.9336 2.0217
3.7394 7.0588 2.0207
3.4777 7.1755 2.0201
3.2125 7.2824 2.0194
2.9439 7.3793 2.0188
2.6724 7.4662 2.0181
2.3985 7.5429 2.0174
2.1224 7.6095 2.0168
1.8445 7.6660 2.0161
1.5654 7.7123 2.0154
1.2852 7.7483 2.0147
1.0044 7.7742 2.0140
0.7234 7.7898 2.0134
0.4426 7.7954 2.0127
0.1622 7.7908 2.0120
-0.1173 7.7763 2.0113
-0.3955 7.7518 2.0107
-0.6722 7.7174 2.0100
-0.9470 7.6732 2.0094
-1.2195 7.6194 2.0087
-1.4894 7.5561 2.0081
-1.7564 7.4833 2.0075
-2.0202 7.4013 2.0068
-2.2805 7.3102 2.0062
-2.5369 7.2102 2.0056
-2.7892 7.1014 2.0051
-3.0370 6.9839 2.0045
-3.2802 6.8581 2.0039
-3.5184 6.7240 2.0034
-3.7514 6.5820 2.0028
-3.9788 6.4321 2.0023
-4.2006 6.2746 2.0018
-4.4164 6.1098 2.0013
-4.6260 5.9378 2.0009
-4.8292 5.7589 2.0004
-5.0258 5.5733 2.0000
-5.2155 5.3813 1.9995
-5.3983 5.1831 1.9991
-5.5738 4.9790 1.9988
-5.7420 4.7692 1.9984
-5.9026 4.5540 1.9981
-6.0556 4.3336 1.9977
-6.1944 4.1042 1.9954
-6.3309 3.8742 1.9950
-6.4597 3.6402 1.9946
-6.5811 3.4027 1.9946
-6.5637 3.0995 1.9557
-6.3621 2.7288 1.8665
-6.3681 2.4640 1.8422
-6.4487 2.2318 1.8422
-6.5213 1.9972 1.8422
-6.5856 1.7602 1.8422
-6.6418 1.5213 1.8422
-6.6931 1.2814 1.8432
-6.7328 1.0393 1.8432
-6.7640 0.7961 1.8432
-6.7867 0.5519 1.8432
-6.8009 0.3072 1.8432
-6.8066 0.0621 1.8431
-6.8038 -0.1830 1.8430
-6.7924 -0.4278 1.8429
-6.7726 -0.6720 1.8428
-6.7443 -0.9154 1.8427
-6.7075 -1.1577 1.8425
-6.6623 -1.3986 1.8423
-6.6093 -1.6380 1.8422
-6.5483 -1.8755 1.8422
-6.5552 -2.1356 1.8639
-6.5811 -2.4094 1.8938
-6.6075 -2.6926 1.9271
-6.6344 -2.9863 1.9639
-6.6287 -3.2756 1.9946
-6.5109 -3.5144 1.9946
-6.3848 -3.7491 1.9946
-6.2505 -3.9796 1.9946
-6.1083 -4.2054 1.9946
-5.9582 -4.4263 1.9946
-5.8004 -4.6421 1.9946
-5.6350 -4.8524 1.9946
-5.4623 -5.0571 1.9946
-5.2824 -5.2559 1.9946
-5.0956 -5.4485 1.9946
-4.9019 -5.6347 1.9946
-4.7016 -5.8142 1.9946
-4.4950 -5.9868 1.9946
-4.2821 -6.1523 1.9946
-4.0634 -6.3104 1.9946
-3.8390 -6.4610 1.9946
-3.6092 -6.6039 1.9946
-3.3741 -6.7387 1.9946
-3.1342 -6.8654 1.9946
-2.8896 -6.9838 1.9946
-2.6407 -7.0935 1.9946
-2.3877 -7.1946 1.9946
-2.1309 -7.2869 1.9946
-1.8706 -7.3701 1.9946
-1.6072 -7.4442 1.9946
-1.3409 -7.5090 1.9946
-1.0720 -7.5644 1.9946
-0.8010 -7.6102 1.9946
-0.5280 -7.6464 1.9946
-0.2536 -7.6730 1.9946
0.0221 -7.0340 1.9946
0.2750 -7.0393 1.9946
0.5283 -7.0356 1.9946
0.7816 -7.0228 1.9946
1.0347 -7.0008 1.9946
1.2871 -6.9698 1.9946
1.5387 -6.9295 1.9946
1.7890 -6.8802 1.9946
1.9324 -6.4696 1.8917
2.1098 -6.2382 1.8422
2.3362 -6.1693 1.8428
2.5605 -6.0923 1.8433
2.7821 -6.0070 1.8439
3.0008 -5.9135 1.8444
3.2162 -5.8120 1.8450
3.4282 -5.7024 1.8455
3.6362 -5.5849 1.8460
3.8401 -5.4597 1.8465
4.0396 -5.3268 1.8470
4.2342 -5.1865 1.8475
4.4252 -5.0405 1.8485
4.6151 -4.8916 1.8512
4.8088 -4.7443 1.8573
4.9954 -4.5871 1.8626
5.1754 -4.4214 1.8674
3.3337 -2.6475 1.1667
3.3576 -2.4757 1.1421
3.4436 -2.3536 1.1409
5.8175 -3.6776 1.8808
5.9557 -3.4729 1.8824
6.0860 -3.2627 1.8839
6.2082 -3.0473 1.8852
6.3221 -2.8271 1.8865
6.4275 -2.6023 1.8876
6.5242 -2.3733 1.8887
6.6119 -2.1405 1.8896
6.6905 -1.9043 1.8903
6.7599 -1.6649 1.8910
6.8198 -1.4229 1.8915
6.8703 -1.1786 1.8919
6.9112 -0.9324 1.8922
6.9424 -0.6847 1.8924
5.3851 -0.3371 1.4634
5.4036 -0.1444 1.4659
5.4247 0.0492 1.4710
6.9695 0.3129 1.8917
6.9518 0.5620 1.8912
6.9244 0.8100 1.8906
6.8872 1.0568 1.8898
6.8405 1.3017 1.8890
6.7842 1.5445 1.8880
6.7185 1.7846 1.8869
6.6436 2.0219 1.8856
6.5642 2.2574 1.8856
6.4725 2.4883 1.8846
6.3718 2.7152 1.8834
6.2631 2.9380 1.8822
6.1469 3.1568 1.8813
6.0226 3.3706 1.8803
5.8898 3.5790 1.8790
5.7497 3.7822 1.8778
6.0733 4.3144 2.0344
5.9075 4.5233 2.0336
5.7302 4.7224 2.0313
5.5448 4.9134 2.0287
5.3575 5.1014 2.0278
5.1634 5.2819 2.0268
4.9631 5.4547 2.0258
4.7566 5.6197 2.0247
4.5445 5.7766 2.0236
4.3270 5.9252 2.0225
4.1055 6.0670 2.0218
3.8795 6.2006 2.0212
3.6490 6.3256 2.0207
3.4145 6.4419 2.0201
3.1762 6.5494 2.0195
2.9345 6.6479 2.0189
2.6897 6.7374 2.0183
2.4422 6.8177 2.0177
2.1924 6.8889 2.0171
1.9406 6.9509 2.0164
1.6870 7.0035 2.0158
1.4322 7.0469 2.0152
1.1764 7.0810 2.0146
0.9200 7.1057 2.0140
0.6632 7.1212 2.0133
0.4065 7.1274 2.0127
0.1502 7.1244 2.0121
-0.1053 7.1122 2.0115
-0.3599 7.0909 2.0109
-0.6131 7.0606 2.0103
-0.8646 7.0213 2.0097
-1.1142 6.9732 2.0091
-1.3614 6.9163 2.0085
-1.6061 6.8508 2.0079
-1.8478 6.7767 2.0074
-2.0864 6.6943 2.0068
-2.3216 6.6037 2.0063
-2.5530 6.5049 2.0057
-2.7805 6.3983 2.0052
-3.0037 6.2839 2.0047
-3.2223 6.1619 2.0042
-3.4363 6.0325 2.0037
-3.6453 5.8959 2.0032
-3.8490 5.7523 2.0028
-4.0474 5.6019 2.0023
-4.2401 5.4449 2.0019
-4.4269 5.2815 2.0015
-4.6077 5.1118 2.0011
-4.7823 4.9363 2.0007
-4.9505 4.7550 2.0003
-5.1121 4.5682 2.0000
-5.2669 4.3762 1.9996
-5.4094 4.1749 1.9973
-5.5468 3.9708 1.9958
-5.6791 3.7640 1.9951
-5.8054 3.5539 1.9949
-5.9242 3.3396 1.9947
-6.0358 3.1217 1.9946
-6.1399 2.9004 1.9946
-6.2363 2.6757 1.9946
-6.2169 2.4063 1.9606
-6.1583 2.1320 1.9178
-6.1311 1.8783 1.8880
-6.1299 1.6389 1.8691
-6.1486 1.4088 1.8589
-6.1780 1.1832 1.8543
-6.2063 0.9584 1.8519
-6.2328 0.7338 1.8512
-6.2576 0.5091 1.8522
-6.2806 0.2838 1.8551
-6.3037 0.0576 1.8603
-6.3284 -0.1701 1.8683
-6.3529 -0.4001 1.8785
-6.3774 -0.6329 1.8912
-6.4017 -0.8691 1.9062
-6.4261 -1.1094 1.9238
-6.4505 -1.3545 1.9441
-6.4750 -1.6051 1.9671
-6.4997 -1.8620 1.9930
-6.4360 -2.0973 1.9946
-6.3590 -2.3287 1.9946
-6.2740 -2.5574 1.9946
-6.1811 -2.7830 1.9946
-6.0804 -3.0054 1.9946
-5.9720 -3.2244 1.9946
-5.8559 -3.4396 1.9946
-5.7324 -3.6508 1.9946
-5.6016 -3.8577 1.9946
-5.4635 -4.0601 1.9946
-5.3184 -4.2577 1.9946
-5.1664 -4.4503 1.9946
-5.0076 -4.6377 1.9946
-4.8422 -4.8196 1.9946
-4.6704 -4.9958 1.9946
-4.4924 -5.1661 1.9946
-4.3084 -5.3301 1.9946
-4.1186 -5.4879 1.9946
-3.9231 -5.6390 1.9946
-3.7223 -5.7834 1.9946
-3.5162 -5.9208 1.9946
-3.3052 -6.0511 1.9946
-3.0895 -6.1740 1.9946
-2.8694 -6.2893 1.9946
-2.6450 -6.3970 1.9946
-2.4167 -6.4968 1.9946
-2.1847 -6.5886 1.9946
-1.9493 -6.6723 1.9946
-1.7108 -6.7477 1.9946
-1.4694 -6.8147 1.9946
-1.2255 -6.8731 1.9946
-0.9793 -6.9229 1.9946
-0.7311 -6.9640 1.9946
-0.4813 -6.9963 1.9946
-0.2301 -7.0196 1.9946
0.0221 -6.4748 1.9946
0.2548 -6.4790 1.9946
0.4879 -6.4748 1.9946
0.7210 -6.4623 1.9946
0.9538 -6.4414 1.9946
1.1859 -6.4121 1.9946
1.4172 -6.3744 1.9946
1.6472 -6.3283 1.9946
1.8758 -6.2738 1.9946
1.9973 -5.9004 1.8949
2.1492 -5.6710 1.8422
2.3548 -5.5990 1.8426
2.5581 -5.5199 1.8431
2.7588 -5.4333 1.8437
2.9563 -5.3393 1.8441
3.1506 -5.2379 1.8446
3.3413 -5.1294 1.8451
3.5282 -5.0138 1.8456
3.7109 -4.8912 1.8460
3.8892 -4.7618 1.8464
4.0628 -4.6257 1.8469
4.2315 -4.4832 1.8473
4.3953 -4.3346 1.8478
4.5548 -4.1810 1.8487
4.7117 -4.0238 1.8508
3.3218 -2.6371 1.2657
3.3458 -2.4662 1.2393
3.4252 -2.3402 1.2357
3.7445 -2.3663 1.3183
5.4346 -3.1680 1.8707
5.5582 -2.9788 1.8739
5.6741 -2.7843 1.8768
5.7801 -2.5839 1.8788
5.8769 -2.3786 1.8802
5.9647 -2.1691 1.8811
6.0443 -1.9562 1.8819
6.1157 -1.7401 1.8827
6.1787 -1.5213 1.8832
6.2332 -1.3001 1.8837
6.2790 -1.0768 1.8841
6.3161 -0.8518 1.8843
6.3445 -0.6255 1.8845
5.3706 -0.3360 1.5903
5.3916 -0.1440 1.5938
5.4126 0.0492 1.5994
6.3692 0.2860 1.8839
6.3532 0.5135 1.8834
6.3283 0.7402 1.8828
6.2926 0.9653 1.8815
6.2469 1.1885 1.8797
6.1902 1.4089 1.8771
6.1245 1.6265 1.8742
6.0504 1.8409 1.8711
5.9839 2.0573 1.8729
5.9043 2.2693 1.8730
5.8165 2.4779 1.8730
5.7203 2.6827 1.8728
5.6160 2.8833 1.8724
5.5044 3.0797 1.8719
5.3853 3.2715 1.8714
5.2590 3.4584 1.8707
5.1263 3.6405 1.8701
5.4106 4.1415 2.0283
5.2523 4.3272 2.0275
5.0841 4.5036 2.0253
4.9130 4.6764 2.0245
4.7357 4.8425 2.0236
4.5534 5.0026 2.0231
4.3657 5.1558 2.0226
4.1728 5.3019 2.0221
3.9747 5.4405 2.0216
3.7720 5.5716 2.0211
3.5649 5.6950 2.0206
3.3536 5.8105 2.0201
3.1386 5.9180 2.0195
2.9200 6.0175 2.0190
2.6983 6.1088 2.0184
2.4737 6.1919 2.0179
2.2466 6.2665 2.0173
2.0172 6.3328 2.0167
1.7859 6.3906 2.0162
1.5530 6.4399 2.0156
1.3189 6.4806 2.0150
1.0838 6.5128 2.0145
0.8480 6.5365 2.0139
0.6120 6.5516 2.0133
0.3759 6.5583 2.0128
0.1400 6.5564 2.0122
-0.0952 6.5460 2.0116
-0.3295 6.5273 2.0111
-0.5627 6.5003 2.0105
-0.7943 6.4650 2.0100
-1.0242 6.4215 2.0094
-1.2521 6.3700 2.0089
-1.4776 6.3105 2.0084
-1.7005 6.2431 2.0078
-1.9206 6.1680 2.0073
-2.1375 6.0852 2.0068
-2.3511 5.9950 2.0063
-2.5610 5.8974 2.0058
-2.7671 5.7927 2.0054
-2.9690 5.6809 2.0049
-3.1666 5.5623 2.0044
-3.3597 5.4369 2.0040
-3.5480 5.3051 2.0036
-3.7313 5.1669 2.0032
-3.9095 5.0226 2.0028
-4.0822 4.8724 2.0024
-4.2495 4.7164 2.0020
-4.4110 4.5548 2.0016
-4.5665 4.3880 2.0013
-4.7132 4.2134 1.9998
-4.8512 4.0323 1.9973
-4.9858 3.8493 1.9961
-5.1146 3.6627 1.9953
-5.2383 3.4731 1.9952
-5.3548 3.2791 1.9948
-5.4649 3.0817 1.9947
-5.5682 2.8808 1.9946
-5.6646 2.6767 1.9946
-5.7537 2.4695 1.9946
-5.8356 2.2594 1.9946
-5.9101 2.0467 1.9946
-5.9771 1.8317 1.9946
-6.0365 1.6145 1.9946
-6.0884 1.3955 1.9946
-6.1327 1.1749 1.9946
-6.1692 0.9530 1.9946
-6.1980 0.7300 1.9946
-6.2191 0.5062 1.9946
-6.2324 0.2818 1.9946
-6.2379 0.0571 1.9946
-6.2357 -0.1676 1.9946
-6.2256 -0.3921 1.9946
-6.2078 -0.6162 1.9946
-6.1822 -0.8395 1.9946
-6.1489 -1.0618 1.9946
-6.1079 -1.2828 1.9946
-6.0592 -1.5024 1.9946
-6.0030 -1.7201 1.9946
-5.9392 -1.9359 1.9946
-5.8679 -2.1494 1.9946
-5.7893 -2.3604 1.9946
-5.7033 -2.5686 1.9946
-5.6101 -2.7738 1.9946
-5.5098 -2.9757 1.9946
-5.4025 -3.1742 1.9946
-5.2882 -3.3689 1.9946
-5.1672 -3.5596 1.9946
-5.0395 -3.7462 1.9946
-4.9053 -3.9283 1.9946
-4.7647 -4.1058 1.9946
-4.6179 -4.2783 1.9946
-4.4650 -4.4458 1.9946
-4.3062 -4.6080 1.9946
-4.1418 -4.7647 1.9946
-3.9717 -4.9157 1.9946
-3.7963 -5.0607 1.9946
-3.6158 -5.1997 1.9946
-3.4303 -5.3323 1.9946
-3.2400 -5.4586 1.9946
-3.0452 -5.5781 1.9946
-2.8461 -5.6909 1.9946
-2.6429 -5.7967 1.9946
-2.4359 -5.8953 1.9946
-2.2253 -5.9867 1.9946
-2.0113 -6.0707 1.9946
-1.7942 -6.1472 1.9946
-1.5743 -6.2160 1.9946
-1.3517 -6.2770 1.9946
-1.1269 -6.3302 1.9946
-0.9001 -6.3754 1.9946
-0.6715 -6.4125 1.9946
-0.4414 -6.4415 1.9946
-0.2101 -6.4623 1.9946
0.0221 -5.9918 1.9946
0.2375 -5.9951 1.9946
0.4531 -5.9907 1.9946
0.6687 -5.9785 1.9946
0.8839 -5.9586 1.9946
1.0986 -5.9309 1.9946
1.3124 -5.8954 1.9946
1.5250 -5.8522 1.9946
1.7362 -5.8014 1.9946
1.9456 -5.7428 1.9946
2.0523 -5.4111 1.9014
2.1780 -5.1748 1.8422
2.3654 -5.1005 1.8425
2.5504 -5.0199 1.8430
2.7327 -4.9325 1.8434
2.9119 -4.8383 1.8439
3.0877 -4.7376 1.8443
3.2599 -4.6303 1.8447
3.4283 -4.5166 1.8451
3.5926 -4.3967 1.8455
3.7526 -4.2707 1.8459
3.9080 -4.1387 1.8463
4.0585 -4.0009 1.8467
4.2040 -3.8575 1.8470
4.3443 -3.7087 1.8473
3.3099 -2.6267 1.3653
3.3341 -2.4566 1.3370
3.4085 -2.3280 1.3314
3.7202 -2.3501 1.4183
4.9781 -2.9009 1.8557
5.0903 -2.7271 1.8585
5.1955 -2.5486 1.8612
5.2934 -2.3655 1.8636
5.3837 -2.1783 1.8656
5.4664 -1.9873 1.8674
5.5413 -1.7928 1.8689
5.6084 -1.5952 1.8702
5.6673 -1.3949 1.8713
5.7182 -1.1923 1.8721
5.7607 -0.9876 1.8727
5.7948 -0.7812 1.8730
5.8203 -0.5736 1.8730
5.3586 -0.3351 1.7192
5.3795 -0.1436 1.7229
5.4004 0.0491 1.7289
5.8367 0.2620 1.8704
5.8195 0.4703 1.8691
5.7938 0.6775 1.8676
5.7597 0.8834 1.8659
5.7172 1.0875 1.8638
5.6660 1.2893 1.8614
5.6068 1.4886 1.8588
5.5595 1.6911 1.8626
5.4946 1.8886 1.8630
5.4222 2.0834 1.8633
5.3422 2.2753 1.8635
5.2550 2.4638 1.8636
5.1606 2.6487 1.8635
5.0593 2.8299 1.8635
4.9512 3.0069 1.8633
4.8363 3.1794 1.8630
4.7155 3.3477 1.8628
4.9815 3.8118 2.0220
4.8369 3.9836 2.0216
4.6905 4.1535 2.0230
4.5354 4.3155 2.0232
4.3731 4.4700 2.0228
4.2053 4.6184 2.0223
4.0324 4.7602 2.0219
3.8546 4.8955 2.0214
3.6721 5.0240 2.0210
3.4853 5.1456 2.0205
3.2943 5.2601 2.0200
3.0995 5.3673 2.0195
2.9012 5.4672 2.0190
2.6996 5.5598 2.0185
2.4950 5.6447 2.0180
2.2877 5.7221 2.0175
2.0780 5.7917 2.0170
1.8662 5.8537 2.0165
1.6527 5.9078 2.0160
1.4375 5.9540 2.0154
1.2212 5.9924 2.0149
1.0039 6.0229 2.0144
0.7860 6.0455 2.0138
0.5677 6.0602 2.0133
0.3494 6.0670 2.0128
0.1312 6.0660 2.0123
-0.0864 6.0572 2.0117
-0.3033 6.0405 2.0112
-0.5191 6.0162 2.0107
-0.7336 5.9843 2.0102
-0.9465 5.9447 2.0097
-1.1576 5.8977 2.0092
-1.3665 5.8432 2.0087
-1.5731 5.7815 2.0082
-1.7771 5.7126 2.0077
-1.9783 5.6365 2.0073
-2.1763 5.5536 2.0068
-2.3710 5.4638 2.0064
-2.5622 5.3673 2.0059
-2.7496 5.2642 2.0055
-2.9330 5.1548 2.0051
-3.1122 5.0392 2.0047
-3.2871 4.9175 2.0043
-3.4573 4.7898 2.0039
-3.6228 4.6565 2.0035
-3.7833 4.5176 2.0032
-3.9387 4.3733 2.0028
-4.0869 4.2219 2.0016
-4.2259 4.0622 1.9986
-4.3613 3.9003 1.9968
-4.4941 3.7369 1.9964
-4.6197 3.5680 1.9955
-4.7409 3.3964 1.9954
-4.8552 3.2202 1.9949
-4.9637 3.0407 1.9947
-5.0663 2.8579 1.9946
-5.1625 2.6718 1.9946
-5.2521 2.4826 1.9946
-5.3350 2.2905 1.9946
-5.4111 2.0957 1.9946
-5.4803 1.8985 1.9946
-5.5427 1.6991 1.9946
-5.5980 1.4977 1.9946
-5.6463 1.2946 1.9946
-5.6874 1.0900 1.9946
-5.7214 0.8841 1.9946
-5.7483 0.6773 1.9946
-5.7679 0.4696 1.9946
-5.7803 0.2615 1.9946
-5.7854 0.0531 1.9946
-5.7834 -0.1554 1.9946
-5.7740 -0.3637 1.9946
-5.7575 -0.5715 1.9946
-5.7337 -0.7787 1.9946
-5.7027 -0.9850 1.9946
-5.6646 -1.1900 1.9946
-5.6194 -1.3937 1.9946
-5.5671 -1.5957 1.9946
-5.5078 -1.7958 1.9946
-5.4416 -1.9937 1.9946
-5.3685 -2.1894 1.9946
-5.2885 -2.3825 1.9946
-5.2019 -2.5727 1.9946
-5.1087 -2.7599 1.9946
-5.0089 -2.9438 1.9946
-4.9027 -3.1243 1.9946
-4.7903 -3.3010 1.9946
-4.6716 -3.4739 1.9946
-4.5469 -3.6425 1.9946
-4.4163 -3.8069 1.9946
-4.2799 -3.9666 1.9946
-4.1379 -4.1217 1.9946
-3.9905 -4.2718 1.9946
-3.8377 -4.4168 1.9946
-3.6799 -4.5564 1.9946
-3.5170 -4.6905 1.9946
-3.3494 -4.8189 1.9946
-3.1773 -4.9415 1.9946
-3.0007 -5.0581 1.9946
-2.8200 -5.1685 1.9946
-2.6353 -5.2725 1.9946
-2.4468 -5.3701 1.9946
-2.2549 -5.4611 1.9946
-2.0596 -5.5453 1.9946
-1.8612 -5.6226 1.9946
-1.6600 -5.6929 1.9946
-1.4562 -5.7561 1.9946
-1.2500 -5.8121 1.9946
-1.0417 -5.8608 1.9946
-0.8316 -5.9021 1.9946
-0.6199 -5.9359 1.9946
-0.4069 -5.9621 1.9946
-0.1928 -5.9808 1.9946
0.0221 -5.5700 1.9946
0.2223 -5.5726 1.9946
0.4227 -5.5681 1.9946
0.6230 -5.5563 1.9946
0.8230 -5.5373 1.9946
1.0224 -5.5111 1.9946
1.2210 -5.4776 1.9946
1.4184 -5.4371 1.9946
1.6145 -5.3893 1.9946
1.8089 -5.3345 1.9946
2.0014 -5.2726 1.9946
2.0996 -4.9849 1.9108
2.1978 -4.7360 1.8422
2.3691 -4.6600 1.8424
2.5380 -4.5784 1.8428
2.7041 -4.4906 1.8432
2.8670 -4.3966 1.8436
3.0266 -4.2967 1.8440
3.1826 -4.1908 1.8444
3.3347 -4.0792 1.8448
3.4828 -3.9620 1.8451
3.6267 -3.8392 1.8455
3.7660 -3.7111 1.8458
3.9007 -3.5778 1.8461
4.0305 -3.4395 1.8464
3.2979 -2.6162 1.4657
3.3222 -2.4470 1.4354
3.3918 -2.3157 1.4276
3.6959 -2.3340 1.5184
4.6000 -2.6797 1.8479
4.6975 -2.5158 1.8484
4.7888 -2.3482 1.8489
4.8737 -2.1773 1.8493
4.9550 -2.0041 1.8507
5.0318 -1.8286 1.8528
5.1013 -1.6499 1.8546
5.1631 -1.4681 1.8560
5.2172 -1.2837 1.8570
5.2637 -1.0971 1.8578
5.3025 -0.9087 1.8583
5.3337 -0.7188 1.8586
5.3571 -0.5278 1.8586
5.3464 -0.3342 1.8493
5.3673 -0.1432 1.8533
5.3804 0.0490 1.8571
5.3724 0.2412 1.8561
5.3560 0.4328 1.8547
5.3315 0.6234 1.8529
5.2992 0.8126 1.8508
5.2618 1.0006 1.8493
5.2224 1.1881 1.8496
5.1797 1.3749 1.8512
5.1292 1.5598 1.8525
5.0733 1.7433 1.8543
5.0079 1.9237 1.8551
4.9370 2.1021 1.8563
4.8594 2.2777 1.8575
4.7725 2.4488 1.8576
4.6791 2.6165 1.8575
4.5794 2.7803 1.8574
4.4735 2.9400 1.8571
4.3622 3.0959 1.8570
4.6080 3.5248 2.0155
4.4753 3.6845 2.0154
4.3383 3.8403 2.0159
4.2001 3.9950 2.0185
4.0561 4.1445 2.0211
3.9027 4.2843 2.0217
3.7426 4.4163 2.0213
3.5779 4.5421 2.0208
3.4089 4.6618 2.0204
3.2358 4.7750 2.0200
3.0589 4.8816 2.0195
2.8784 4.9816 2.0191
2.6945 5.0749 2.0186
2.5076 5.1612 2.0181
2.3179 5.2406 2.0177
0.8184 2.0455 0.7766
0.7443 2.0727 0.7772
0.6693 2.0973 0.7779
1.5365 5.4870 2.0158
1.3369 5.5305 2.0153
1.1360 5.5667 2.0148
0.9343 5.5956 2.0143
0.7319 5.6172 2.0138
0.5291 5.6314 2.0133
0.3263 5.6383 2.0128
0.1235 5.6380 2.0123
-0.0787 5.6303 2.0118
-0.2804 5.6155 2.0114
-0.4810 5.5934 2.0109
-0.6805 5.5643 2.0104
-0.8786 5.5280 2.0099
-1.0750 5.4849 2.0095
-1.2695 5.4348 2.0090
-1.4618 5.3779 2.0086
-0.6519 2.0975 0.7926
-0.7269 2.0729 0.7936
-0.8010 2.0457 0.7947
-2.2048 5.0843 2.0068
-2.3829 4.9949 2.0064
-2.5575 4.8995 2.0060
-2.7285 4.7981 2.0056
-2.8955 4.6908 2.0053
-3.0585 4.5779 2.0049
-3.2173 4.4595 2.0045
-3.3716 4.3357 2.0042
-3.5193 4.2042 2.0027
-3.6594 4.0649 1.9997
-3.7963 3.9233 1.9979
-3.9297 3.7790 1.9970
-4.0573 3.6299 1.9959
-4.1815 3.4783 1.9957
-4.2994 3.3219 1.9952
-4.4125 3.1622 1.9950
-4.5194 2.9986 1.9947
-4.6210 2.8318 1.9946
-4.7169 2.6617 1.9946
-4.8067 2.4885 1.9946
-4.8903 2.3124 1.9946
-4.9677 2.1335 1.9946
-5.0388 1.9522 1.9946
-5.1035 1.7686 1.9946
-5.1617 1.5828 1.9946
-5.2133 1.3953 1.9946
-5.2584 1.2061 1.9946
-5.2969 1.0155 1.9946
-5.3286 0.8237 1.9946
-5.3537 0.6311 1.9946
-5.3721 0.4376 1.9946
-5.3836 0.2437 1.9946
-5.3885 0.0497 1.9946
-5.3865 -0.1446 1.9946
-5.3778 -0.3388 1.9946
-5.3624 -0.5324 1.9946
-5.3402 -0.7254 1.9946
-5.3113 -0.9175 1.9946
-5.2758 -1.1086 1.9946
-5.2336 -1.2983 1.9946
-5.1848 -1.4864 1.9946
-5.1294 -1.6728 1.9946
-5.0676 -1.8572 1.9946
-4.9993 -2.0394 1.9946
-4.9248 -2.2192 1.9946
-4.8439 -2.3963 1.9946
-4.7569 -2.5706 1.9946
-4.6638 -2.7418 1.9946
-4.5647 -2.9098 1.9946
-4.4598 -3.0743 1.9946
-4.3491 -3.2351 1.9946
-4.2328 -3.3920 1.9946
-4.1110 -3.5449 1.9946
-3.9838 -3.6935 1.9946
-3.8513 -3.8377 1.9946
-3.7138 -3.9772 1.9946
-3.5714 -4.1119 1.9946
-3.4242 -4.2417 1.9946
-3.2724 -4.3663 1.9946
-3.1162 -4.4856 1.9946
-2.9558 -4.5994 1.9946
-2.7913 -4.7075 1.9946
-2.6229 -4.8099 1.9946
-2.4508 -4.9064 1.9946
-2.2753 -4.9969 1.9946
-2.0965 -5.0811 1.9946
-1.9146 -5.1591 1.9946
-1.7299 -5.2306 1.9946
-1.5426 -5.2956 1.9946
-1.3529 -5.3540 1.9946
-1.1610 -5.4056 1.9946
-0.9673 -5.4505 1.9946
-0.7718 -5.4884 1.9946
-0.5749 -5.5194 1.9946
-0.3768 -5.5434 1.9946
-0.1777 -5.5603 1.9946
0.0221 -5.1982 1.9946
0.2089 -5.2002 1.9946
0.1623 -2.1296 0.8176
0.2386 -2.1226 0.8167
0.3146 -2.1128 0.8158
0.3902 -2.1002 0.8148
0.4653 -2.0849 0.8139
0.5398 -2.0668 0.8129
0.6135 -2.0460 0.8119
0.6864 -2.0225 0.8109
0.7584 -1.9964 0.8099
0.8294 -1.9677 0.8089
2.1405 -4.6094 1.9229
2.2100 -4.3444 1.8422
2.3669 -4.2671 1.8423
2.5214 -4.1849 1.8426
2.6731 -4.0970 1.8430
2.8215 -4.0036 1.8434
2.9666 -3.9046 1.8437
3.1082 -3.8003 1.8441
3.2459 -3.6908 1.8444
3.3797 -3.5762 1.8447
3.5093 -3.4566 1.8450
3.6345 -3.3322 1.8453
3.3077 -2.8215 1.6257
3.2858 -2.6056 1.5668
3.3102 -2.4373 1.5347
3.3750 -2.3034 1.5244
3.6716 -2.3178 1.6187
4.2838 -2.4946 1.8468
4.3736 -2.3415 1.8470
4.4576 -2.1851 1.8472
4.5358 -2.0256 1.8473
4.6081 -1.8632 1.8475
4.6744 -1.6982 1.8476
4.7350 -1.5309 1.8479
4.7892 -1.3613 1.8481
4.8371 -1.1898 1.8483
4.8785 -1.0165 1.8485
4.9133 -0.8417 1.8486
4.9416 -0.6657 1.8486
4.9632 -0.4887 1.8486
4.9781 -0.3110 1.8486
4.9864 -0.1329 1.8485
4.9879 0.0454 1.8484
4.9818 0.2237 1.8479
4.9697 0.4015 1.8476
4.9515 0.5788 1.8474
4.9264 0.7553 1.8472
4.8947 0.9306 1.8469
4.8570 1.1047 1.8467
4.8135 1.2774 1.8469
4.7647 1.4486 1.8474
4.7099 1.6181 1.8480
4.6486 1.7852 1.8485
4.5824 1.9506 1.8495
4.5089 2.1128 1.8500
4.4292 2.2720 1.8504
4.3436 2.4281 1.8507
4.2521 2.5807 1.8509
4.1550 2.7298 1.8511
4.0527 2.8753 1.8514
4.2824 3.2747 2.0100
4.1594 3.4232 2.0099
4.0319 3.5677 2.0102
3.9029 3.7109 2.0125
3.7686 3.8492 2.0147
3.6293 3.9826 2.0168
3.4851 4.1107 2.0190
3.3349 4.2317 2.0203
3.1777 4.3435 2.0199
3.0166 4.4493 2.0195
2.8520 4.5491 2.0191
2.6840 4.6426 2.0187
2.5128 4.7299 2.0182
2.3388 4.8108 2.0178
0.8336 1.8834 0.7778
0.7653 1.9113 0.7783
0.6960 1.9368 0.7789
0.6260 1.9598 0.7795
0.5551 1.9803 0.7801
0.4836 1.9983 0.7807
0.4115 2.0138 0.7814
0.3390 2.0267 0.7821
0.2660 2.0370 0.7829
0.1927 2.0448 0.7836
0.1192 2.0500 0.7844
0.0456 2.0526 0.7852
-0.0281 2.0526 0.7860
-0.1018 2.0500 0.7868
-0.1753 2.0449 0.7877
-0.2486 2.0371 0.7886
-0.3215 2.0268 0.7895
-0.3941 2.0138 0.7904
-0.4662 1.9984 0.7913
-0.5377 1.9804 0.7923
-0.6085 1.9599 0.7932
-0.6786 1.9369 0.7942
-0.7479 1.9115 0.7951
-0.8162 1.8836 0.7961
-2.2244 4.6660 2.0069
-2.3878 4.5772 2.0065
-2.5477 4.4828 2.0061
-2.7040 4.3829 2.0058
-2.8565 4.2777 2.0054
-3.0022 4.1635 2.0032
-3.1430 4.0437 2.0007
-3.2808 3.9211 1.9991
-3.4140 3.7940 1.9975
-3.5447 3.6649 1.9972
-3.6690 3.5297 1.9960
-3.7903 3.3923 1.9959
-3.9054 3.2499 1.9952
-4.0167 3.1046 1.9951
-4.1221 2.9552 1.9948
-4.2227 2.8027 1.9946
-4.3180 2.6470 1.9946
-4.4078 2.4882 1.9946
-4.4919 2.3264 1.9946
-4.5702 2.1618 1.9946
-4.6427 1.9946 1.9946
-4.7093 1.8252 1.9946
-4.7699 1.6535 1.9946
-4.8244 1.4799 1.9946
-4.8728 1.3046 1.9946
-4.9151 1.1277 1.9946
-4.9511 0.9496 1.9946
-4.9809 0.7703 1.9946
-5.0044 0.5901 1.9946
-5.0216 0.4092 1.9946
-5.0325 0.2279 1.9946
-5.0370 0.0463 1.9946
-5.0352 -0.1353 1.9946
-5.0271 -0.3167 1.9946
-5.0127 -0.4978 1.9946
-4.9919 -0.6782 1.9946
-4.9648 -0.8579 1.9946
-4.9315 -1.0365 1.9946
-4.8920 -1.2138 1.9946
-4.8463 -1.3897 1.9946
-4.7945 -1.5640 1.9946
-4.7366 -1.7364 1.9946
-4.6727 -1.9067 1.9946
-4.6028 -2.0747 1.9946
-4.5271 -2.2402 1.9946
-4.4456 -2.4031 1.9946
-4.3585 -2.5631 1.9946
-4.2657 -2.7200 1.9946
-4.1674 -2.8737 1.9946
-4.0638 -3.0239 1.9946
-3.9549 -3.1704 1.9946
-3.8409 -3.3132 1.9946
-3.7218 -3.4519 1.9946
-3.5979 -3.5865 1.9946
-3.4692 -3.7167 1.9946
-3.3360 -3.8424 1.9946
-3.1982 -3.9635 1.9946
-3.0562 -4.0797 1.9946
-2.9101 -4.1909 1.9946
-2.7600 -4.2970 1.9946
-2.6062 -4.3978 1.9946
-2.4487 -4.4932 1.9946
-2.2878 -4.5830 1.9946
-2.1237 -4.6672 1.9946
-0.8113 -1.9679 0.8271
-0.7404 -1.9966 0.8266
-0.6684 -2.0227 0.8260
-0.5954 -2.0461 0.8254
-0.5217 -2.0669 0.8247
-0.4472 -2.0850 0.8240
-0.3721 -2.1003 0.8233
-0.2965 -2.1129 0.8226
-0.2205 -2.1226 0.8218
-0.1441 -2.1296 0.8210
-0.1644 -5.1894 1.9946
0.0091 -1.9967 0.8182
0.0807 -1.9954 0.8174
0.1523 -1.9915 0.8166
0.2237 -1.9849 0.8157
0.2948 -1.9757 0.8149
0.3655 -1.9640 0.8140
0.4357 -1.9497 0.8131
0.5054 -1.9328 0.8122
0.5743 -1.9134 0.8113
0.6425 -1.8914 0.8103
0.7099 -1.8670 0.8094
0.7762 -1.8402 0.8084
2.0789 -4.4736 1.9946
2.1762 -4.2751 1.9376
2.2271 -4.0126 1.8518
2.3596 -3.9141 1.8422
2.5011 -3.8314 1.8425
2.6397 -3.7437 1.8428
2.7752 -3.6509 1.8432
2.9074 -3.5532 1.8435
3.0360 -3.4505 1.8438
3.1608 -3.3432 1.8441
3.2818 -3.2312 1.8444
3.3986 -3.1147 1.8446
3.2584 -2.7783 1.7121
3.2736 -2.5949 1.6689
3.2982 -2.4275 1.6349
3.3681 -2.2979 1.6266
3.6472 -2.3016 1.7193
3.8971 -2.2686 1.7966
4.0880 -2.1879 1.8462
4.1664 -2.0416 1.8463
4.2393 -1.8925 1.8465
4.3067 -1.7408 1.8466
4.3685 -1.5865 1.8467
4.4245 -1.4300 1.8468
4.4747 -1.2715 1.8469
4.5190 -1.1112 1.8470
4.5574 -0.9493 1.8471
4.5897 -0.7860 1.8471
4.6159 -0.6216 1.8471
4.6360 -0.4563 1.8471
4.6500 -0.2904 1.8471
4.6578 -0.1240 1.8471
4.6594 0.0425 1.8470
4.6548 0.2090 1.8469
4.6439 0.3751 1.8468
4.6269 0.5408 1.8467
4.6036 0.7056 1.8464
4.5741 0.8694 1.8462
4.5386 1.0320 1.8459
4.4970 1.1931 1.8456
4.4499 1.3526 1.8455
4.3972 1.5102 1.8454
4.3393 1.6660 1.8456
4.2756 1.8195 1.8457
4.2068 1.9707 1.8461
4.1324 2.1191 1.8463
4.0523 2.2646 1.8465
3.9669 2.4069 1.8467
3.8764 2.5460 1.8468
3.8631 2.7398 1.8871
3.9949 3.0538 2.0049
3.8807 3.1927 2.0050
3.7621 3.3278 2.0054
3.6416 3.4611 2.0074
3.5160 3.5898 2.0093
3.3858 3.7138 2.0112
3.2509 3.8328 2.0130
3.1117 3.9467 2.0148
2.9685 4.0555 2.0165
2.8211 4.1588 2.0182
2.6685 4.2542 2.0187
2.5116 4.3420 2.0183
2.3517 4.4239 2.0179
0.8451 1.7371 0.7788
0.7820 1.7656 0.7793
0.7180 1.7917 0.7798
0.6530 1.8156 0.7803
0.5874 1.8372 0.7809
0.5210 1.8565 0.7815
0.4539 1.8734 0.7821
0.3864 1.8879 0.7827
0.3183 1.9000 0.7834
0.2499 1.9097 0.7841
0.1812 1.9170 0.7848
0.1123 1.9219 0.7855
0.0433 1.9243 0.7862
-0.0258 1.9243 0.7870
-0.0949 1.9219 0.7878
-0.1638 1.9171 0.7886
-0.2325 1.9098 0.7894
-0.3009 1.9001 0.7903
-0.3689 1.8880 0.7911
-0.4365 1.8735 0.7920
-0.5035 1.8566 0.7929
-0.5699 1.8373 0.7938
-0.6356 1.8158 0.7947
-0.7005 1.7919 0.7956
-0.7646 1.7657 0.7965
-2.0833 4.3730 2.0073
-2.2366 4.2901 2.0069
-2.3853 4.1997 2.0055
-2.5295 4.1025 2.0033
-2.6699 4.0006 2.0011
-2.8077 3.8956 1.9998
-2.9406 3.7851 1.9979
-3.0718 3.6730 1.9977
-3.1970 3.5545 1.9963
-3.3199 3.4339 1.9962
-3.4381 3.3091 1.9959
-3.5510 3.1795 1.9952
-3.6603 3.0471 1.9952
-3.7642 2.9106 1.9948
-3.8636 2.7709 1.9946
-3.9583 2.6282 1.9946
-4.0478 2.4823 1.9946
-4.1321 2.3334 1.9946
-4.2111 2.1817 1.9946
-4.2847 2.0274 1.9946
-4.3528 1.8707 1.9946
-4.4154 1.7118 1.9946
-4.4723 1.5509 1.9946
-4.5236 1.3881 1.9946
-4.5691 1.2237 1.9946
-4.6088 1.0578 1.9946
-4.6426 0.8907 1.9946
-4.6706 0.7225 1.9946
-4.6927 0.5535 1.9946
-4.7089 0.3839 1.9946
-4.7192 0.2138 1.9946
-4.7234 0.0435 1.9946
-4.7218 -0.1269 1.9946
-4.7141 -0.2970 1.9946
-4.7006 -0.4669 1.9946
-4.6811 -0.6361 1.9946
-4.6556 -0.8046 1.9946
-4.6244 -0.9721 1.9946
-4.5872 -1.1385 1.9946
-4.5443 -1.3035 1.9946
-4.4956 -1.4669 1.9946
-4.4412 -1.6285 1.9946
-4.3812 -1.7882 1.9946
-4.3156 -1.9458 1.9946
-4.2445 -2.1010 1.9946
-4.1679 -2.2537 1.9946
-4.0861 -2.4037 1.9946
-3.9990 -2.5508 1.9946
-3.9067 -2.6948 1.9946
-3.8094 -2.8355 1.9946
-3.7071 -2.9729 1.9946
-3.6001 -3.1066 1.9946
-3.4883 -3.2366 1.9946
-3.3720 -3.3626 1.9946
-3.2512 -3.4845 1.9946
-3.1261 -3.6022 1.9946
-2.9968 -3.7155 1.9946
-2.8636 -3.8243 1.9946
-2.7264 -3.9283 1.9946
-2.5856 -4.0276 1.9946
-2.4413 -4.1218 1.9946
-2.2936 -4.2110 1.9946
-2.1427 -4.2950 1.9946
-0.8236 -1.8111 0.8260
-0.7582 -1.8404 0.8255
-0.6918 -1.8672 0.8250
-0.6245 -1.8916 0.8244
-0.5563 -1.9135 0.8238
-0.4873 -1.9329 0.8232
-0.4176 -1.9497 0.8226
-0.3474 -1.9640 0.8219
-0.2767 -1.9758 0.8212
-0.2056 -1.9849 0.8205
-0.1342 -1.9915 0.8198
-0.0626 -1.9954 0.8190
0.0090 -1.8729 0.8172
0.0763 -1.8717 0.8165
0.1434 -1.8680 0.8157
0.2104 -1.8619 0.8149
0.2771 -1.8533 0.8141
0.3434 -1.8423 0.8133
0.4093 -1.8288 0.8124
0.4746 -1.8130 0.8116
0.5393 -1.7948 0.8107
0.6033 -1.7743 0.8098
0.6665 -1.7514 0.8089
0.7287 -1.7263 0.8080
0.7901 -1.6989 0.8071
2.1037 -4.1299 1.9946
2.2075 -3.9749 1.9548
2.2510 -3.7317 1.8718
2.3477 -3.5945 1.8422
2.4773 -3.5115 1.8423
2.6043 -3.4243 1.8426
2.7280 -3.3324 1.8429
2.8485 -3.2359 1.8432
2.9654 -3.1351 1.8435
3.0786 -3.0299 1.8438
3.1880 -2.9205 1.8440
3.1863 -2.7158 1.7843
3.2449 -2.5712 1.7632
3.2860 -2.4176 1.7361
3.3139 -2.2600 1.7059
3.5301 -2.2269 1.7739
3.7550 -2.1851 1.8453
3.8333 -2.0508 1.8455
3.9066 -1.9137 1.8456
3.9748 -1.7738 1.8458
4.0379 -1.6315 1.8459
4.0956 -1.4869 1.8460
4.1480 -1.3402 1.8461
4.1950 -1.1916 1.8462
4.2364 -1.0413 1.8462
4.2723 -0.8896 1.8463
4.3025 -0.7366 1.8463
4.3270 -0.5825 1.8463
4.3459 -0.4276 1.8463
4.3589 -0.2721 1.8463
4.3662 -0.1162 1.8463
4.3677 0.0399 1.8462
4.3634 0.1959 1.8462
4.3533 0.3516 1.8461
4.3373 0.5068 1.8459
4.3156 0.6613 1.8458
4.2881 0.8149 1.8456
4.2550 0.9673 1.8453
4.2162 1.1183 1.8451
4.1718 1.2677 1.8448
4.1219 1.4153 1.8445
4.0669 1.5610 1.8443
4.0067 1.7045 1.8441
3.9413 1.8458 1.8440
3.8712 1.9846 1.8440
3.7960 2.1207 1.8441
3.7159 2.2539 1.8441
3.6313 2.3842 1.8443
3.7889 2.6863 1.9730
3.7403 2.8582 2.0009
3.6338 2.9885 2.0011
3.5230 3.1151 2.0016
3.4095 3.2393 2.0031
3.2919 3.3596 2.0049
3.1698 3.4755 2.0066
3.0434 3.5866 2.0081
2.9130 3.6930 2.0097
2.7786 3.7944 2.0111
2.6406 3.8908 2.0125
2.4990 3.9819 2.0139
2.3543 4.0677 2.0152
0.8533 1.6042 0.7798
0.7949 1.6330 0.7802
0.7356 1.6598 0.7807
0.6755 1.6844 0.7811
0.6145 1.7069 0.7816
0.5527 1.7272 0.7822
0.4903 1.7453 0.7827
0.4273 1.7612 0.7833
0.3638 1.7749 0.7839
0.2998 1.7863 0.7845
0.2355 1.7954 0.7851
0.1709 1.8023 0.7858
0.1061 1.8069 0.7865
0.0412 1.8092 0.7872
-0.0237 1.8092 0.7879
-0.0886 1.8069 0.7887
-0.1534 1.8023 0.7894
-0.2180 1.7955 0.7902
-0.2823 1.7863 0.7910
-0.3463 1.7749 0.7918
-0.4098 1.7613 0.7926
-0.4728 1.7454 0.7934
-0.5352 1.7273 0.7943
-0.5970 1.7070 0.7951
-0.6580 1.6845 0.7960
-0.7182 1.6599 0.7968
-0.7775 1.6331 0.7977
-2.0963 4.0237 2.0029
-2.2356 3.9385 2.0012
-2.3720 3.8495 2.0000
-2.5047 3.7549 1.9983
-2.6354 3.6586 1.9980
-2.7616 3.5564 1.9970
-2.8844 3.4506 1.9964
-3.0041 3.3415 1.9963
-3.1186 3.2272 1.9954
-3.2300 3.1101 1.9953
-3.3370 2.9891 1.9950
-3.4396 2.8645 1.9948
-3.5378 2.7366 1.9946
-3.6316 2.6056 1.9946
-3.7208 2.4714 1.9946
-3.8051 2.3343 1.9946
-3.8845 2.1943 1.9946
-3.9589 2.0518 1.9946
-4.0282 1.9067 1.9946
-4.0924 1.7594 1.9946
-4.1513 1.6100 1.9946
-4.2049 1.4587 1.9946
-4.2532 1.3056 1.9946
-4.2961 1.1510 1.9946
-4.3335 0.9950 1.9946
-4.3654 0.8378 1.9946
-4.3918 0.6797 1.9946
-4.4126 0.5207 1.9946
-4.4279 0.3612 1.9946
-4.4375 0.2012 1.9946
-4.4416 0.0410 1.9946
-4.4400 -0.1193 1.9946
-4.4328 -0.2793 1.9946
-4.4201 -0.4391 1.9946
-4.4017 -0.5983 1.9946
-4.3778 -0.7568 1.9946
-4.3483 -0.9143 1.9946
-4.3133 -1.0708 1.9946
-4.2729 -1.2259 1.9946
-4.2271 -1.3796 1.9946
-4.1758 -1.5317 1.9946
-4.1193 -1.6818 1.9946
-4.0575 -1.8300 1.9946
-3.9905 -1.9759 1.9946
-3.9185 -2.1195 1.9946
-3.8414 -2.2605 1.9946
-3.7594 -2.3987 1.9946
-3.6725 -2.5341 1.9946
-3.5809 -2.6664 1.9946
-3.4846 -2.7954 1.9946
-3.3838 -2.9210 1.9946
-3.2786 -3.0432 1.9946
-3.1691 -3.1615 1.9946
-3.0554 -3.2761 1.9946
-2.9377 -3.3866 1.9946
-2.8160 -3.4929 1.9946
-2.6906 -3.5950 1.9946
-2.5616 -3.6927 1.9946
-2.4291 -3.7858 1.9946
-2.2933 -3.8742 1.9946
-2.1544 -3.9579 1.9946
-0.8323 -1.6695 0.8249
-0.7721 -1.6990 0.8245
-0.7107 -1.7264 0.8241
-0.6484 -1.7515 0.8236
-0.5852 -1.7744 0.8230
-0.5213 -1.7949 0.8225
-0.4566 -1.8131 0.8219
-0.3912 -1.8289 0.8213
-0.3253 -1.8423 0.8207
-0.2590 -1.8533 0.8201
-0.1923 -1.8619 0.8194
-0.1253 -1.8680 0.8187
-0.0582 -1.8717 0.8180
0.0090 -1.7616 0.8163
0.0723 -1.7604 0.8156
0.1354 -1.7569 0.8149
0.1984 -1.7512 0.8141
0.2611 -1.7431 0.8134
0.3235 -1.7328 0.8126
0.3855 -1.7201 0.8118
0.4469 -1.7053 0.8110
0.5078 -1.6882 0.8102
0.5680 -1.6689 0.8094
0.6274 -1.6474 0.8085
0.6860 -1.6238 0.8077
0.7437 -1.5980 0.8068
0.8004 -1.5702 0.8060
2.1207 -3.8162 1.9946
2.2351 -3.7032 1.9744
2.2751 -3.4814 1.8966
2.3317 -3.3033 1.8422
2.4506 -3.2205 1.8422
2.5667 -3.1338 1.8424
2.6799 -3.0429 1.8427
2.7897 -2.9479 1.8430
2.8960 -2.8489 1.8432
2.9987 -2.7459 1.8435
3.0977 -2.6392 1.8437
3.1927 -2.5288 1.8439
3.2242 -2.3712 1.8108
3.2640 -2.2252 1.7861
3.4529 -2.1773 1.8445
3.5309 -2.0539 1.8447
3.6044 -1.9276 1.8448
3.6732 -1.7987 1.8450
3.7372 -1.6672 1.8451
3.7963 -1.5334 1.8452
3.8505 -1.3974 1.8453
3.8997 -1.2595 1.8454
3.9437 -1.1198 1.8455
3.9826 -0.9786 1.8455
4.0162 -0.8359 1.8456
4.0446 -0.6921 1.8456
4.0676 -0.5474 1.8456
4.0852 -0.4018 1.8456
4.0975 -0.2556 1.8456
4.1043 -0.1091 1.8456
4.1057 0.0375 1.8456
4.1017 0.1841 1.8455
4.0922 0.3305 1.8454
4.0773 0.4764 1.8453
4.0569 0.6216 1.8451
4.0312 0.7659 1.8450
4.0001 0.9091 1.8448
3.9638 1.0511 1.8445
3.9222 1.1915 1.8443
3.8754 1.3303 1.8440
3.8236 1.4672 1.8437
3.7668 1.6020 1.8434
3.7052 1.7346 1.8432
3.6389 1.8650 1.8430
3.5679 1.9926 1.8428
3.4926 2.1178 1.8427
3.4910 2.2913 1.8849
3.6087 2.5577 1.9977
3.5136 2.6839 1.9981
3.4136 2.8064 1.9983
3.3099 2.9256 1.9989
3.2028 3.0417 2.0000
3.0920 3.1543 2.0014
2.9768 3.2624 2.0026
2.8579 3.3665 2.0040
2.7354 3.4663 2.0054
2.6093 3.5614 2.0067
2.4794 3.6514 2.0078
2.3465 3.7368 2.0090
2.2105 3.8172 2.0101
0.8046 1.5117 0.7811
0.7496 1.5389 0.7815
0.6938 1.5642 0.7819
0.6371 1.5874 0.7824
0.5796 1.6086 0.7828
0.5214 1.6278 0.7833
0.4626 1.6449 0.7838
0.4032 1.6598 0.7844
0.3433 1.6727 0.7849
0.2831 1.6835 0.7855
0.2225 1.6921 0.7861
0.1616 1.6986 0.7867
0.1005 1.7029 0.7874
0.0394 1.7051 0.7881
-0.0219 1.7051 0.7887
-0.0830 1.7030 0.7894
-0.1441 1.6986 0.7901
-0.2050 1.6922 0.7909
-0.2656 1.6836 0.7916
-0.3258 1.6728 0.7924
-0.3857 1.6599 0.7931
-0.4451 1.6449 0.7939
-0.5039 1.6278 0.7947
-0.5621 1.6087 0.7955
-0.6196 1.5875 0.7963
-0.6763 1.5643 0.7972
-0.7322 1.5391 0.7980
-0.7871 1.5119 0.7988
-2.1023 3.7059 1.9986
-2.2320 3.6241 1.9984
-2.3577 3.5366 1.9974
-2.4803 3.4450 1.9966
-2.6003 3.3505 1.9965
-2.7165 3.2513 1.9961
-2.8286 3.1478 1.9954
-2.9377 3.0414 1.9954
-3.0423 2.9306 1.9948
-3.1435 2.8170 1.9948
-3.2404 2.6998 1.9946
-3.3333 2.5795 1.9946
-3.4219 2.4561 1.9946
-3.5061 2.3297 1.9946
-3.5856 2.2005 1.9946
-3.6606 2.0686 1.9946
-3.7308 1.9343 1.9946
-3.7963 1.7976 1.9946
-3.8569 1.6588 1.9946
-3.9125 1.5180 1.9946
-3.9632 1.3753 1.9946
-4.0087 1.2310 1.9946
-4.0492 1.0852 1.9946
-4.0846 0.9382 1.9946
-4.1147 0.7900 1.9946
-4.1396 0.6409 1.9946
-4.1593 0.4910 1.9946
-4.1737 0.3406 1.9946
-4.1828 0.1898 1.9946
-4.1867 0.0387 1.9946
-4.1852 -0.1124 1.9946
-4.1784 -0.2633 1.9946
-4.1664 -0.4140 1.9946
-4.1490 -0.5641 1.9946
-4.1265 -0.7135 1.9946
-4.0987 -0.8621 1.9946
-4.0656 -1.0096 1.9946
-4.0275 -1.1558 1.9946
-3.9842 -1.3007 1.9946
-3.9358 -1.4440 1.9946
-3.8825 -1.5856 1.9946
-3.8241 -1.7253 1.9946
-3.7609 -1.8628 1.9946
-3.6929 -1.9981 1.9946
-3.6201 -2.1310 1.9946
-3.5427 -2.2612 1.9946
-3.4607 -2.3888 1.9946
-3.3743 -2.5134 1.9946
-3.2834 -2.6350 1.9946
-3.1883 -2.7533 1.9946
-3.0890 -2.8683 1.9946
-2.9857 -2.9798 1.9946
-2.8784 -3.0877 1.9946
-2.7674 -3.1917 1.9946
-2.6526 -3.2918 1.9946
-2.5344 -3.3879 1.9946
-2.4127 -3.4798 1.9946
-2.2877 -3.5674 1.9946
-2.1597 -3.6506 1.9946
-2.0287 -3.7292 1.9946
-0.7824 -1.5703 0.8236
-0.7257 -1.5982 0.8232
-0.6680 -1.6239 0.8228
-0.6094 -1.6475 0.8223
-0.5500 -1.6690 0.8218
-0.4898 -1.6883 0.8213
-0.4289 -1.7053 0.8208
-0.3674 -1.7202 0.8202
-0.3055 -1.7328 0.8196
-0.2431 -1.7431 0.8190
-0.1803 -1.7512 0.8184
-0.1174 -1.7569 0.8177
-0.0542 -1.7604 0.8170
0.0090 -1.6607 0.8155
0.0687 -1.6596 0.8148
0.1282 -1.6564 0.8142
0.1876 -1.6509 0.8135
0.2467 -1.6433 0.8127
0.3055 -1.6336 0.8120
0.3639 -1.6217 0.8113
0.4219 -1.6077 0.8105
0.4793 -1.5916 0.8097
0.5360 -1.5734 0.8090
0.5920 -1.5532 0.8082
0.6473 -1.5309 0.8074
0.7017 -1.5067 0.8066
0.7552 -1.4805 0.8058
0.8076 -1.4524 0.8050
2.1307 -3.5281 1.9946
2.2576 -3.4526 1.9946
2.2966 -3.2518 1.9232
2.3308 -3.0616 1.8573
2.4210 -2.9545 1.8422
2.5272 -2.8683 1.8423
2.6306 -2.7786 1.8425
2.7307 -2.6851 1.8427
2.8274 -2.5879 1.8430
2.9205 -2.4872 1.8432
3.0100 -2.3831 1.8434
3.0956 -2.2757 1.8436
3.1772 -2.1652 1.8438
3.2548 -2.0517 1.8439
3.3282 -1.9353 1.8441
3.3973 -1.8162 1.8442
3.4621 -1.6947 1.8444
3.5223 -1.5708 1.8445
3.5779 -1.4446 1.8446
3.6289 -1.3165 1.8447
3.6752 -1.1866 1.8448
3.7166 -1.0550 1.8449
3.7531 -0.9219 1.8449
3.7848 -0.7875 1.8450
3.8114 -0.6520 1.8450
3.8330 -0.5156 1.8450
3.8496 -0.3784 1.8450
3.8611 -0.2408 1.8450
3.8676 -0.1028 1.8450
3.8689 0.0354 1.8449
3.8651 0.1735 1.8449
3.8562 0.3114 1.8448
3.8422 0.4488 1.8447
3.8231 0.5856 1.8446
3.7989 0.7216 1.8444
3.7697 0.8565 1.8442
3.7355 0.9903 1.8440
3.6965 1.1226 1.8438
3.6525 1.2534 1.8435
3.6038 1.3825 1.8433
3.5504 1.5095 1.8430
3.4923 1.6345 1.8427
3.4297 1.7572 1.8424
3.3630 1.8776 1.8422
3.3133 2.0083 1.8540
3.4499 2.2635 1.9755
3.3999 2.4088 1.9960
3.3101 2.5276 1.9962
3.2160 2.6429 1.9964
3.1184 2.7553 1.9970
3.0174 2.8645 1.9980
2.9124 2.9699 1.9989
2.8036 3.0713 1.9997
2.6916 3.1691 2.0009
2.5760 3.2627 2.0021
2.4566 3.3513 2.0028
2.3346 3.4363 2.0039
2.2095 3.5166 2.0050
0.8113 1.4002 0.7819
0.7604 1.4277 0.7823
0.7085 1.4534 0.7826
0.6557 1.4773 0.7830
0.6022 1.4992 0.7835
0.5479 1.5193 0.7839
0.4929 1.5374 0.7844
0.4374 1.5536 0.7848
0.3813 1.5677 0.7854
0.3248 1.5799 0.7859
0.2678 1.5901 0.7864
0.2106 1.5983 0.7870
0.1531 1.6044 0.7876
0.0954 1.6085 0.7882
0.0377 1.6105 0.7888
-0.0202 1.6105 0.7895
-0.0779 1.6085 0.7901
-0.1356 1.6044 0.7908
-0.1931 1.5983 0.7915
-0.2503 1.5901 0.7922
-0.3073 1.5800 0.7929
-0.3638 1.5678 0.7936
-0.4199 1.5536 0.7944
-0.4754 1.5375 0.7951
-0.5304 1.5194 0.7959
-0.5847 1.4993 0.7967
-0.6382 1.4774 0.7974
-0.6910 1.4535 0.7982
-0.7429 1.4278 0.7990
-0.7939 1.4003 0.7998
-2.1047 3.4195 1.9968
-2.2244 3.3385 1.9967
-2.3409 3.2531 1.9965
-2.4533 3.1626 1.9955
-2.5634 3.0697 1.9955
-2.6700 2.9727 1.9953
-2.7727 2.8719 1.9948
-2.8721 2.7679 1.9947
-2.9677 2.6606 1.9946
-3.0596 2.5502 1.9946
-3.1475 2.4367 1.9946
-3.2313 2.3202 1.9946
-3.3108 2.2008 1.9946
-3.3861 2.0789 1.9946
-3.4570 1.9543 1.9946
-3.5235 1.8275 1.9946
-3.5854 1.6984 1.9946
-3.6427 1.5672 1.9946
-3.6953 1.4342 1.9946
-3.7432 1.2994 1.9946
-3.7861 1.1631 1.9946
-3.8247 1.0254 1.9946
-3.8581 0.8865 1.9946
-3.8866 0.7465 1.9946
-3.9102 0.6056 1.9946
-3.9289 0.4640 1.9946
-3.9425 0.3219 1.9946
-3.9511 0.1794 1.9946
-3.9548 0.0366 1.9946
-3.9534 -0.1062 1.9946
-3.9470 -0.2488 1.9946
-3.9356 -0.3911 1.9946
-3.9192 -0.5329 1.9946
-3.8978 -0.6741 1.9946
-3.8715 -0.8145 1.9946
-3.8403 -0.9538 1.9946
-3.8042 -1.0921 1.9946
-3.7633 -1.2290 1.9946
-3.7175 -1.3643 1.9946
-3.6670 -1.4981 1.9946
-3.6119 -1.6300 1.9946
-3.5521 -1.7599 1.9946
-3.4878 -1.8877 1.9946
-3.4189 -2.0132 1.9946
-3.3457 -2.1362 1.9946
-3.2682 -2.2567 1.9946
-3.1864 -2.3743 1.9946
-3.1005 -2.4891 1.9946
-3.0106 -2.6009 1.9946
-2.9167 -2.7094 1.9946
-2.8190 -2.8146 1.9946
-2.7176 -2.9164 1.9946
-2.6126 -3.0146 1.9946
-2.5042 -3.1090 1.9946
-2.3924 -3.1996 1.9946
-2.2774 -3.2863 1.9946
-2.1593 -3.3689 1.9946
-2.0383 -3.4473 1.9946
-0.7897 -1.4525 0.8227
-0.7372 -1.4806 0.8224
-0.6837 -1.5068 0.8220
-0.6293 -1.5310 0.8216
-0.5740 -1.5533 0.8211
-0.5180 -1.5735 0.8207
-0.4612 -1.5917 0.8202
-0.4038 -1.6078 0.8197
-0.3459 -1.6218 0.8192
-0.2875 -1.6336 0.8186
-0.2287 -1.6434 0.8180
-0.1695 -1.6510 0.8174
-0.1101 -1.6564 0.8168
-0.0506 -1.6596 0.8162
0.0090 -1.5689 0.8148
0.0653 -1.5679 0.8141
0.1216 -1.5648 0.8135
0.1777 -1.5597 0.8128
0.2336 -1.5525 0.8121
0.2891 -1.5433 0.8115
0.3443 -1.5321 0.8108
0.3991 -1.5189 0.8100
0.4533 -1.5037 0.8093
0.5069 -1.4865 0.8086
0.5598 -1.4674 0.8078
0.6121 -1.4464 0.8071
0.6635 -1.4235 0.8063
0.7140 -1.3988 0.8056
0.7635 -1.3722 0.8048
0.8121 -1.3439 0.8040
2.1345 -3.2624 1.9946
2.2518 -3.1866 1.9946
2.3156 -3.0400 1.9519
2.3475 -2.8633 1.8897
2.3888 -2.7098 1.8422
2.4861 -2.6247 1.8422
2.5803 -2.5360 1.8423
2.6715 -2.4442 1.8425
2.7594 -2.3490 1.8427
2.8437 -2.2505 1.8429
2.9245 -2.1490 1.8431
3.0015 -2.0446 1.8433
3.0747 -1.9373 1.8434
3.1439 -1.8274 1.8436
3.2091 -1.7149 1.8437
3.2701 -1.6001 1.8438
3.3269 -1.4831 1.8440
3.3793 -1.3639 1.8441
3.4274 -1.2430 1.8441
3.4710 -1.1202 1.8442
3.5100 -0.9960 1.8443
3.5445 -0.8703 1.8443
3.5743 -0.7434 1.8444
3.5994 -0.6155 1.8444
3.6198 -0.4867 1.8444
3.6354 -0.3572 1.8444
3.6463 -0.2273 1.8444
3.6523 -0.0970 1.8444
3.6536 0.0334 1.8444
3.6500 0.1638 1.8443
3.6416 0.2940 1.8442
3.6284 0.4237 1.8441
3.6104 0.5529 1.8440
3.5877 0.6813 1.8439
3.5602 0.8087 1.8437
3.5280 0.9350 1.8435
3.4912 1.0600 1.8433
3.4498 1.1835 1.8431
3.4039 1.3054 1.8429
3.3535 1.4254 1.8426
3.2988 1.5434 1.8424
3.2401 1.6595 1.8422
3.1884 1.7795 1.8486
3.2764 1.9853 1.9404
3.2918 2.1591 1.9950
3.2110 2.2742 1.9951
3.1261 2.3863 1.9952
3.0375 2.4953 1.9954
2.9454 2.6014 1.9959
2.8495 2.7040 1.9965
2.7500 2.8031 1.9971
2.6474 2.8989 1.9979
2.5412 2.9907 1.9987
2.4315 3.0781 1.9992
2.3192 3.1623 2.0002
2.2039 3.2422 2.0011
0.8155 1.2971 0.7827
0.7682 1.3249 0.7830
0.7200 1.3510 0.7833
0.6709 1.3753 0.7837
0.6210 1.3979 0.7841
0.5703 1.4187 0.7845
0.5189 1.4377 0.7849
0.4669 1.4548 0.7853
0.4144 1.4701 0.7858
0.3613 1.4836 0.7863
0.3078 1.4951 0.7868
0.2539 1.5047 0.7873
0.1998 1.5125 0.7878
0.1454 1.5183 0.7884
0.0908 1.5221 0.7890
0.0361 1.5241 0.7895
-0.0186 1.5241 0.7902
-0.0733 1.5222 0.7908
-0.1278 1.5183 0.7914
-0.1823 1.5125 0.7921
-0.2364 1.5048 0.7927
-0.2903 1.4952 0.7934
-0.3438 1.4836 0.7941
-0.3969 1.4702 0.7948
-0.4494 1.4549 0.7955
-0.5014 1.4378 0.7962
-0.5528 1.4188 0.7969
-0.6035 1.3980 0.7977
-0.6534 1.3754 0.7984
-0.7025 1.3511 0.7992
-0.7507 1.3250 0.7999
-0.7980 1.2972 0.8007
-2.1024 3.1573 1.9958
-2.2127 3.0767 1.9955
-2.3201 2.9925 1.9955
-2.4239 2.9040 1.9950
-2.5249 2.8125 1.9948
-2.6224 2.7175 1.9947
-2.7167 2.6193 1.9946
-2.8074 2.5179 1.9946
-2.8944 2.4135 1.9946
-2.9777 2.3061 1.9946
-3.0570 2.1960 1.9946
-3.1324 2.0831 1.9946
-3.2037 1.9676 1.9946
-3.2709 1.8498 1.9946
-3.3339 1.7298 1.9946
-3.3925 1.6076 1.9946
-3.4468 1.4835 1.9946
-3.4967 1.3576 1.9946
-3.5422 1.2301 1.9946
-3.5830 1.1011 1.9946
-3.6193 0.9708 1.9946
-3.6510 0.8392 1.9946
-3.6781 0.7067 1.9946
-3.7005 0.5734 1.9946
-3.7181 0.4393 1.9946
-3.7310 0.3048 1.9946
-3.7392 0.1698 1.9946
-3.7427 0.0347 1.9946
-3.7414 -0.1004 1.9946
-3.7353 -0.2355 1.9946
-3.7245 -0.3702 1.9946
-3.7090 -0.5045 1.9946
-3.6888 -0.6381 1.9946
-3.6638 -0.7710 1.9946
-3.6343 -0.9029 1.9946
-3.6000 -1.0338 1.9946
-3.5613 -1.1633 1.9946
-3.5179 -1.2915 1.9946
-3.4701 -1.4180 1.9946
-3.4178 -1.5429 1.9946
-3.3612 -1.6658 1.9946
-3.3002 -1.7868 1.9946
-3.2350 -1.9055 1.9946
-3.1656 -2.0220 1.9946
-3.0922 -2.1359 1.9946
-3.0147 -2.2472 1.9946
-2.9333 -2.3558 1.9946
-2.8481 -2.4615 1.9946
-2.7592 -2.5642 1.9946
-2.6667 -2.6637 1.9946
-2.5706 -2.7599 1.9946
-2.4712 -2.8527 1.9946
-2.3685 -2.9420 1.9946
-2.2626 -3.0277 1.9946
-2.1537 -3.1096 1.9946
-2.0419 -3.1876 1.9946
-0.7942 -1.3440 0.8219
-0.7456 -1.3723 0.8216
-0.6960 -1.3989 0.8213
-0.6455 -1.4236 0.8209
-0.5941 -1.4465 0.8205
-0.5418 -1.4675 0.8201
-0.4889 -1.4866 0.8197
-0.4353 -1.5037 0.8192
-0.3810 -1.5189 0.8187
-0.3263 -1.5321 0.8182
-0.2711 -1.5433 0.8177
-0.2155 -1.5525 0.8171
-0.1597 -1.5597 0.8166
-0.1036 -1.5648 0.8160
-0.0473 -1.5679 0.8154
0.0090 -1.4849 0.8141
0.0623 -1.4839 0.8135
0.1156 -1.4810 0.8129
0.1687 -1.4761 0.8123
0.2215 -1.4693 0.8116
0.2741 -1.4606 0.8110
0.3264 -1.4500 0.8103
0.3782 -1.4375 0.8096
0.4295 -1.4232 0.8089
0.4802 -1.4069 0.8082
0.5304 -1.3889 0.8075
0.5798 -1.3690 0.8068
0.6284 -1.3474 0.8061
0.6763 -1.3240 0.8054
0.7232 -1.2988 0.8047
0.7692 -1.2720 0.8039
0.8141 -1.2436 0.8032
2.1328 -3.0164 1.9946
2.2411 -2.9405 1.9946
2.3324 -2.8434 1.9826
2.3624 -2.6785 1.9239
2.3903 -2.5223 1.8705
2.4432 -2.4001 1.8422
2.5291 -2.3128 1.8422
2.6119 -2.2225 1.8423
2.6917 -2.1293 1.8425
2.7680 -2.0332 1.8426
2.8408 -1.9343 1.8428
2.9099 -1.8328 1.8430
2.9753 -1.7287 1.8431
3.0369 -1.6223 1.8432
3.0945 -1.5136 1.8433
3.1482 -1.4029 1.8435
3.1977 -1.2902 1.8436
3.2431 -1.1757 1.8436
3.2843 -1.0596 1.8437
3.3212 -0.9420 1.8438
3.3537 -0.8231 1.8438
3.3819 -0.7031 1.8439
