ply
format ascii 1.0
element vertex 2176
property float32 x
property float32 y
property float32 z
end_header
4.7124 2.0319 2.1073
4.7087 2.1563 2.1270
4.7048 2.2831 2.1481
4.7006 2.4123 2.1707
4.6962 2.5442 2.1947
4.6870 2.6764 2.2182
4.6253 2.7800 2.2182
4.5613 2.8822 2.2182
4.4950 2.9830 2.2182
4.4266 3.0822 2.2182
4.3559 3.1799 2.2182
4.2831 3.2759 2.2182
4.2082 3.3704 2.2182
4.1312 3.4631 2.2182
4.0522 3.5541 2.2182
3.9712 3.6432 2.2182
3.8882 3.7306 2.2182
3.8034 3.8161 2.2182
3.7166 3.8996 2.2182
3.6281 3.9812 2.2182
3.5377 4.0608 2.2182
3.4456 4.1384 2.2182
3.3519 4.2139 2.2182
3.2565 4.2873 2.2182
3.1595 4.3586 2.2182
3.0609 4.4276 2.2182
2.9609 4.4945 2.2182
2.8593 4.5591 2.2182
2.7564 4.6214 2.2182
2.6522 4.6815 2.2182
2.5466 4.7392 2.2182
2.4398 4.7945 2.2182
0.8347 1.7352 0.7940
0.7956 1.7532 0.7940
0.7560 1.7702 0.7939
0.7161 1.7864 0.7938
0.6759 1.8017 0.7937
0.6354 1.8161 0.7937
0.5945 1.8296 0.7936
0.5534 1.8422 0.7935
0.5120 1.8538 0.7935
0.4704 1.8646 0.7934
0.4285 1.8745 0.7934
0.3865 1.8834 0.7934
0.3442 1.8915 0.7933
0.3018 1.8986 0.7933
0.2593 1.9047 0.7933
0.2166 1.9099 0.7932
0.1738 1.9142 0.7932
0.1310 1.9176 0.7932
0.0881 1.9200 0.7932
0.0451 1.9214 0.7932
0.0021 1.9220 0.7932
-0.0408 1.9215 0.7932
-0.0838 1.9202 0.7932
-0.1267 1.9179 0.7932
-0.1696 1.9146 0.7932
-0.2123 1.9104 0.7933
-0.2550 1.9053 0.7933
-0.2976 1.8993 0.7933
-0.3400 1.8923 0.7933
-0.3823 1.8844 0.7934
-0.4243 1.8755 0.7934
-0.4662 1.8657 0.7935
-0.5079 1.8551 0.7935
-0.5493 1.8435 0.7936
-0.5905 1.8310 0.7936
-0.6313 1.8176 0.7937
-0.6719 1.8033 0.7938
-0.7122 1.7881 0.7938
-0.7521 1.7720 0.7939
-0.7917 1.7550 0.7940
-2.3210 4.8526 2.2182
-2.4291 4.7999 2.2182
-2.5360 4.7448 2.2182
-2.6417 4.6873 2.2182
-2.7461 4.6275 2.2182
-2.8491 4.5654 2.2182
-2.9508 4.5010 2.2182
-3.0510 4.4344 2.2182
-3.1497 4.3655 2.2182
-3.2469 4.2945 2.2182
-3.3424 4.2213 2.2182
-3.4364 4.1460 2.2182
-3.5286 4.0687 2.2182
-3.6192 3.9893 2.2182
-3.7079 3.9079 2.2182
-3.7948 3.8245 2.2182
-3.8799 3.7392 2.2182
-3.9630 3.6521 2.2182
-4.0442 3.5631 2.2182
-4.1234 3.4723 2.2182
-4.2006 3.3797 2.2182
-4.2757 3.2855 2.2182
-4.3487 3.1895 2.2182
-4.4196 3.0920 2.2182
-4.4883 2.9929 2.2182
-4.5548 2.8923 2.2182
-4.6190 2.7903 2.2182
-4.6810 2.6868 2.2182
-4.7406 2.5819 2.2182
-4.7979 2.4757 2.2182
-4.8528 2.3683 2.2182
-4.9054 2.2596 2.2182
-4.9555 2.1498 2.2182
-5.0032 2.0389 2.2182
-5.0483 1.9270 2.2182
-5.0910 1.8140 2.2182
-5.1312 1.7001 2.2182
-5.1688 1.5853 2.2182
-5.2039 1.4697 2.2182
-5.2363 1.3533 2.2182
-5.2662 1.2362 2.2182
-5.2935 1.1185 2.2182
-5.3181 1.0001 2.2182
-5.3401 0.8812 2.2182
-5.3595 0.7618 2.2182
-5.3761 0.6421 2.2182
-5.3901 0.5219 2.2182
-5.4015 0.4014 2.2182
-5.4101 0.2807 2.2182
-5.4160 0.1599 2.2182
-5.4193 0.0389 2.2182
-5.4198 -0.0822 2.2182
-5.4176 -0.2032 2.2182
-5.4127 -0.3242 2.2182
-5.4051 -0.4451 2.2182
-5.3949 -0.5658 2.2182
-5.3819 -0.6863 2.2182
-5.3662 -0.8064 2.2182
-5.3478 -0.9262 2.2182
-5.3268 -1.0456 2.2182
-5.3031 -1.1645 2.2182
-5.2767 -1.2829 2.2182
-5.2477 -1.4006 2.2182
-5.2161 -1.5177 2.2182
-5.1818 -1.6341 2.2182
-5.1450 -1.7497 2.2182
-5.1055 -1.8644 2.2182
-5.0635 -1.9783 2.2182
-5.0190 -2.0912 2.2182
-4.9719 -2.2031 2.2182
-4.9223 -2.3139 2.2182
-4.8702 -2.4236 2.2182
-4.8157 -2.5322 2.2182
-4.7588 -2.6395 2.2182
-4.6994 -2.7455 2.2182
-4.6378 -2.8501 2.2182
-4.5737 -2.9534 2.2182
-4.5074 -3.0552 2.2182
-4.4387 -3.1556 2.2182
-4.3678 -3.2543 2.2182
-4.2948 -3.3515 2.2182
-4.2195 -3.4470 2.2182
-4.1421 -3.5408 2.2182
-4.0627 -3.6329 2.2182
-3.9811 -3.7232 2.2182
-3.8976 -3.8116 2.2182
-3.8121 -3.8982 2.2182
-3.7246 -3.9828 2.2182
-3.6352 -4.0654 2.2182
-3.5441 -4.1460 2.2182
-3.4511 -4.2246 2.2182
-3.3564 -4.3010 2.2182
-3.2599 -4.3754 2.2182
-3.1618 -4.4475 2.2182
-3.0621 -4.5174 2.2182
-2.9609 -4.5851 2.2182
-2.8581 -4.6505 2.2182
-2.7540 -4.7135 2.2182
-2.6484 -4.7743 2.2182
-2.5414 -4.8326 2.2182
-2.4332 -4.8885 2.2182
-2.3237 -4.9420 2.2182
-0.8088 -1.8249 0.8107
-0.7680 -1.8428 0.8108
-0.7269 -1.8598 0.8109
-0.6853 -1.8758 0.8110
-0.6434 -1.8909 0.8110
-0.6011 -1.9051 0.8111
-0.5585 -1.9183 0.8111
-0.5157 -1.9305 0.8112
-0.4725 -1.9417 0.8113
-0.4291 -1.9520 0.8113
-0.3855 -1.9612 0.8113
-0.3417 -1.9695 0.8114
-0.2977 -1.9768 0.8114
-0.2535 -1.9830 0.8114
-0.2092 -1.9883 0.8115
-0.1648 -1.9925 0.8115
-0.1204 -1.9958 0.8115
-0.0758 -1.9980 0.8115
-0.0312 -1.9992 0.8115
0.0134 -1.9994 0.8115
0.0580 -1.9986 0.8115
0.1026 -1.9968 0.8115
0.1471 -1.9939 0.8115
0.1915 -1.9901 0.8114
0.2358 -1.9852 0.8114
0.2800 -1.9793 0.8114
0.3241 -1.9725 0.8114
0.3680 -1.9646 0.8113
0.4117 -1.9557 0.8113
0.4552 -1.9458 0.8112
0.4984 -1.9350 0.8112
0.5414 -1.9232 0.8111
0.5841 -1.9104 0.8111
0.6265 -1.8966 0.8110
0.6685 -1.8819 0.8109
0.7102 -1.8662 0.8109
0.7516 -1.8496 0.8108
0.7925 -1.8320 0.8107
2.2795 -4.9627 2.2182
2.3895 -4.9102 2.2182
2.4982 -4.8552 2.2182
2.6057 -4.7979 2.2182
2.7119 -4.7381 2.2182
2.8166 -4.6760 2.2182
2.9200 -4.6115 2.2182
3.0218 -4.5447 2.2182
3.1222 -4.4757 2.2182
3.2209 -4.4045 2.2182
3.3180 -4.3310 2.2182
3.4134 -4.2554 2.2182
3.5071 -4.1777 2.2182
3.5990 -4.0979 2.2182
3.6891 -4.0161 2.2182
3.7773 -3.9322 2.2182
3.8636 -3.8465 2.2182
3.9479 -3.7588 2.2182
4.0303 -3.6692 2.2182
4.1106 -3.5779 2.2182
4.1888 -3.4847 2.2182
4.2649 -3.3899 2.2182
4.3388 -3.2934 2.2182
4.4106 -3.1952 2.2182
4.4802 -3.0955 2.2182
4.5474 -2.9943 2.2182
4.6124 -2.8916 2.2182
4.6750 -2.7875 2.2182
4.6953 -2.6593 2.1994
4.6999 -2.5251 2.1749
4.7041 -2.3936 2.1520
4.7081 -2.2648 2.1305
4.7118 -2.1384 2.1104
4.7153 -2.0143 2.0917
4.7223 -1.8938 2.0759
4.7393 -1.7788 2.0658
4.7771 -1.6723 2.0658
4.8124 -1.5649 2.0658
4.8452 -1.4569 2.0658
4.8757 -1.3481 2.0658
4.9036 -1.2386 2.0658
4.9292 -1.1286 2.0658
4.9523 -1.0181 2.0658
4.9729 -0.9071 2.0658
4.9910 -0.7957 2.0658
5.0066 -0.6839 2.0658
5.0196 -0.5718 2.0658
5.0302 -0.4595 2.0658
5.0383 -0.3470 2.0658
5.0439 -0.2344 2.0658
5.0469 -0.1216 2.0658
5.0474 -0.0089 2.0658
5.0454 0.1038 2.0658
5.0409 0.2165 2.0658
5.0338 0.3289 2.0658
5.0243 0.4412 2.0658
5.0123 0.5532 2.0658
4.9977 0.6649 2.0658
4.9807 0.7763 2.0658
4.9612 0.8872 2.0658
4.9393 0.9976 2.0658
4.9148 1.1075 2.0658
4.8880 1.2168 2.0658
4.8587 1.3254 2.0658
4.8270 1.4335 2.0658
4.7929 1.5406 2.0658
4.7565 1.6470 2.0658
4.7280 1.7564 2.0703
4.7168 1.8732 2.0836
4.7134 1.9950 2.1016
4.7099 2.1188 2.1210
4.7060 2.2448 2.1417
4.7019 2.3732 2.1638
4.6976 2.5043 2.1873
4.6929 2.6382 2.2124
4.6440 2.7490 2.2182
4.5807 2.8517 2.2182
4.5151 2.9529 2.2182
4.4473 3.0526 2.2182
4.3773 3.1507 2.2182
4.3051 3.2473 2.2182
4.2309 3.3422 2.2182
4.1545 3.4355 2.2182
4.0761 3.5270 2.2182
3.9957 3.6167 2.2182
3.9133 3.7046 2.2182
3.8290 3.7906 2.2182
3.7429 3.8748 2.2182
3.6548 3.9570 2.2182
3.5650 4.0372 2.2182
3.4734 4.1154 2.2182
3.3802 4.1915 2.2182
3.2853 4.2655 2.2182
3.1887 4.3374 2.2182
3.0906 4.4071 2.2182
2.9910 4.4746 2.2182
2.8899 4.5399 2.2182
2.7874 4.6030 2.2182
2.6836 4.6637 2.2182
2.5784 4.7221 2.2182
2.4719 4.7782 2.2182
0.8464 1.7297 0.7941
0.8073 1.7479 0.7940
0.7679 1.7652 0.7939
0.7281 1.7816 0.7938
0.6880 1.7972 0.7937
0.6476 1.8118 0.7937
0.6068 1.8256 0.7936
0.5658 1.8385 0.7936
0.5245 1.8504 0.7935
0.4829 1.8615 0.7935
0.4411 1.8716 0.7934
0.3991 1.8809 0.7934
0.3569 1.8892 0.7933
0.3146 1.8965 0.7933
0.2721 1.9030 0.7933
0.2294 1.9085 0.7932
0.1867 1.9130 0.7932
0.1439 1.9167 0.7932
0.1010 1.9194 0.7932
0.0580 1.9211 0.7932
0.0150 1.9219 0.7932
-0.0280 1.9218 0.7932
-0.0709 1.9207 0.7932
-0.1139 1.9187 0.7932
-0.1567 1.9157 0.7932
-0.1995 1.9118 0.7933
-0.2422 1.9070 0.7933
-0.2848 1.9012 0.7933
-0.3273 1.8945 0.7933
-0.3696 1.8868 0.7934
-0.4117 1.8783 0.7934
-0.4537 1.8688 0.7935
-0.4954 1.8584 0.7935
-0.5369 1.8470 0.7936
-0.5782 1.8348 0.7936
-0.6191 1.8217 0.7937
-0.6598 1.8076 0.7938
-0.7002 1.7927 0.7938
-0.7402 1.7769 0.7939
-0.7799 1.7602 0.7940
-0.8192 1.7427 0.7941
-2.3968 4.8160 2.2182
-2.5041 4.7616 2.2182
-2.6101 4.7048 2.2182
-2.7149 4.6457 2.2182
-2.8184 4.5843 2.2182
-2.9204 4.5206 2.2182
-3.0211 4.4546 2.2182
-3.1203 4.3864 2.2182
-3.2179 4.3161 2.2182
-3.3139 4.2435 2.2182
-3.4084 4.1689 2.2182
-3.5011 4.0921 2.2182
-3.5922 4.0133 2.2182
-3.6815 3.9325 2.2182
-3.7689 3.8497 2.2182
-3.8546 3.7650 2.2182
-3.9383 3.6784 2.2182
-4.0201 3.5899 2.2182
-4.0999 3.4997 2.2182
-4.1777 3.4076 2.2182
-4.2534 3.3139 2.2182
-4.3271 3.2185 2.2182
-4.3986 3.1215 2.2182
-4.4679 3.0228 2.2182
-4.5350 2.9227 2.2182
-4.6000 2.8210 2.2182
-4.6626 2.7180 2.2182
-4.7229 2.6135 2.2182
-4.7809 2.5077 2.2182
-4.8366 2.4006 2.2182
-4.8899 2.2924 2.2182
-4.9407 2.1829 2.2182
-4.9891 2.0723 2.2182
-5.0350 1.9606 2.2182
-5.0785 1.8480 2.2182
-5.1194 1.7343 2.2182
-5.1578 1.6198 2.2182
-5.1936 1.5044 2.2182
-5.2269 1.3883 2.2182
-5.2575 1.2714 2.2182
-5.2856 1.1538 2.2182
-5.3110 1.0357 2.2182
-5.3338 0.9169 2.2182
-5.3539 0.7977 2.2182
-5.3714 0.6780 2.2182
-5.3862 0.5580 2.2182
-5.3983 0.4376 2.2182
-5.4078 0.3170 2.2182
-5.4145 0.1962 2.2182
-5.4186 0.0752 2.2182
-5.4199 -0.0459 2.2182
-5.4185 -0.1669 2.2182
-5.4145 -0.2879 2.2182
-5.4077 -0.4089 2.2182
-5.3982 -0.5296 2.2182
-5.3860 -0.6502 2.2182
-5.3712 -0.7704 2.2182
-5.3536 -0.8903 2.2182
-5.3334 -1.0099 2.2182
-5.3105 -1.1289 2.2182
-5.2849 -1.2474 2.2182
-5.2567 -1.3653 2.2182
-5.2259 -1.4826 2.2182
-5.1924 -1.5992 2.2182
-5.1563 -1.7151 2.2182
-5.1176 -1.8301 2.2182
-5.0764 -1.9442 2.2182
-5.0326 -2.0574 2.2182
-4.9863 -2.1696 2.2182
-4.9374 -2.2808 2.2182
-4.8861 -2.3908 2.2182
-4.8323 -2.4997 2.2182
-4.7761 -2.6074 2.2182
-4.7175 -2.7138 2.2182
-4.6565 -2.8189 2.2182
-4.5932 -2.9226 2.2182
-4.5275 -3.0249 2.2182
-4.4595 -3.1256 2.2182
-4.3893 -3.2249 2.2182
-4.3169 -3.3225 2.2182
-4.2423 -3.4185 2.2182
-4.1656 -3.5129 2.2182
-4.0867 -3.6055 2.2182
-4.0058 -3.6963 2.2182
-3.9228 -3.7853 2.2182
-3.8379 -3.8724 2.2182
-3.7511 -3.9576 2.2182
-3.6623 -4.0408 2.2182
-3.5716 -4.1221 2.2182
-3.4792 -4.2012 2.2182
-3.3850 -4.2783 2.2182
-3.2890 -4.3533 2.2182
-3.1914 -4.4261 2.2182
-3.0922 -4.4967 2.2182
-2.9914 -4.5650 2.2182
-2.8891 -4.6311 2.2182
-2.7853 -4.6949 2.2182
-2.6801 -4.7563 2.2182
-2.5736 -4.8153 2.2182
-2.4658 -4.8720 2.2182
-2.3566 -4.9262 2.2182
-0.8210 -1.8193 0.8107
-0.7803 -1.8375 0.8108
-0.7393 -1.8548 0.8109
-0.6978 -1.8711 0.8109
-0.6560 -1.8865 0.8110
-0.6138 -1.9009 0.8111
-0.5713 -1.9144 0.8111
-0.5285 -1.9269 0.8112
-0.4855 -1.9384 0.8112
-0.4422 -1.9490 0.8113
-0.3986 -1.9586 0.8113
-0.3549 -1.9671 0.8114
-0.3109 -1.9747 0.8114
-0.2668 -1.9813 0.8114
-0.2226 -1.9868 0.8115
-0.1782 -1.9914 0.8115
-0.1337 -1.9949 0.8115
-0.0892 -1.9975 0.8115
-0.0446 -1.9990 0.8115
0.0000 -1.8757 0.8109
0.0418 -1.8752 0.8109
0.0836 -1.8738 0.8109
0.1254 -1.8714 0.8109
0.1671 -1.8681 0.8109
0.2088 -1.8638 0.8109
0.2503 -1.8586 0.8108
0.2916 -1.8524 0.8108
0.3329 -1.8453 0.8108
0.3739 -1.8373 0.8107
0.4148 -1.8283 0.8107
0.4554 -1.8184 0.8106
0.4958 -1.8076 0.8106
0.5359 -1.7959 0.8105
0.5758 -1.7833 0.8105
0.6153 -1.7697 0.8104
0.6546 -1.7553 0.8103
0.6934 -1.7400 0.8103
0.7320 -1.7238 0.8102
0.7701 -1.7068 0.8101
0.8078 -1.6888 0.8100
2.3147 -4.5739 2.2182
2.4160 -4.5207 2.2182
2.5159 -4.4653 2.2182
2.6147 -4.4077 2.2182
2.7121 -4.3478 2.2182
2.8082 -4.2858 2.2182
2.9028 -4.2217 2.2182
2.9960 -4.1554 2.2182
3.0876 -4.0871 2.2182
3.1777 -4.0168 2.2182
3.2662 -3.9444 2.2182
3.3530 -3.8701 2.2182
3.4381 -3.7939 2.2182
3.5215 -3.7158 2.2182
3.6030 -3.6358 2.2182
3.6828 -3.5541 2.2182
3.7607 -3.4706 2.2182
3.8367 -3.3853 2.2182
3.9108 -3.2984 2.2182
3.9828 -3.2099 2.2182
4.0529 -3.1197 2.2182
4.1209 -3.0281 2.2182
4.1869 -2.9349 2.2182
4.2507 -2.8403 2.2182
4.3124 -2.7443 2.2182
4.3719 -2.6470 2.2182
4.4292 -2.5484 2.2182
4.4843 -2.4485 2.2182
4.5371 -2.3474 2.2182
4.5877 -2.2452 2.2182
4.6359 -2.1419 2.2182
4.6818 -2.0375 2.2182
4.6945 -1.9196 2.2037
4.6978 -1.7996 2.1862
4.7008 -1.6814 2.1699
4.7036 -1.5649 2.1549
4.7061 -1.4499 2.1411
4.7085 -1.3362 2.1284
4.7106 -1.2239 2.1169
4.7125 -1.1127 2.1064
4.7143 -1.0025 2.0970
4.7158 -0.8933 2.0887
4.7172 -0.7849 2.0814
4.7217 -0.6776 2.0765
4.7257 -0.5708 2.0725
4.7290 -0.4643 2.0693
4.7315 -0.3581 2.0667
4.7352 -0.2522 2.0658
4.7388 -0.1463 2.0658
4.7401 -0.0405 2.0658
4.7389 0.0654 2.0658
4.7355 0.1712 2.0658
4.7316 0.2770 2.0666
4.7291 0.3830 2.0691
4.7259 0.4892 2.0724
4.7219 0.5957 2.0763
4.7172 0.7025 2.0810
4.7159 0.8104 2.0882
4.7144 0.9190 2.0965
4.7126 1.0284 2.1058
4.7108 1.1388 2.1161
4.7086 1.2503 2.1276
4.7063 1.3629 2.1401
4.7038 1.4769 2.1538
4.7010 1.5922 2.1687
4.6980 1.7092 2.1848
4.6948 1.8278 2.2021
4.6860 1.9460 2.2182
4.6406 2.0499 2.2182
4.5929 2.1528 2.2182
4.5429 2.2545 2.2182
4.4907 2.3551 2.2182
4.4362 2.4545 2.2182
4.3796 2.5526 2.2182
4.3208 2.6494 2.2182
4.2599 2.7449 2.2182
4.1968 2.8390 2.2182
4.1317 2.9317 2.2182
4.0646 3.0229 2.2182
3.9954 3.1125 2.2182
3.9243 3.2006 2.2182
3.8512 3.2871 2.2182
3.7763 3.3719 2.2182
3.6995 3.4550 2.2182
3.6209 3.5364 2.2182
3.5405 3.6160 2.2182
3.4583 3.6938 2.2182
3.3745 3.7697 2.2182
3.2890 3.8438 2.2182
3.2019 3.9159 2.2182
3.1131 3.9861 2.2182
3.0229 4.0542 2.2182
2.9312 4.1204 2.2182
2.8381 4.1844 2.2182
2.7436 4.2464 2.2182
2.6477 4.3063 2.2182
2.5505 4.3640 2.2182
2.4520 4.4196 2.2182
0.8428 1.6024 0.7947
0.8066 1.6206 0.7946
0.7700 1.6379 0.7945
0.7331 1.6544 0.7944
0.6958 1.6701 0.7943
0.6582 1.6850 0.7943
0.6202 1.6991 0.7942
0.5820 1.7123 0.7941
0.5435 1.7247 0.7941
0.5047 1.7362 0.7940
0.4657 1.7468 0.7940
0.4265 1.7566 0.7939
0.3871 1.7656 0.7939
0.3475 1.7737 0.7939
0.3077 1.7808 0.7938
0.2678 1.7872 0.7938
0.2277 1.7926 0.7938
0.1876 1.7972 0.7938
0.1473 1.8009 0.7938
0.1070 1.8037 0.7937
0.0667 1.8056 0.7937
0.0263 1.8066 0.7937
-0.0141 1.8067 0.7937
-0.0545 1.8060 0.7937
-0.0949 1.8043 0.7937
-0.1353 1.8018 0.7938
-0.1755 1.7984 0.7938
-0.2157 1.7941 0.7938
-0.2558 1.7889 0.7938
-0.2957 1.7829 0.7939
-0.3356 1.7760 0.7939
-0.3752 1.7682 0.7939
-0.4147 1.7595 0.7940
-0.4540 1.7500 0.7940
-0.4931 1.7396 0.7941
-0.5319 1.7283 0.7941
-0.5705 1.7162 0.7942
-0.6088 1.7032 0.7942
-0.6468 1.6894 0.7943
-0.6846 1.6748 0.7944
-0.7220 1.6594 0.7945
-0.7590 1.6431 0.7945
-0.7957 1.6260 0.7946
-2.3224 4.4885 2.2182
-2.4223 4.4358 2.2182
-2.5211 4.3809 2.2182
-2.6187 4.3238 2.2182
-2.7149 4.2646 2.2182
-2.8099 4.2033 2.2182
-2.9034 4.1398 2.2182
-2.9956 4.0743 2.2182
-3.0863 4.0067 2.2182
-3.1754 3.9371 2.2182
-3.2630 3.8656 2.2182
-3.3490 3.7921 2.2182
-3.4333 3.7168 2.2182
-3.5160 3.6395 2.2182
-3.5970 3.5605 2.2182
-3.6761 3.4796 2.2182
-3.7535 3.3970 2.2182
-3.8290 3.3127 2.2182
-3.9026 3.2267 2.2182
-3.9743 3.1391 2.2182
-4.0440 3.0499 2.2182
-4.1118 2.9592 2.2182
-4.1775 2.8670 2.2182
-4.2412 2.7733 2.2182
-4.3028 2.6782 2.2182
-4.3622 2.5818 2.2182
-4.4195 2.4840 2.2182
-4.4746 2.3850 2.2182
-4.5275 2.2848 2.2182
-4.5782 2.1834 2.2182
-4.6266 2.0809 2.2182
-4.6727 1.9773 2.2182
-4.7165 1.8727 2.2182
-4.7579 1.7671 2.2182
-4.7970 1.6607 2.2182
-4.8338 1.5533 2.2182
-4.8681 1.4452 2.2182
-4.9000 1.3363 2.2182
-4.9295 1.2267 2.2182
-4.9565 1.1165 2.2182
-4.9811 1.0056 2.2182
-5.0032 0.8943 2.2182
-5.0228 0.7824 2.2182
-5.0399 0.6701 2.2182
-5.0545 0.5575 2.2182
-5.0666 0.4445 2.2182
-5.0762 0.3313 2.2182
-5.0832 0.2179 2.2182
-5.0877 0.1043 2.2182
-5.0897 -0.0093 2.2182
-5.0891 -0.1230 2.2182
-5.0860 -0.2367 2.2182
-5.0804 -0.3503 2.2182
-5.0722 -0.4637 2.2182
-5.0615 -0.5770 2.2182
-5.0482 -0.6900 2.2182
-5.0324 -0.8027 2.2182
-5.0142 -0.9150 2.2182
-4.9934 -1.0270 2.2182
-4.9700 -1.1384 2.2182
-4.9442 -1.2493 2.2182
-4.9160 -1.3596 2.2182
-4.8852 -1.4693 2.2182
-4.8520 -1.5782 2.2182
-4.8164 -1.6865 2.2182
-4.7784 -1.7939 2.2182
-4.7379 -1.9004 2.2182
-4.6951 -2.0060 2.2182
-4.6499 -2.1107 2.2182
-4.6024 -2.2143 2.2182
-4.5526 -2.3169 2.2182
-4.5004 -2.4183 2.2182
-4.4460 -2.5185 2.2182
-4.3894 -2.6175 2.2182
-4.3305 -2.7153 2.2182
-4.2695 -2.8117 2.2182
-4.2063 -2.9067 2.2182
-4.1410 -3.0003 2.2182
-4.0736 -3.0924 2.2182
-4.0041 -3.1830 2.2182
-3.9326 -3.2720 2.2182
-3.8592 -3.3594 2.2182
-3.7837 -3.4452 2.2182
-3.7064 -3.5292 2.2182
-3.6272 -3.6115 2.2182
-3.5461 -3.6920 2.2182
-3.4633 -3.7707 2.2182
-3.3787 -3.8475 2.2182
-3.2924 -3.9223 2.2182
-3.2044 -3.9953 2.2182
-3.1148 -4.0662 2.2182
-3.0237 -4.1352 2.2182
-2.9309 -4.2020 2.2182
-2.8368 -4.2668 2.2182
-2.7411 -4.3295 2.2182
-2.6441 -4.3900 2.2182
-2.5458 -4.4483 2.2182
-2.4461 -4.5043 2.2182
-2.3452 -4.5582 2.2182
-0.8192 -1.6834 0.8101
-0.7815 -1.7016 0.8101
-0.7435 -1.7189 0.8102
-0.7051 -1.7354 0.8103
-0.6663 -1.7509 0.8104
-0.6272 -1.7656 0.8104
-0.5877 -1.7794 0.8105
-0.5479 -1.7923 0.8106
-0.5079 -1.8043 0.8106
-0.4676 -1.8154 0.8107
-0.4270 -1.8255 0.8107
-0.3862 -1.8348 0.8107
-0.3452 -1.8431 0.8108
-0.3040 -1.8504 0.8108
-0.2627 -1.8569 0.8108
-0.2212 -1.8624 0.8109
-0.1796 -1.8669 0.8109
-0.1379 -1.8705 0.8109
-0.0962 -1.8732 0.8109
-0.0544 -1.8749 0.8109
-0.0126 -1.8756 0.8109
0.0293 -1.8755 0.8109
0.0711 -1.8743 0.8109
0.1129 -1.8722 0.8109
0.1546 -1.8692 0.8109
0.1963 -1.8652 0.8109
0.2378 -1.8602 0.8108
0.2792 -1.8544 0.8108
0.3205 -1.8475 0.8108
0.3616 -1.8398 0.8107
0.4025 -1.8311 0.8107
0.4432 -1.8215 0.8107
0.4837 -1.8109 0.8106
0.5239 -1.7995 0.8105
0.5639 -1.7871 0.8105
0.6035 -1.7739 0.8104
0.6428 -1.7597 0.8104
0.6818 -1.7447 0.8103
0.7205 -1.7288 0.8102
0.7587 -1.7120 0.8101
0.7966 -1.6943 0.8100
2.2840 -4.5894 2.2182
2.3857 -4.5369 2.2182
2.4861 -4.4822 2.2182
2.5852 -4.4252 2.2182
2.6831 -4.3660 2.2182
2.7795 -4.3047 2.2182
2.8746 -4.2412 2.2182
2.9682 -4.1755 2.2182
3.0603 -4.1078 2.2182
3.1509 -4.0381 2.2182
3.2398 -3.9664 2.2182
3.3271 -3.8926 2.2182
3.4127 -3.8170 2.2182
3.4966 -3.7394 2.2182
3.5787 -3.6600 2.2182
3.6591 -3.5788 2.2182
3.7375 -3.4958 2.2182
3.8141 -3.4111 2.2182
3.8887 -3.3246 2.2182
3.9614 -3.2366 2.2182
4.0321 -3.1469 2.2182
4.1008 -3.0557 2.2182
4.1673 -2.9630 2.2182
4.2318 -2.8689 2.2182
4.2941 -2.7733 2.2182
4.3543 -2.6763 2.2182
4.4123 -2.5781 2.2182
4.4680 -2.4786 2.2182
4.5215 -2.3779 2.2182
4.5727 -2.2760 2.2182
4.6216 -2.1730 2.2182
4.6683 -2.0689 2.2182
4.6935 -1.9560 2.2092
4.6968 -1.8354 2.1913
4.6999 -1.7167 2.1747
4.7028 -1.5997 2.1593
4.7054 -1.4842 2.1451
4.7078 -1.3702 2.1321
4.7100 -1.2575 2.1202
4.7120 -1.1459 2.1094
4.7138 -1.0355 2.0997
4.7154 -0.9260 2.0911
4.7168 -0.8173 2.0835
4.7204 -0.7098 2.0779
4.7246 -0.6028 2.0737
4.7281 -0.4963 2.0702
4.7308 -0.3900 2.0674
4.7337 -0.2839 2.0658
4.7380 -0.1781 2.0658
4.7400 -0.0722 2.0658
4.7395 0.0336 2.0658
4.7368 0.1395 2.0658
4.7322 0.2452 2.0660
4.7300 0.3512 2.0683
4.7270 0.4573 2.0713
4.7232 0.5637 2.0750
4.7187 0.6704 2.0795
4.7163 0.7779 2.0860
4.7149 0.8863 2.0939
4.7132 0.9955 2.1029
4.7113 1.1056 2.1129
4.7093 1.2167 2.1240
4.7070 1.3290 2.1362
4.7046 1.4425 2.1496
4.7019 1.5575 2.1641
4.6990 1.6739 2.1798
4.6958 1.7920 2.1967
4.6924 1.9119 2.2150
4.6545 2.0189 2.2182
4.6074 2.1220 2.2182
4.5582 2.2241 2.2182
4.5066 2.3250 2.2182
4.4528 2.4248 2.2182
4.3968 2.5233 2.2182
4.3387 2.6205 2.2182
4.2784 2.7164 2.2182
4.2160 2.8110 2.2182
4.1514 2.9041 2.2182
4.0849 2.9957 2.2182
4.0164 3.0858 2.2182
3.9458 3.1744 2.2182
3.8733 3.2613 2.2182
3.7990 3.3466 2.2182
3.7227 3.4303 2.2182
3.6447 3.5122 2.2182
3.5648 3.5923 2.2182
3.4831 3.6706 2.2182
3.3998 3.7471 2.2182
3.3148 3.8218 2.2182
3.2282 3.8945 2.2182
3.1399 3.9652 2.2182
3.0502 4.0340 2.2182
2.9589 4.1007 2.2182
2.8662 4.1654 2.2182
2.7721 4.2281 2.2182
2.6766 4.2886 2.2182
2.5798 4.3469 2.2182
2.4817 4.4031 2.2182
2.3825 4.4572 2.2182
0.8175 1.6152 0.7946
0.7810 1.6328 0.7945
0.7442 1.6496 0.7944
0.7070 1.6655 0.7944
0.6695 1.6806 0.7943
0.6316 1.6949 0.7942
0.5935 1.7084 0.7942
0.5551 1.7210 0.7941
0.5164 1.7328 0.7941
0.4774 1.7437 0.7940
0.4383 1.7538 0.7940
0.3989 1.7630 0.7939
0.3594 1.7713 0.7939
0.3196 1.7788 0.7939
0.2798 1.7854 0.7938
0.2398 1.7911 0.7938
0.1996 1.7959 0.7938
0.1594 1.7998 0.7938
0.1191 1.8029 0.7937
0.0788 1.8051 0.7937
0.0384 1.8064 0.7937
-0.0020 1.8068 0.7937
-0.0424 1.8063 0.7937
-0.0828 1.8049 0.7937
-0.1232 1.8027 0.7938
-0.1634 1.7995 0.7938
-0.2037 1.7955 0.7938
-0.2438 1.7906 0.7938
-0.2838 1.7848 0.7938
-0.3236 1.7781 0.7939
-0.3633 1.7706 0.7939
-0.4029 1.7622 0.7940
-0.4422 1.7529 0.7940
-0.4814 1.7428 0.7941
-0.5203 1.7318 0.7941
-0.5590 1.7199 0.7942
-0.5974 1.7072 0.7942
-0.6355 1.6937 0.7943
-0.6733 1.6793 0.7944
-0.7108 1.6641 0.7944
-0.7479 1.6480 0.7945
-0.7847 1.6312 0.7946
-0.8212 1.6135 0.7947
-2.3924 4.4518 2.2182
-2.4916 4.3976 2.2182
-2.5896 4.3412 2.2182
-2.6862 4.2826 2.2182
-2.7816 4.2219 2.2182
-2.8755 4.1591 2.2182
-2.9681 4.0941 2.2182
-3.0593 4.0272 2.2182
-3.1489 3.9582 2.2182
-3.2369 3.8873 2.2182
-3.3234 3.8144 2.2182
-3.4082 3.7396 2.2182
-3.4914 3.6629 2.2182
-3.5729 3.5844 2.2182
-3.6526 3.5040 2.2182
-3.7305 3.4220 2.2182
-3.8065 3.3382 2.2182
-3.8807 3.2527 2.2182
-3.9530 3.1656 2.2182
-4.0234 3.0769 2.2182
-4.0917 2.9866 2.2182
-4.1580 2.8948 2.2182
-4.2223 2.8016 2.2182
-4.2845 2.7069 2.2182
-4.3446 2.6109 2.2182
-4.4025 2.5135 2.2182
-4.4583 2.4149 2.2182
-4.5119 2.3150 2.2182
-4.5632 2.2139 2.2182
-4.6123 2.1118 2.2182
-4.6591 2.0085 2.2182
-4.7036 1.9042 2.2182
-4.7457 1.7989 2.2182
-4.7856 1.6927 2.2182
-4.8230 1.5856 2.2182
-4.8580 1.4777 2.2182
-4.8907 1.3690 2.2182
-4.9209 1.2597 2.2182
-4.9487 1.1496 2.2182
-4.9740 1.0389 2.2182
-4.9968 0.9277 2.2182
-5.0172 0.8160 2.2182
-5.0351 0.7039 2.2182
-5.0504 0.5913 2.2182
-5.0633 0.4784 2.2182
-5.0736 0.3653 2.2182
-5.0814 0.2519 2.2182
-5.0866 0.1384 2.2182
-5.0894 0.0248 2.2182
-5.0896 -0.0889 2.2182
-5.0872 -0.2026 2.2182
-5.0824 -0.3162 2.2182
-5.0749 -0.4297 2.2182
-5.0650 -0.5430 2.2182
-5.0525 -0.6561 2.2182
-5.0374 -0.7689 2.2182
-5.0199 -0.8814 2.2182
-4.9999 -0.9934 2.2182
-4.9773 -1.1050 2.2182
-4.9523 -1.2161 2.2182
-4.9247 -1.3266 2.2182
-4.8947 -1.4364 2.2182
-4.8622 -1.5456 2.2182
-4.8273 -1.6541 2.2182
-4.7900 -1.7617 2.2182
-4.7503 -1.8685 2.2182
-4.7082 -1.9744 2.2182
-4.6637 -2.0794 2.2182
-4.6169 -2.1833 2.2182
-4.5677 -2.2862 2.2182
-4.5163 -2.3880 2.2182
-4.4625 -2.4886 2.2182
-4.4066 -2.5880 2.2182
-4.3484 -2.6861 2.2182
-4.2880 -2.7829 2.2182
-4.2254 -2.8783 2.2182
-4.1608 -2.9724 2.2182
-4.0940 -3.0649 2.2182
-4.0251 -3.1560 2.2182
-3.9543 -3.2455 2.2182
-3.8814 -3.3334 2.2182
-3.8066 -3.4196 2.2182
-3.7298 -3.5042 2.2182
-3.6511 -3.5870 2.2182
-3.5706 -3.6680 2.2182
-3.4883 -3.7473 2.2182
-3.4043 -3.8246 2.2182
-3.3185 -3.9001 2.2182
-3.2310 -3.9736 2.2182
-3.1419 -4.0452 2.2182
-3.0512 -4.1147 2.2182
-2.9589 -4.1822 2.2182
-2.8652 -4.2476 2.2182
-2.7700 -4.3109 2.2182
-2.6733 -4.3720 2.2182
-2.5754 -4.4310 2.2182
-2.4761 -4.4878 2.2182
-2.3756 -4.5423 2.2182
-0.8304 -1.6778 0.8100
-0.7929 -1.6963 0.8101
-0.7550 -1.7138 0.8102
-0.7167 -1.7305 0.8103
-0.6780 -1.7463 0.8103
-0.6389 -1.7613 0.8104
-0.5996 -1.7754 0.8105
-0.5599 -1.7885 0.8105
-0.5199 -1.8008 0.8106
-0.4797 -1.8121 0.8106
-0.4392 -1.8226 0.8107
-0.3985 -1.8321 0.8107
-0.3575 -1.8407 0.8108
-0.3164 -1.8483 0.8108
-0.2751 -1.8550 0.8108
-0.2337 -1.8608 0.8109
-0.1921 -1.8657 0.8109
-0.1505 -1.8695 0.8109
-0.1087 -1.8725 0.8109
-0.0669 -1.8745 0.8109
-0.0251 -1.8755 0.8109
0.0167 -1.8756 0.8109
0.0586 -1.8748 0.8109
0.1004 -1.8729 0.8109
0.1421 -1.8702 0.8109
0.1838 -1.8665 0.8109
0.2254 -1.8618 0.8108
0.2668 -1.8562 0.8108
0.3081 -1.8497 0.8108
0.3493 -1.8422 0.8108
0.3903 -1.8338 0.8107
0.4310 -1.8245 0.8107
0.4716 -1.8142 0.8106
0.5119 -1.8030 0.8106
0.5519 -1.7909 0.8105
0.5916 -1.7779 0.8104
0.6311 -1.7641 0.8104
0.6702 -1.7493 0.8103
0.7089 -1.7336 0.8102
0.7473 -1.7171 0.8102
0.7853 -1.6997 0.8101
0.8228 -1.6814 0.8100
2.3553 -4.5529 2.2182
2.4561 -4.4988 2.2182
2.5556 -4.4425 2.2182
2.6538 -4.3840 2.2182
2.7507 -4.3233 2.2182
2.8462 -4.2604 2.2182
2.9402 -4.1954 2.2182
3.0328 -4.1284 2.2182
3.1238 -4.0592 2.2182
3.2133 -3.9881 2.2182
3.3011 -3.9149 2.2182
3.3872 -3.8399 2.2182
3.4716 -3.7629 2.2182
3.5543 -3.6840 2.2182
3.6352 -3.6033 2.2182
3.7142 -3.5209 2.2182
3.7913 -3.4367 2.2182
3.8666 -3.3507 2.2182
3.9398 -3.2632 2.2182
4.0111 -3.1740 2.2182
4.0804 -3.0833 2.2182
4.1476 -2.9910 2.2182
4.2127 -2.8973 2.2182
4.2757 -2.8021 2.2182
4.3365 -2.7056 2.2182
4.3951 -2.6077 2.2182
4.4515 -2.5086 2.2182
4.5057 -2.4082 2.2182
4.5576 -2.3067 2.2182
4.6072 -2.2040 2.2182
4.6545 -2.1003 2.2182
4.6925 -1.9925 2.2149
4.6958 -1.8714 2.1965
4.6990 -1.7521 2.1795
4.7019 -1.6346 2.1638
4.7046 -1.5187 2.1493
4.7071 -1.4042 2.1359
4.7094 -1.2911 2.1237
4.7114 -1.1793 2.1126
4.7133 -1.0685 2.1025
4.7149 -0.9587 2.0936
4.7164 -0.8498 2.0856
4.7190 -0.7419 2.0793
4.7234 -0.6349 2.0748
4.7271 -0.5282 2.0711
4.7301 -0.4218 2.0682
4.7319 -0.3157 2.0658
4.7369 -0.2099 2.0658
4.7396 -0.1040 2.0658
4.7399 0.0019 2.0658
4.7378 0.1077 2.0658
4.7334 0.2135 2.0658
4.7307 0.3194 2.0675
4.7279 0.4255 2.0703
4.7244 0.5318 2.0738
4.7202 0.6384 2.0781
4.7167 0.7455 2.0838
4.7153 0.8537 2.0914
4.7137 0.9626 2.1001
4.7119 1.0725 2.1098
4.7099 1.1833 2.1206
4.7077 1.2952 2.1325
4.7053 1.4083 2.1455
4.7027 1.5228 2.1596
4.6999 1.6388 2.1750
4.6968 1.7564 2.1915
4.6935 1.8757 2.2094
4.6681 1.9877 2.2182
4.6218 2.0912 2.2182
4.5732 2.1936 2.2182
4.5223 2.2949 2.2182
4.4692 2.3950 2.2182
4.4138 2.4939 2.2182
4.3563 2.5915 2.2182
4.2967 2.6878 2.2182
4.2349 2.7827 2.2182
4.1710 2.8763 2.2182
4.1051 2.9683 2.2182
4.0371 3.0589 2.2182
3.9672 3.1480 2.2182
3.8953 3.2354 2.2182
3.8215 3.3212 2.2182
3.7458 3.4053 2.2182
3.6682 3.4878 2.2182
3.5889 3.5685 2.2182
3.5078 3.6473 2.2182
3.4250 3.7244 2.2182
3.3405 3.7996 2.2182
3.2543 3.8729 2.2182
3.1666 3.9442 2.2182
3.0773 4.0136 2.2182
2.9864 4.0809 2.2182
2.8941 4.1462 2.2182
2.8004 4.2095 2.2182
2.7053 4.2706 2.2182
2.6090 4.3297 2.2182
2.5112 4.3865 2.2182
2.4123 4.4412 2.2182
0.8283 1.6098 0.7946
0.7920 1.6276 0.7945
0.7553 1.6446 0.7945
0.7182 1.6608 0.7944
0.6808 1.6762 0.7943
0.6430 1.6907 0.7942
0.6050 1.7045 0.7942
0.5666 1.7173 0.7941
0.5280 1.7294 0.7941
0.4891 1.7405 0.7940
0.4500 1.7509 0.7940
0.4108 1.7603 0.7939
0.3712 1.7689 0.7939
0.3316 1.7766 0.7939
0.2917 1.7835 0.7938
0.2518 1.7895 0.7938
0.2117 1.7945 0.7938
0.1715 1.7988 0.7938
0.1312 1.8021 0.7937
0.0909 1.8045 0.7937
0.0505 1.8061 0.7937
0.0101 1.8067 0.7937
-0.0303 1.8065 0.7937
-0.0707 1.8054 0.7937
-0.1111 1.8034 0.7938
-0.1514 1.8006 0.7938
-0.1916 1.7968 0.7938
-0.2317 1.7922 0.7938
-0.2718 1.7866 0.7938
-0.3117 1.7802 0.7939
-0.3515 1.7729 0.7939
-0.3910 1.7648 0.7939
-0.4304 1.7558 0.7940
-0.4697 1.7459 0.7940
-0.5086 1.7352 0.7941
-0.5474 1.7236 0.7941
-0.5859 1.7111 0.7942
-0.6241 1.6978 0.7943
-0.6620 1.6837 0.7943
-0.6996 1.6687 0.7944
-0.7368 1.6529 0.7945
-0.7737 1.6363 0.7946
-0.8103 1.6189 0.7946
-2.3625 4.4677 2.2182
-2.4620 4.4141 2.2182
-2.5603 4.3584 2.2182
-2.6573 4.3004 2.2182
-2.7531 4.2403 2.2182
-2.8475 4.1781 2.2182
-2.9405 4.1138 2.2182
-3.0320 4.0475 2.2182
-3.1221 3.9791 2.2182
-3.2107 3.9088 2.2182
-3.2976 3.8364 2.2182
-3.3830 3.7622 2.2182
-3.4666 3.6861 2.2182
-3.5486 3.6081 2.2182
-3.6288 3.5283 2.2182
-3.7073 3.4468 2.2182
-3.7839 3.3635 2.2182
-3.8587 3.2785 2.2182
-3.9315 3.1919 2.2182
-4.0024 3.1036 2.2182
-4.0714 3.0138 2.2182
-4.1384 2.9225 2.2182
-4.2032 2.8297 2.2182
-4.2661 2.7354 2.2182
-4.3268 2.6398 2.2182
-4.3854 2.5428 2.2182
-4.4418 2.4446 2.2182
-4.4960 2.3451 2.2182
-4.5480 2.2444 2.2182
-4.5978 2.1425 2.2182
-4.6453 2.0396 2.2182
-4.6905 1.9356 2.2182
-4.7333 1.8306 2.2182
-4.7739 1.7247 2.2182
-4.8120 1.6178 2.2182
-4.8478 1.5102 2.2182
-4.8812 1.4017 2.2182
-4.9121 1.2926 2.2182
-4.9406 1.1827 2.2182
-4.9667 1.0722 2.2182
-4.9902 0.9612 2.2182
-5.0114 0.8496 2.2182
-5.0300 0.7376 2.2182
-5.0461 0.6251 2.2182
-5.0597 0.5123 2.2182
-5.0708 0.3993 2.2182
-5.0793 0.2860 2.2182
-5.0853 0.1725 2.2182
-5.0888 0.0589 2.2182
-5.0898 -0.0548 2.2182
-5.0882 -0.1685 2.2182
-5.0841 -0.2822 2.2182
-5.0774 -0.3957 2.2182
-5.0682 -0.5091 2.2182
-5.0565 -0.6222 2.2182
-5.0422 -0.7351 2.2182
-5.0254 -0.8477 2.2182
-5.0061 -0.9599 2.2182
-4.9843 -1.0716 2.2182
-4.9600 -1.1828 2.2182
-4.9332 -1.2935 2.2182
-4.9040 -1.4035 2.2182
-4.8722 -1.5129 2.2182
-4.8381 -1.6216 2.2182
-4.8015 -1.7295 2.2182
-4.7625 -1.8366 2.2182
-4.7211 -1.9428 2.2182
-4.6773 -2.0480 2.2182
-4.6312 -2.1523 2.2182
-4.5827 -2.2555 2.2182
-4.5319 -2.3576 2.2182
-4.4789 -2.4585 2.2182
-4.4236 -2.5583 2.2182
-4.3661 -2.6568 2.2182
-4.3064 -2.7540 2.2182
-4.2445 -2.8499 2.2182
-4.1804 -2.9443 2.2182
-4.1143 -3.0373 2.2182
-4.0460 -3.1288 2.2182
-3.9758 -3.2188 2.2182
-3.9035 -3.3072 2.2182
-3.8292 -3.3939 2.2182
-3.7530 -3.4790 2.2182
-3.6749 -3.5623 2.2182
-3.5950 -3.6439 2.2182
-3.5132 -3.7237 2.2182
-3.4297 -3.8016 2.2182
-3.3444 -3.8777 2.2182
-3.2574 -3.9518 2.2182
-3.1688 -4.0239 2.2182
-3.0786 -4.0941 2.2182
-2.9867 -4.1622 2.2182
-2.8935 -4.2282 2.2182
-2.7987 -4.2921 2.2182
-2.7025 -4.3539 2.2182
-2.6049 -4.4135 2.2182
-2.5060 -4.4710 2.2182
-2.4059 -4.5261 2.2182
-0.8415 -1.6721 0.8100
-0.8042 -1.6908 0.8101
-0.7664 -1.7086 0.8102
-0.7282 -1.7256 0.8103
-0.6896 -1.7417 0.8103
-0.6507 -1.7569 0.8104
-0.6114 -1.7712 0.8105
-0.5718 -1.7847 0.8105
-0.5320 -1.7972 0.8106
-0.4918 -1.8088 0.8106
-0.4514 -1.8195 0.8107
-0.4107 -1.8293 0.8107
-0.3698 -1.8382 0.8108
-0.3288 -1.8461 0.8108
-0.2875 -1.8531 0.8108
-0.2461 -1.8592 0.8109
-0.2046 -1.8643 0.8109
-0.1630 -1.8685 0.8109
-0.1212 -1.8717 0.8109
-0.0795 -1.8740 0.8109
-0.0377 -1.8753 0.8109
0.0042 -1.8757 0.8109
0.0460 -1.8751 0.8109
0.0878 -1.8736 0.8109
0.1296 -1.8711 0.8109
0.1713 -1.8677 0.8109
0.2129 -1.8633 0.8109
0.2544 -1.8580 0.8108
0.2958 -1.8517 0.8108
0.3370 -1.8445 0.8108
0.3780 -1.8364 0.8107
0.4188 -1.8274 0.8107
0.4594 -1.8174 0.8106
0.4998 -1.8065 0.8106
0.5399 -1.7947 0.8105
0.5798 -1.7819 0.8105
0.6193 -1.7683 0.8104
0.6585 -1.7538 0.8103
0.6973 -1.7384 0.8103
0.7358 -1.7221 0.8102
0.7739 -1.7050 0.8101
0.8116 -1.6870 0.8100
2.3248 -4.5687 2.2182
2.4260 -4.5153 2.2182
2.5259 -4.4597 2.2182
2.6245 -4.4018 2.2182
2.7218 -4.3417 2.2182
2.8177 -4.2795 2.2182
2.9122 -4.2152 2.2182
3.0052 -4.1487 2.2182
3.0967 -4.0802 2.2182
3.1866 -4.0096 2.2182
3.2749 -3.9371 2.2182
3.3616 -3.8626 2.2182
3.4465 -3.7862 2.2182
3.5297 -3.7079 2.2182
3.6111 -3.6277 2.2182
3.6907 -3.5458 2.2182
3.7684 -3.4621 2.2182
3.8442 -3.3767 2.2182
3.9181 -3.2896 2.2182
3.9899 -3.2009 2.2182
4.0598 -3.1106 2.2182
4.1276 -3.0188 2.2182
4.1934 -2.9255 2.2182
4.2570 -2.8308 2.2182
4.3184 -2.7347 2.2182
4.3778 -2.6372 2.2182
4.4348 -2.5384 2.2182
4.4897 -2.4384 2.2182
4.5423 -2.3372 2.2182
4.5926 -2.2349 2.2182
4.6406 -2.1315 2.2182
4.6862 -2.0270 2.2182
4.6949 -1.9075 2.2019
4.6981 -1.7877 2.1845
4.7010 -1.6697 2.1684
4.7038 -1.5533 2.1535
4.7064 -1.4384 2.1398
4.7087 -1.3249 2.1272
4.7108 -1.2127 2.1158
4.7127 -1.1016 2.1054
4.7144 -0.9916 2.0961
4.7160 -0.8824 2.0879
4.7173 -0.7741 2.0807
4.7221 -0.6669 2.0761
4.7261 -0.5602 2.0722
4.7293 -0.4537 2.0690
4.7317 -0.3475 2.0665
4.7357 -0.2416 2.0658
4.7391 -0.1358 2.0658
4.7401 -0.0299 2.0658
4.7387 0.0760 2.0658
4.7350 0.1818 2.0658
4.7314 0.2876 2.0668
4.7288 0.3936 2.0694
4.7255 0.4999 2.0727
4.7215 0.6064 2.0767
4.7171 0.7132 2.0817
4.7158 0.8212 2.0890
4.7142 0.9299 2.0974
4.7125 1.0394 2.1068
4.7105 1.1499 2.1172
4.7084 1.2615 2.1288
4.7061 1.3743 2.1414
4.7035 1.4883 2.1553
4.7007 1.6039 2.1702
4.6977 1.7210 2.1864
4.6945 1.8398 2.2039
4.6816 1.9565 2.2182
4.6359 2.0603 2.2182
4.5880 2.1630 2.2182
4.5378 2.2646 2.2182
4.4853 2.3651 2.2182
4.4307 2.4643 2.2182
4.3738 2.5623 2.2182
4.3148 2.6591 2.2182
4.2536 2.7544 2.2182
4.1904 2.8484 2.2182
4.1251 2.9409 2.2182
4.0577 3.0319 2.2182
3.9884 3.1214 2.2182
3.9171 3.2093 2.2182
3.8438 3.2956 2.2182
3.7687 3.3803 2.2182
3.6917 3.4632 2.2182
3.6129 3.5444 2.2182
3.5323 3.6239 2.2182
3.4500 3.7015 2.2182
3.3660 3.7772 2.2182
3.2803 3.8511 2.2182
3.1931 3.9230 2.2182
3.1042 3.9930 2.2182
3.0138 4.0609 2.2182
2.9220 4.1269 2.2182
2.8287 4.1907 2.2182
2.7340 4.2525 2.2182
2.6380 4.3122 2.2182
2.5407 4.3697 2.2182
2.4422 4.4250 2.2182
0.8392 1.6043 0.7946
0.8029 1.6223 0.7946
0.7663 1.6396 0.7945
0.7293 1.6560 0.7944
0.6920 1.6717 0.7943
0.6544 1.6865 0.7943
0.6164 1.7004 0.7942
0.5781 1.7136 0.7941
0.5396 1.7258 0.7941
0.5008 1.7373 0.7940
0.4618 1.7479 0.7940
0.4226 1.7576 0.7939
0.3831 1.7664 0.7939
0.3435 1.7744 0.7939
0.3037 1.7815 0.7938
0.2638 1.7878 0.7938
0.2237 1.7931 0.7938
0.1835 1.7976 0.7938
0.1433 1.8012 0.7938
0.1030 1.8039 0.7937
0.0626 1.8057 0.7937
0.0222 1.8066 0.7937
-0.0182 1.8067 0.7937
-0.0586 1.8058 0.7937
-0.0990 1.8041 0.7937
-0.1393 1.8015 0.7938
-0.1795 1.7980 0.7938
-0.2197 1.7936 0.7938
-0.2598 1.7884 0.7938
-0.2997 1.7822 0.7939
-0.3395 1.7752 0.7939
-0.3792 1.7673 0.7939
-0.4187 1.7586 0.7940
-0.4579 1.7490 0.7940
-0.4970 1.7385 0.7941
-0.5358 1.7271 0.7941
-0.5744 1.7149 0.7942
-0.6126 1.7019 0.7942
-0.6506 1.6880 0.7943
-0.6883 1.6733 0.7944
-0.7257 1.6578 0.7945
-0.7627 1.6414 0.7945
-0.7994 1.6242 0.7946
-2.3324 4.4833 2.2182
-2.4323 4.4304 2.2182
-2.5310 4.3753 2.2182
-2.6283 4.3180 2.2182
-2.7245 4.2586 2.2182
-2.8193 4.1970 2.2182
-2.9127 4.1333 2.2182
-3.0048 4.0676 2.2182
-3.0953 3.9998 2.2182
-3.1843 3.9301 2.2182
-3.2717 3.8583 2.2182
-3.3575 3.7847 2.2182
-3.4417 3.7091 2.2182
-3.5242 3.6317 2.2182
-3.6050 3.5525 2.2182
-3.6840 3.4714 2.2182
-3.7611 3.3887 2.2182
-3.8364 3.3042 2.2182
-3.9099 3.2180 2.2182
-3.9814 3.1303 2.2182
-4.0509 3.0409 2.2182
-4.1185 2.9500 2.2182
-4.1840 2.8577 2.2182
-4.2474 2.7639 2.2182
-4.3088 2.6686 2.2182
-4.3680 2.5721 2.2182
-4.4251 2.4742 2.2182
-4.4800 2.3751 2.2182
-4.5327 2.2747 2.2182
-4.5831 2.1732 2.2182
-4.6313 2.0706 2.2182
-4.6772 1.9669 2.2182
-4.7207 1.8622 2.2182
-4.7619 1.7565 2.2182
-4.8008 1.6500 2.2182
-4.8373 1.5426 2.2182
-4.8714 1.4344 2.2182
-4.9031 1.3254 2.2182
-4.9323 1.2157 2.2182
-4.9591 1.1054 2.2182
-4.9834 0.9945 2.2182
-5.0053 0.8831 2.2182
-5.0246 0.7712 2.2182
-5.0415 0.6589 2.2182
-5.0559 0.5462 2.2182
-5.0677 0.4332 2.2182
-5.0770 0.3200 2.2182
-5.0838 0.2065 2.2182
-5.0881 0.0929 2.2182
-5.0898 -0.0207 2.2182
-5.0889 -0.1344 2.2182
-5.0856 -0.2481 2.2182
-5.0797 -0.3616 2.2182
-5.0713 -0.4751 2.2182
-5.0603 -0.5883 2.2182
-5.0468 -0.7013 2.2182
-5.0307 -0.8140 2.2182
-5.0122 -0.9263 2.2182
-4.9911 -1.0381 2.2182
-4.9676 -1.1495 2.2182
-4.9415 -1.2604 2.2182
-4.9130 -1.3706 2.2182
-4.8820 -1.4802 2.2182
-4.8486 -1.5891 2.2182
-4.8127 -1.6972 2.2182
-4.7744 -1.8046 2.2182
-4.7337 -1.9110 2.2182
-4.6907 -2.0165 2.2182
-4.6452 -2.1211 2.2182
-4.5975 -2.2246 2.2182
-4.5474 -2.3271 2.2182
-4.4950 -2.4284 2.2182
-4.4404 -2.5285 2.2182
-4.3836 -2.6274 2.2182
-4.3245 -2.7250 2.2182
-4.2633 -2.8212 2.2182
-4.1999 -2.9161 2.2182
-4.1343 -3.0096 2.2182
-4.0667 -3.1015 2.2182
-3.9971 -3.1920 2.2182
-3.9254 -3.2808 2.2182
-3.8517 -3.3681 2.2182
-3.7761 -3.4536 2.2182
-3.6985 -3.5375 2.2182
-3.6192 -3.6196 2.2182
-3.5379 -3.6999 2.2182
-3.4549 -3.7784 2.2182
-3.3702 -3.8550 2.2182
-3.2837 -3.9297 2.2182
-3.1955 -4.0025 2.2182
-3.1058 -4.0732 2.2182
-3.0145 -4.1419 2.2182
-2.9216 -4.2086 2.2182
-2.8273 -4.2732 2.2182
-2.7315 -4.3356 2.2182
-2.6343 -4.3959 2.2182
-2.5358 -4.4540 2.2182
-2.4360 -4.5098 2.2182
-2.3350 -4.5634 2.2182
-0.8154 -1.6853 0.8101
-0.7778 -1.7034 0.8102
-0.7397 -1.7206 0.8102
-0.7012 -1.7370 0.8103
-0.6624 -1.7524 0.8104
-0.6232 -1.7670 0.8104
-0.5838 -1.7807 0.8105
-0.5439 -1.7935 0.8106
-0.5039 -1.8054 0.8106
-0.4635 -1.8164 0.8107
-0.4229 -1.8265 0.8107
-0.3821 -1.8356 0.8108
-0.3411 -1.8438 0.8108
-0.2999 -1.8511 0.8108
-0.2586 -1.8575 0.8108
-0.2171 -1.8629 0.8109
-0.1755 -1.8673 0.8109
-0.1338 -1.8708 0.8109
-0.0920 -1.8734 0.8109
-0.0502 -1.8750 0.8109
-0.0084 -1.8757 0.8109
0.0335 -1.8754 0.8109
0.0753 -1.8741 0.8109
0.1171 -1.8720 0.8109
0.1588 -1.8688 0.8109
0.2004 -1.8647 0.8109
0.2420 -1.8597 0.8108
0.2834 -1.8537 0.8108
0.3246 -1.8468 0.8108
0.3657 -1.8390 0.8107
0.4066 -1.8302 0.8107
0.4473 -1.8205 0.8106
0.4877 -1.8098 0.8106
0.5279 -1.7983 0.8105
0.5678 -1.7859 0.8105
0.6075 -1.7725 0.8104
0.6467 -1.7583 0.8103
0.6857 -1.7431 0.8103
0.7243 -1.7271 0.8102
0.7625 -1.7102 0.8101
0.8003 -1.6925 0.8100
2.2942 -4.5842 2.2182
2.3957 -4.5315 2.2182
2.4961 -4.4766 2.2182
2.5951 -4.4194 2.2182
2.6928 -4.3600 2.2182
2.7891 -4.2984 2.2182
2.8840 -4.2347 2.2182
2.9775 -4.1689 2.2182
3.0694 -4.1010 2.2182
3.1598 -4.0310 2.2182
3.2486 -3.9591 2.2182
3.3358 -3.8851 2.2182
3.4212 -3.8093 2.2182
3.5049 -3.7316 2.2182
3.5869 -3.6520 2.2182
3.6670 -3.5706 2.2182
3.7453 -3.4874 2.2182
3.8217 -3.4025 2.2182
3.8961 -3.3159 2.2182
3.9686 -3.2277 2.2182
4.0391 -3.1379 2.2182
4.1075 -3.0465 2.2182
4.1739 -2.9537 2.2182
4.2381 -2.8594 2.2182
4.3002 -2.7636 2.2182
4.3602 -2.6666 2.2182
4.4179 -2.5682 2.2182
4.4735 -2.4686 2.2182
4.5268 -2.3677 2.2182
4.5777 -2.2657 2.2182
4.6264 -2.1626 2.2182
4.6728 -2.0585 2.2182
4.6939 -1.9438 2.2074
4.6971 -1.8235 2.1896
4.7002 -1.7049 2.1731
4.7030 -1.5880 2.1578
4.7056 -1.4727 2.1438
4.7080 -1.3588 2.1309
4.7102 -1.2463 2.1191
4.7122 -1.1348 2.1084
4.7139 -1.0245 2.0988
4.7155 -0.9151 2.0903
4.7169 -0.8065 2.0827
4.7208 -0.6990 2.0774
4.7250 -0.5922 2.0733
4.7284 -0.4856 2.0699
4.7311 -0.3793 2.0672
4.7342 -0.2733 2.0658
4.7383 -0.1675 2.0658
4.7401 -0.0616 2.0658
4.7394 0.0442 2.0658
4.7364 0.1500 2.0658
4.7320 0.2558 2.0662
4.7297 0.3618 2.0686
4.7266 0.4680 2.0716
4.7228 0.5744 2.0755
4.7183 0.6811 2.0800
4.7162 0.7887 2.0867
4.7147 0.8972 2.0948
4.7130 1.0064 2.1039
4.7111 1.1167 2.1140
4.7091 1.2279 2.1252
4.7068 1.3403 2.1375
4.7043 1.4540 2.1510
4.7016 1.5691 2.1656
4.6986 1.6857 2.1814
4.6955 1.8039 2.1985
4.6921 1.9240 2.2169
4.6499 2.0292 2.2182
4.6026 2.1323 2.2182
4.5531 2.2342 2.2182
4.5013 2.3351 2.2182
4.4473 2.4347 2.2182
4.3911 2.5331 2.2182
4.3327 2.6302 2.2182
4.2722 2.7260 2.2182
4.2096 2.8203 2.2182
4.1449 2.9133 2.2182
4.0782 3.0048 2.2182
4.0094 3.0947 2.2182
3.9387 3.1831 2.2182
3.8660 3.2699 2.2182
3.7914 3.3551 2.2182
3.7150 3.4385 2.2182
3.6367 3.5203 2.2182
3.5567 3.6002 2.2182
3.4749 3.6784 2.2182
3.3914 3.7547 2.2182
3.3062 3.8291 2.2182
3.2194 3.9016 2.2182
3.1310 3.9722 2.2182
3.0411 4.0408 2.2182
2.9497 4.1073 2.2182
2.8568 4.1718 2.2182
2.7626 4.2342 2.2182
2.6670 4.2945 2.2182
2.5700 4.3527 2.2182
2.4719 4.4086 2.2182
2.3724 4.4624 2.2182
0.8138 1.6170 0.7946
0.7773 1.6345 0.7945
0.7405 1.6512 0.7944
0.7032 1.6671 0.7944
0.6657 1.6821 0.7943
0.6278 1.6963 0.7942
0.5897 1.7097 0.7942
0.5512 1.7223 0.7941
0.5125 1.7339 0.7941
0.4735 1.7448 0.7940
0.4344 1.7548 0.7940
0.3950 1.7639 0.7939
0.3554 1.7721 0.7939
0.3157 1.7795 0.7938
0.2758 1.7860 0.7938
0.2357 1.7916 0.7938
0.1956 1.7963 0.7938
0.1554 1.8002 0.7938
0.1151 1.8032 0.7937
0.0747 1.8053 0.7937
0.0343 1.8065 0.7937
-0.0061 1.8068 0.7937
-0.0465 1.8062 0.7937
-0.0868 1.8047 0.7937
-0.1272 1.8024 0.7938
-0.1675 1.7992 0.7938
-0.2077 1.7950 0.7938
-0.2478 1.7900 0.7938
-0.2878 1.7842 0.7939
-0.3276 1.7774 0.7939
-0.3673 1.7698 0.7939
-0.4068 1.7613 0.7940
-0.4461 1.7519 0.7940
-0.4853 1.7417 0.7941
-0.5242 1.7306 0.7941
-0.5628 1.7187 0.7942
-0.6012 1.7059 0.7942
-0.6393 1.6923 0.7943
-0.6770 1.6778 0.7944
-0.7145 1.6625 0.7944
-0.7516 1.6464 0.7945
-0.7884 1.6295 0.7946
-0.8248 1.6117 0.7947
-2.4024 4.4465 2.2182
-2.5015 4.3921 2.2182
-2.5992 4.3354 2.2182
-2.6958 4.2766 2.2182
-2.7910 4.2157 2.2182
-2.8848 4.1527 2.2182
-2.9773 4.0875 2.2182
-3.0683 4.0204 2.2182
-3.1577 3.9512 2.2182
-3.2456 3.8801 2.2182
-3.3320 3.8070 2.2182
-3.4166 3.7320 2.2182
-3.4996 3.6551 2.2182
-3.5809 3.5764 2.2182
-3.6604 3.4959 2.2182
-3.7381 3.4137 2.2182
-3.8140 3.3297 2.2182
-3.8880 3.2440 2.2182
-3.9601 3.1568 2.2182
-4.0303 3.0679 2.2182
-4.0984 2.9775 2.2182
-4.1645 2.8855 2.2182
-4.2286 2.7922 2.2182
-4.2906 2.6974 2.2182
-4.3505 2.6012 2.2182
-4.4082 2.5037 2.2182
-4.4637 2.4049 2.2182
-4.5171 2.3049 2.2182
-4.5682 2.2038 2.2182
-4.6171 2.1015 2.2182
-4.6636 1.9981 2.2182
-4.7079 1.8937 2.2182
-4.7498 1.7883 2.2182
-4.7894 1.6820 2.2182
-4.8266 1.5749 2.2182
-4.8614 1.4669 2.2182
-4.8938 1.3581 2.2182
-4.9238 1.2487 2.2182
-4.9513 1.1386 2.2182
-4.9764 1.0278 2.2182
-4.9990 0.9166 2.2182
-5.0191 0.8048 2.2182
-5.0367 0.6926 2.2182
-5.0518 0.5800 2.2182
-5.0644 0.4671 2.2182
-5.0745 0.3540 2.2182
-5.0820 0.2406 2.2182
-5.0870 0.1270 2.2182
-5.0895 0.0134 2.2182
-5.0895 -0.1003 2.2182
-5.0869 -0.2140 2.2182
-5.0817 -0.3276 2.2182
-5.0740 -0.4411 2.2182
-5.0638 -0.5544 2.2182
-5.0511 -0.6674 2.2182
-5.0358 -0.7802 2.2182
-5.0180 -0.8926 2.2182
-4.9977 -1.0046 2.2182
-4.9749 -1.1161 2.2182
-4.9496 -1.2272 2.2182
-4.9218 -1.3376 2.2182
-4.8916 -1.4474 2.2182
-4.8589 -1.5565 2.2182
-4.8237 -1.6649 2.2182
-4.7862 -1.7725 2.2182
-4.7462 -1.8792 2.2182
-4.7038 -1.9850 2.2182
-4.6591 -2.0898 2.2182
-4.6121 -2.1937 2.2182
-4.5627 -2.2965 2.2182
-4.5110 -2.3981 2.2182
-4.4571 -2.4986 2.2182
-4.4009 -2.5978 2.2182
-4.3425 -2.6958 2.2182
-4.2818 -2.7925 2.2182
-4.2191 -2.8878 2.2182
-4.1542 -2.9817 2.2182
-4.0872 -3.0741 2.2182
-4.0181 -3.1650 2.2182
-3.9471 -3.2543 2.2182
-3.8740 -3.3421 2.2182
-3.7990 -3.4281 2.2182
-3.7220 -3.5125 2.2182
-3.6432 -3.5952 2.2182
-3.5625 -3.6760 2.2182
-3.4800 -3.7551 2.2182
-3.3958 -3.8323 2.2182
-3.3098 -3.9075 2.2182
-3.2221 -3.9809 2.2182
-3.1329 -4.0522 2.2182
-3.0420 -4.1215 2.2182
-2.9496 -4.1888 2.2182
-2.8557 -4.2540 2.2182
-2.7604 -4.3171 2.2182
-2.6636 -4.3780 2.2182
-2.5655 -4.4368 2.2182
-2.4661 -4.4933 2.2182
-2.3654 -4.5476 2.2182
-0.8266 -1.6797 0.8100
-0.7891 -1.6980 0.8101
-0.7512 -1.7155 0.8102
-0.7128 -1.7321 0.8103
-0.6741 -1.7479 0.8104
-0.6350 -1.7627 0.8104
-0.5956 -1.7767 0.8105
-0.5559 -1.7898 0.8105
-0.5159 -1.8020 0.8106
-0.4757 -1.8132 0.8107
-0.4351 -1.8236 0.8107
-0.3944 -1.8330 0.8107
-0.3534 -1.8415 0.8108
-0.3123 -1.8490 0.8108
-0.2710 -1.8557 0.8108
-0.2295 -1.8613 0.8109
-0.1880 -1.8661 0.8109
-0.1463 -1.8699 0.8109
-0.1045 -1.8727 0.8109
-0.0627 -1.8746 0.8109
-0.0209 -1.8756 0.8109
0.0209 -1.8756 0.8109
0.0628 -1.8746 0.8109
0.1046 -1.8727 0.8109
0.1463 -1.8699 0.8109
0.1880 -1.8660 0.8109
0.2295 -1.8613 0.8108
0.2710 -1.8556 0.8108
0.3123 -1.8490 0.8108
0.3534 -1.8414 0.8107
0.3944 -1.8329 0.8107
0.4351 -1.8235 0.8107
0.4756 -1.8131 0.8106
0.5159 -1.8019 0.8106
0.5559 -1.7897 0.8105
0.5956 -1.7766 0.8104
0.6350 -1.7626 0.8104
0.6741 -1.7478 0.8103
0.7128 -1.7320 0.8102
0.7511 -1.7154 0.8101
0.7890 -1.6979 0.8101
0.8266 -1.6796 0.8100
2.3654 -4.5476 2.2182
2.4661 -4.4933 2.2182
2.5655 -4.4368 2.2182
2.6636 -4.3780 2.2182
2.7604 -4.3171 2.2182
2.8557 -4.2540 2.2182
2.9496 -4.1888 2.2182
3.0420 -4.1215 2.2182
3.1329 -4.0522 2.2182
3.2222 -3.9809 2.2182
3.3098 -3.9075 2.2182
3.3958 -3.8322 2.2182
3.4800 -3.7551 2.2182
3.5625 -3.6760 2.2182
3.6432 -3.5952 2.2182
3.7220 -3.5125 2.2182
3.7989 -3.4281 2.2182
3.8740 -3.3421 2.2182
3.9471 -3.2543 2.2182
4.0181 -3.1650 2.2182
4.0872 -3.0741 2.2182
4.1542 -2.9817 2.2182
4.2191 -2.8878 2.2182
4.2818 -2.7925 2.2182
4.3424 -2.6958 2.2182
4.4009 -2.5978 2.2182
4.4570 -2.4986 2.2182
4.5110 -2.3981 2.2182
4.5627 -2.2964 2.2182
4.6120 -2.1937 2.2182
4.6591 -2.0898 2.2182
4.6928 -1.9803 2.2130
4.6962 -1.8594 2.1948
4.6993 -1.7403 2.1779
4.7022 -1.6229 2.1623
4.7049 -1.5072 2.1479
4.7073 -1.3929 2.1346
4.7096 -1.2799 2.1225
4.7116 -1.1682 2.1115
4.7134 -1.0575 2.1016
4.7151 -0.9478 2.0927
4.7165 -0.8390 2.0849
4.7194 -0.7312 2.0788
4.7238 -0.6242 2.0744
4.7274 -0.5175 2.0708
4.7303 -0.4112 2.0679
4.7325 -0.3051 2.0657
4.7373 -0.1993 2.0658
4.7398 -0.0934 2.0658
4.7398 0.0125 2.0658
4.7375 0.1183 2.0658
4.7329 0.2241 2.0658
4.7305 0.3300 2.0678
4.7276 0.4361 2.0707
4.7240 0.5424 2.0742
4.7197 0.6490 2.0786
4.7166 0.7563 2.0845
4.7152 0.8646 2.0922
4.7135 0.9736 2.1010
4.7117 1.0835 2.1108
4.7097 1.1944 2.1217
4.7075 1.3065 2.1337
4.7051 1.4197 2.1468
4.7024 1.5344 2.1611
4.6995 1.6505 2.1766
4.6965 1.7683 2.1933
4.6931 1.8878 2.2112
4.6636 1.9981 2.2182
4.6170 2.1015 2.2182
4.5682 2.2038 2.2182
4.5171 2.3049 2.2182
4.4637 2.4049 2.2182
4.4082 2.5037 2.2182
4.3505 2.6012 2.2182
4.2906 2.6974 2.2182
4.2286 2.7922 2.2182
4.1645 2.8855 2.2182
4.0984 2.9775 2.2182
4.0302 3.0679 2.2182
3.9601 3.1568 2.2182
3.8880 3.2441 2.2182
3.8140 3.3297 2.2182
3.7381 3.4137 2.2182
3.6604 3.4959 2.2182
3.5809 3.5764 2.2182
3.4996 3.6551 2.2182
3.4166 3.7320 2.2182
3.3319 3.8070 2.2182
3.2456 3.8801 2.2182
3.1577 3.9512 2.2182
3.0682 4.0204 2.2182
2.9773 4.0876 2.2182
2.8848 4.1527 2.2182
2.7910 4.2157 2.2182
2.6958 4.2766 2.2182
2.5992 4.3354 2.2182
2.5014 4.3921 2.2182
2.4024 4.4465 2.2182
0.8247 1.6116 0.7946
0.7883 1.6293 0.7945
0.7516 1.6463 0.7945
0.7145 1.6624 0.7944
0.6770 1.6777 0.7943
0.6392 1.6922 0.7942
0.6011 1.7058 0.7942
0.5628 1.7186 0.7941
0.5241 1.7305 0.7941
0.4852 1.7416 0.7940
0.4461 1.7518 0.7940
0.4068 1.7612 0.7939
0.3673 1.7697 0.7939
0.3276 1.7774 0.7939
0.2877 1.7841 0.7938
0.2478 1.7900 0.7938
0.2077 1.7950 0.7938
0.1675 1.7991 0.7938
0.1272 1.8024 0.7937
0.0868 1.8047 0.7937
0.0465 1.8062 0.7937
0.0061 1.8068 0.7937
-0.0344 1.8065 0.7937
-0.0747 1.8053 0.7937
-0.1151 1.8032 0.7938
-0.1554 1.8002 0.7938
-0.1956 1.7964 0.7938
-0.2357 1.7916 0.7938
-0.2758 1.7860 0.7938
-0.3157 1.7795 0.7939
-0.3554 1.7722 0.7939
-0.3950 1.7639 0.7939
-0.4344 1.7548 0.7940
-0.4736 1.7449 0.7940
-0.5125 1.7340 0.7941
-0.5512 1.7223 0.7941
-0.5897 1.7098 0.7942
-0.6279 1.6964 0.7943
-0.6657 1.6822 0.7943
-0.7033 1.6672 0.7944
-0.7405 1.6513 0.7945
-0.7774 1.6346 0.7946
-0.8139 1.6171 0.7947
-2.3725 4.4624 2.2182
-2.4719 4.4086 2.2182
-2.5701 4.3527 2.2182
-2.6670 4.2945 2.2182
-2.7626 4.2342 2.2182
-2.8569 4.1718 2.2182
-2.9497 4.1073 2.2182
-3.0411 4.0407 2.2182
-3.1310 3.9722 2.2182
-3.2195 3.9016 2.2182
-3.3063 3.8291 2.2182
-3.3914 3.7547 2.2182
-3.4749 3.6784 2.2182
-3.5567 3.6002 2.2182
-3.6368 3.5203 2.2182
-3.7151 3.4385 2.2182
-3.7915 3.3551 2.2182
-3.8661 3.2699 2.2182
-3.9387 3.1831 2.2182
-4.0094 3.0947 2.2182
-4.0782 3.0048 2.2182
-4.1449 2.9133 2.2182
-4.2096 2.8203 2.2182
-4.2722 2.7259 2.2182
-4.3328 2.6302 2.2182
-4.3911 2.5331 2.2182
-4.4473 2.4347 2.2182
-4.5013 2.3351 2.2182
-4.5531 2.2342 2.2182
-4.6026 2.1323 2.2182
-4.6499 2.0292 2.2182
-4.6949 1.9251 2.2182
-4.7375 1.8200 2.2182
-4.7778 1.7140 2.2182
-4.8157 1.6071 2.2182
-4.8512 1.4994 2.2182
-4.8843 1.3908 2.2182
-4.9150 1.2816 2.2182
-4.9433 1.1717 2.2182
-4.9691 1.0611 2.2182
-4.9925 0.9500 2.2182
-5.0133 0.8384 2.2182
-5.0317 0.7263 2.2182
-5.0475 0.6138 2.2182
-5.0609 0.5010 2.2182
-5.0717 0.3880 2.2182
-5.0800 0.2746 2.2182
-5.0858 0.1611 2.2182
-5.0890 0.0475 2.2182
-5.0898 -0.0662 2.2182
-5.0879 -0.1799 2.2182
-5.0835 -0.2935 2.2182
-5.0766 -0.4070 2.2182
-5.0672 -0.5204 2.2182
-5.0552 -0.6335 2.2182
-5.0407 -0.7464 2.2182
-5.0236 -0.8589 2.2182
-5.0040 -0.9711 2.2182
-4.9820 -1.0827 2.2182
-4.9575 -1.1939 2.2182
-4.9304 -1.3045 2.2182
-4.9009 -1.4145 2.2182
-4.8689 -1.5239 2.2182
-4.8345 -1.6325 2.2182
-4.7977 -1.7403 2.2182
-4.7584 -1.8472 2.2182
-4.7168 -1.9533 2.2182
-4.6728 -2.0585 2.2182
-4.6264 -2.1626 2.2182
-4.5777 -2.2657 2.2182
-4.5268 -2.3677 2.2182
-4.4735 -2.4686 2.2182
-4.4180 -2.5682 2.2182
-4.3602 -2.6666 2.2182
-4.3003 -2.7637 2.2182
-4.2382 -2.8594 2.2182
-4.1739 -2.9537 2.2182
-4.1075 -3.0465 2.2182
-4.0391 -3.1379 2.2182
-3.9686 -3.2277 2.2182
-3.8961 -3.3159 2.2182
-3.8217 -3.4025 2.2182
-3.7453 -3.4874 2.2182
-3.6670 -3.5706 2.2182
-3.5869 -3.6520 2.2182
-3.5050 -3.7315 2.2182
-3.4212 -3.8093 2.2182
-3.3358 -3.8851 2.2182
-3.2486 -3.9591 2.2182
-3.1599 -4.0310 2.2182
-3.0694 -4.1010 2.2182
-2.9775 -4.1689 2.2182
-2.8840 -4.2347 2.2182
-2.7891 -4.2984 2.2182
-2.6928 -4.3600 2.2182
-2.5951 -4.4194 2.2182
-2.4961 -4.4766 2.2182
-2.3958 -4.5315 2.2182
-0.8378 -1.6741 0.8100
-0.8004 -1.6926 0.8101
-0.7626 -1.7104 0.8102
-0.7244 -1.7272 0.8103
-0.6858 -1.7432 0.8103
-0.6468 -1.7584 0.8104
-0.6075 -1.7726 0.8105
-0.5679 -1.7860 0.8105
-0.5280 -1.7984 0.8106
-0.4878 -1.8099 0.8106
-0.4473 -1.8206 0.8107
-0.4066 -1.8303 0.8107
-0.3657 -1.8390 0.8108
-0.3246 -1.8469 0.8108
-0.2834 -1.8538 0.8108
-0.2420 -1.8597 0.8109
-0.2004 -1.8648 0.8109
-0.1588 -1.8688 0.8109
-0.1171 -1.8720 0.8109
-0.0753 -1.8742 0.8109
-0.0335 -1.8754 0.8109
0.0084 -1.8757 0.8109
0.0502 -1.8750 0.8109
0.0920 -1.8734 0.8109
0.1338 -1.8708 0.8109
0.1755 -1.8673 0.8109
0.2171 -1.8628 0.8109
0.2585 -1.8574 0.8108
0.2999 -1.8511 0.8108
0.3411 -1.8438 0.8108
0.3821 -1.8356 0.8107
0.4229 -1.8264 0.8107
0.4635 -1.8163 0.8106
0.5039 -1.8053 0.8106
0.5439 -1.7934 0.8105
