ply
format ascii 1.0
element vertex 2109
property float32 x
property float32 y
property float32 z
end_header
8.1618 14.6711 2.2753
7.8367 14.8578 2.2753
7.5072 15.0369 2.2753
7.1734 15.2085 2.2753
6.8355 15.3722 2.2753
6.4938 15.5281 2.2753
6.1484 15.6760 2.2753
5.7994 15.8158 2.2753
5.4472 15.9475 2.2753
5.0918 16.0709 2.2753
4.7336 16.1860 2.2753
4.3727 16.2927 2.2753
4.0092 16.3910 2.2753
3.6434 16.4807 2.2753
3.2755 16.5619 2.2753
2.9058 16.6344 2.2753
2.5344 16.6983 2.2753
2.1615 16.7534 2.2753
1.7874 16.7998 2.2753
1.4122 16.8373 2.2753
1.0363 16.8660 2.2753
0.6597 16.8860 2.2753
0.2828 16.8970 2.2753
-0.0943 16.8992 2.2753
-0.4714 16.8926 2.2753
-0.8481 16.8771 2.2753
-1.2244 16.8528 2.2753
-1.6000 16.8196 2.2753
-1.9746 16.7776 2.2753
-2.3481 16.7269 2.2753
-2.7203 16.6674 2.2753
-3.0909 16.5993 2.2753
-3.4598 16.5225 2.2753
-3.8312 16.4566 2.2780
-4.1961 16.3618 2.2779
-4.5585 16.2584 2.2778
-4.9184 16.1467 2.2777
-5.2754 16.0266 2.2776
-5.6293 15.8982 2.2775
-5.9800 15.7616 2.2774
-6.3273 15.6170 2.2773
-6.6709 15.4643 2.2772
-7.0107 15.3037 2.2771
-7.3466 15.1354 2.2770
-7.6782 14.9593 2.2769
-8.0055 14.7757 2.2769
-8.3282 14.5846 2.2768
-8.6462 14.3861 2.2767
-8.9593 14.1805 2.2766
-9.2673 13.9677 2.2765
-9.5702 13.7480 2.2764
-9.8676 13.5214 2.2764
-10.1596 13.2882 2.2763
-10.4458 13.0484 2.2762
-10.7262 12.8023 2.2762
-11.0007 12.5499 2.2761
-11.2690 12.2914 2.2760
-11.5311 12.0270 2.2760
-11.7868 11.7568 2.2759
-12.0361 11.4810 2.2758
-12.2787 11.1999 2.2758
-12.5146 10.9134 2.2757
-12.7436 10.6218 2.2757
-12.9657 10.3253 2.2756
-13.1807 10.0240 2.2756
-13.3886 9.7182 2.2755
-13.5892 9.4079 2.2755
-13.7825 9.0935 2.2754
-13.9683 8.7750 2.2754
-14.1497 8.4544 2.2758
-14.3245 8.1305 2.2764
-14.4805 7.7969 2.2753
-14.6362 7.4642 2.2753
-14.7841 7.1283 2.2753
-14.9242 6.7895 2.2753
-15.0564 6.4479 2.2753
-15.1807 6.1038 2.2753
-15.2971 5.7572 2.2753
-15.4054 5.4085 2.2753
-15.5057 5.0578 2.2753
-15.5979 4.7053 2.2753
-15.6821 4.3511 2.2753
-15.7582 3.9955 2.2753
-15.8261 3.6387 2.2753
-15.8860 3.2808 2.2753
-15.9377 2.9220 2.2753
-15.9813 2.5625 2.2753
-14.9439 2.0551 2.1229
-14.9694 1.7190 2.1229
-14.9874 1.3827 2.1229
-14.9978 1.0465 2.1229
-15.0007 0.7105 2.1229
-14.9961 0.3748 2.1229
-14.9841 0.0398 2.1229
-12.2059 -0.2403 1.7315
-12.2588 -0.5154 1.7422
-14.4074 -0.9285 2.0522
-14.3671 -1.2486 2.0522
-14.3198 -1.5675 2.0522
-14.2656 -1.8849 2.0522
-14.2044 -2.2007 2.0522
-14.1363 -2.5147 2.0522
-14.0613 -2.8268 2.0522
-13.9796 -3.1368 2.0522
-13.8911 -3.4446 2.0522
-13.7960 -3.7501 2.0522
-13.6943 -4.0530 2.0522
-13.5630 -4.3460 2.0487
-13.4714 -4.6510 2.0522
-13.3504 -4.9457 2.0522
-13.2230 -5.2374 2.0522
-11.6683 -4.9259 1.8294
-11.6692 -5.2365 1.8493
-11.6700 -5.5534 1.8705
-11.6709 -5.8771 1.8930
-11.5159 -6.1254 1.8915
-11.1871 -6.2751 1.8618
-10.8589 -6.4141 1.8323
-10.5333 -6.5436 1.8033
-10.2155 -6.6671 1.7756
-9.9051 -6.7849 1.7491
-9.7127 -6.9771 1.7438
-9.6934 -7.2970 1.7707
-9.3997 -7.4108 1.7484
-9.0923 -7.5039 1.7234
-8.7919 -7.5927 1.6996
-8.4983 -7.6772 1.6770
-8.2108 -7.7577 1.6554
-7.9283 -7.8335 1.6346
-7.6488 -7.9029 1.6142
-7.3751 -7.9690 1.5948
-7.1067 -8.0319 1.5763
-6.8434 -8.0918 1.5588
-6.5849 -8.1488 1.5420
-6.3309 -8.2030 1.5262
-6.0812 -8.2545 1.5110
-5.8354 -8.3034 1.4967
-5.5920 -8.3476 1.4826
-5.3523 -8.3894 1.4693
-5.1161 -8.4291 1.4567
-4.8833 -8.4666 1.4447
-4.6537 -8.5021 1.4334
-4.4270 -8.5356 1.4227
-4.2030 -8.5672 1.4126
-3.9817 -8.5969 1.4032
-3.7629 -8.6248 1.3943
-3.5463 -8.6510 1.3859
-3.3318 -8.6756 1.3781
-3.1193 -8.6984 1.3708
-2.9086 -8.7197 1.3640
-2.6996 -8.7393 1.3578
-2.4921 -8.7574 1.3520
-2.2861 -8.7740 1.3467
-2.0814 -8.7891 1.3419
-1.8777 -8.8025 1.3375
-1.6751 -8.8141 1.3335
-1.4735 -8.8243 1.3300
-1.2727 -8.8332 1.3269
-1.0726 -8.8408 1.3243
-0.8732 -8.8471 1.3222
-0.6742 -8.8521 1.3204
-0.4756 -8.8557 1.3192
-0.2773 -8.8582 1.3183
-0.0792 -8.8593 1.3179
0.1189 -8.8592 1.3180
0.3170 -8.8578 1.3185
0.5154 -8.8551 1.3194
0.7140 -8.8512 1.3208
0.9130 -8.8459 1.3226
1.1126 -8.8394 1.3248
1.3128 -8.8315 1.3275
1.5137 -8.8224 1.3307
1.7156 -8.8119 1.3343
1.9184 -8.8000 1.3384
2.1222 -8.7862 1.3428
2.3272 -8.7708 1.3477
2.5335 -8.7540 1.3531
2.7413 -8.7355 1.3590
2.9506 -8.7156 1.3654
3.1616 -8.6940 1.3722
3.3745 -8.6708 1.3796
3.5894 -8.6460 1.3875
3.8065 -8.6194 1.3960
4.0259 -8.5911 1.4050
4.2476 -8.5610 1.4146
4.4721 -8.5290 1.4248
4.6994 -8.4951 1.4356
4.9296 -8.4593 1.4470
5.1631 -8.4213 1.4591
5.3999 -8.3812 1.4719
5.6404 -8.3389 1.4854
5.8843 -8.2938 1.4995
6.1308 -8.2444 1.5140
6.2114 -7.9741 1.4885
6.3791 -7.8222 1.4854
6.6275 -7.7658 1.5015
6.8800 -7.7059 1.5182
7.1372 -7.6431 1.5357
7.3993 -7.5770 1.5541
7.6667 -7.5076 1.5735
7.9397 -7.4347 1.5937
8.2186 -7.3581 1.6150
8.4091 -7.1966 1.6191
8.4100 -6.8778 1.5880
8.4108 -6.5703 1.5587
8.4116 -6.2734 1.5311
8.4123 -5.9861 1.5052
8.4131 -5.7078 1.4808
8.4138 -5.4378 1.4579
8.4145 -5.1754 1.4363
8.4152 -4.9201 1.4160
8.6274 -4.7887 1.4319
10.7404 -5.6514 1.7596
10.7412 -5.3489 1.7380
10.7420 -5.0530 1.7177
10.7428 -4.7632 1.6987
10.7435 -4.4790 1.6809
10.7443 -4.2001 1.6642
10.7450 -3.9259 1.6487
10.7457 -3.6562 1.6341
10.7465 -3.3905 1.6206
10.7472 -3.1285 1.6081
10.7479 -2.8700 1.5965
10.7485 -2.6144 1.5859
10.7492 -2.3615 1.5761
10.7499 -2.1111 1.5672
10.7506 -1.8628 1.5591
10.7512 -1.6165 1.5519
10.7519 -1.3718 1.5455
10.7525 -1.1284 1.5399
10.7532 -0.8861 1.5351
8.8155 -0.5285 1.2551
10.1857 -0.3826 1.4470
10.1859 -0.1549 1.4445
10.1861 0.0726 1.4428
10.1862 0.3002 1.4418
10.1864 0.5281 1.4415
10.1866 0.7565 1.4420
10.1867 0.9857 1.4432
9.3979 1.1217 1.3331
14.9379 2.1223 2.1229
14.9033 2.4581 2.1229
15.9280 2.9938 2.2753
15.8746 3.3525 2.2753
15.8132 3.7102 2.2753
15.7436 4.0667 2.2753
15.6659 4.4221 2.2753
15.5801 4.7759 2.2753
15.4863 5.1281 2.2753
15.3843 5.4785 2.2753
15.2744 5.8268 2.2753
15.1565 6.1728 2.2753
15.0306 6.5165 2.2753
14.8968 6.8575 2.2753
14.7552 7.1957 2.2753
14.6057 7.5310 2.2753
14.4484 7.8631 2.2753
14.2835 8.1919 2.2753
14.1109 8.5170 2.2753
13.9308 8.8385 2.2753
13.7432 9.1560 2.2753
13.5482 9.4694 2.2753
13.3459 9.7786 2.2753
13.1364 10.0833 2.2753
12.9197 10.3833 2.2753
12.6959 10.6786 2.2753
12.4653 10.9689 2.2753
12.2278 11.2540 2.2753
11.9836 11.5337 2.2753
11.7328 11.8080 2.2753
11.4756 12.0767 2.2753
11.2120 12.3394 2.2753
10.9422 12.5962 2.2753
10.6663 12.8469 2.2753
10.3845 13.0913 2.2753
10.0969 13.3293 2.2753
9.8037 13.5606 2.2753
9.5050 13.7852 2.2753
9.2009 14.0030 2.2753
8.8917 14.2137 2.2753
8.5775 14.4173 2.2753
8.2585 14.6136 2.2753
7.9347 14.8025 2.2753
7.6065 14.9840 2.2753
7.2740 15.1578 2.2753
6.9373 15.3239 2.2753
6.5967 15.4821 2.2753
6.2524 15.6324 2.2753
5.9045 15.7747 2.2753
5.5532 15.9088 2.2753
5.1988 16.0348 2.2753
4.8414 16.1524 2.2753
4.4812 16.2616 2.2753
4.1184 16.3624 2.2753
3.7533 16.4547 2.2753
3.3861 16.5385 2.2753
3.0169 16.6136 2.2753
2.6459 16.6800 2.2753
2.2734 16.7378 2.2753
1.8997 16.7868 2.2753
1.5249 16.8270 2.2753
1.1492 16.8584 2.2753
0.7728 16.8809 2.2753
0.3959 16.8946 2.2753
0.0188 16.8995 2.2753
-0.3582 16.8955 2.2753
-0.7351 16.8827 2.2753
-1.1116 16.8610 2.2753
-1.4874 16.8305 2.2753
-1.8623 16.7912 2.2753
-2.2362 16.7431 2.2753
-2.6088 16.6862 2.2753
-2.9799 16.6206 2.2753
-3.3493 16.5464 2.2753
-3.7207 16.4806 2.2776
-4.0869 16.3911 2.2779
-4.4501 16.2903 2.2778
-4.8108 16.1811 2.2777
-5.1686 16.0634 2.2776
-5.5234 15.9376 2.2775
-5.8751 15.8034 2.2774
-6.2234 15.6612 2.2773
-6.5682 15.5110 2.2772
-6.9092 15.3528 2.2771
-7.2462 15.1867 2.2771
-7.5791 15.0129 2.2770
-7.9077 14.8316 2.2769
-8.2319 14.6427 2.2768
-8.5513 14.4464 2.2767
-8.8659 14.2429 2.2766
-9.1755 14.0323 2.2765
-9.4799 13.8146 2.2765
-9.7790 13.5901 2.2764
-10.0726 13.3588 2.2763
-10.3606 13.1211 2.2762
-10.6428 12.8768 2.2762
-10.9190 12.6262 2.2761
-11.1892 12.3696 2.2760
-11.4531 12.1070 2.2760
-11.7108 11.8385 2.2759
-11.9620 11.5644 2.2759
-12.2066 11.2848 2.2758
-12.4445 10.9999 2.2757
-12.6756 10.7098 2.2757
-12.8998 10.4148 2.2756
-13.1169 10.1149 2.2756
-13.3270 9.8104 2.2755
-13.5297 9.5015 2.2755
-13.7253 9.1883 2.2755
-13.9134 8.8709 2.2754
-14.0941 8.5497 2.2754
-14.2770 8.2304 2.2769
-14.4323 7.8961 2.2753
-14.5903 7.5643 2.2753
-14.7406 7.2294 2.2753
-14.8830 6.8914 2.2753
-15.0176 6.5506 2.2753
-15.1443 6.2072 2.2753
-15.2630 5.8615 2.2753
-15.3737 5.5134 2.2753
-15.4764 5.1632 2.2753
-15.5711 4.8112 2.2753
-15.6577 4.4575 2.2753
-15.7362 4.1023 2.2753
-15.8066 3.7458 2.2753
-15.8689 3.3882 2.2753
-15.9230 3.0297 2.2753
-15.9690 2.6704 2.2753
-16.0070 2.3106 2.2753
-14.9626 1.8198 2.1229
-14.9828 1.4835 2.1229
-14.9955 1.1473 2.1229
-15.0007 0.8112 2.1229
-14.9983 0.4754 2.1229
-14.9885 0.1402 2.1229
-14.4729 -0.1879 2.0522
-12.1577 -0.4296 1.7268
-14.4180 -0.8321 2.0522
-14.3799 -1.1527 2.0522
-14.3348 -1.4720 2.0522
-14.2826 -1.7898 2.0522
-14.2235 -2.1061 2.0522
-14.1574 -2.4207 2.0522
-14.0845 -2.7333 2.0522
-14.0048 -3.0440 2.0522
-13.9184 -3.3525 2.0522
-13.8252 -3.6587 2.0522
-13.7255 -3.9624 2.0522
-13.6192 -4.2636 2.0522
-13.5065 -4.5620 2.0522
-13.3873 -4.8576 2.0522
-13.2619 -5.1502 2.0522
-11.6681 -4.8340 1.8237
-11.6689 -5.1427 1.8432
-11.6698 -5.4576 1.8640
-11.6706 -5.7793 1.8861
-11.6161 -6.0791 1.9006
-11.2849 -6.2309 1.8706
-10.9582 -6.3741 1.8413
-10.6301 -6.5054 1.8118
-10.3100 -6.6307 1.7837
-9.9975 -6.7502 1.7569
-9.7218 -6.8853 1.7366
-9.6993 -7.2001 1.7624
-9.4935 -7.3820 1.7561
-9.1838 -7.4765 1.7308
-8.8814 -7.5665 1.7066
-8.5857 -7.6523 1.6837
-8.2964 -7.7340 1.6617
-8.0132 -7.8119 1.6409
-7.7320 -7.8824 1.6202
-7.4566 -7.9495 1.6005
-7.1866 -8.0134 1.5818
-6.9218 -8.0741 1.5639
-6.6619 -8.1320 1.5470
-6.4066 -8.1870 1.5308
-6.1557 -8.2393 1.5155
-5.9088 -8.2889 1.5009
-5.6647 -8.3346 1.4868
-5.4238 -8.3771 1.4732
-5.1866 -8.4174 1.4604
-4.9528 -8.4555 1.4482
-4.7223 -8.4916 1.4367
-4.4947 -8.5257 1.4259
-4.2700 -8.5579 1.4156
-4.0479 -8.5882 1.4059
-3.8283 -8.6167 1.3969
-3.6110 -8.6434 1.3883
-3.3959 -8.6684 1.3804
-3.1828 -8.6918 1.3729
-2.9716 -8.7135 1.3660
-2.7621 -8.7336 1.3596
-2.5542 -8.7522 1.3537
-2.3477 -8.7692 1.3482
-2.1427 -8.7848 1.3433
-1.9388 -8.7987 1.3388
-1.7358 -8.8108 1.3347
-1.5339 -8.8214 1.3310
-1.3329 -8.8307 1.3278
-1.1326 -8.8387 1.3251
-0.9329 -8.8453 1.3228
-0.7339 -8.8507 1.3209
-0.5352 -8.8548 1.3195
-0.3368 -8.8576 1.3185
-0.1386 -8.8591 1.3180
0.0594 -8.8594 1.3179
0.2576 -8.8583 1.3183
0.4558 -8.8561 1.3191
0.6544 -8.8525 1.3203
0.8533 -8.8476 1.3220
1.0527 -8.8415 1.3241
1.2527 -8.8340 1.3267
1.4534 -8.8252 1.3297
1.6550 -8.8152 1.3331
1.8574 -8.8037 1.3371
2.0610 -8.7906 1.3414
2.2656 -8.7756 1.3462
2.4715 -8.7592 1.3515
2.6788 -8.7412 1.3572
2.8876 -8.7217 1.3634
3.0981 -8.7006 1.3701
3.3105 -8.6779 1.3773
3.5247 -8.6536 1.3851
3.7411 -8.6276 1.3934
3.9598 -8.5998 1.4023
4.1808 -8.5702 1.4117
4.4045 -8.5388 1.4217
4.6309 -8.5055 1.4323
4.8602 -8.4702 1.4436
5.0927 -8.4329 1.4554
5.3286 -8.3935 1.4680
5.5679 -8.3519 1.4813
5.8110 -8.3080 1.4953
6.0564 -8.2594 1.5096
6.2037 -8.0755 1.4999
6.3051 -7.8384 1.4807
6.5526 -7.7832 1.4966
6.8037 -7.7242 1.5131
7.0595 -7.6623 1.5304
7.3201 -7.5972 1.5485
7.5859 -7.5288 1.5676
7.8572 -7.4569 1.5876
8.1343 -7.3815 1.6085
8.4088 -7.2946 1.6288
8.4097 -6.9722 1.5971
8.4105 -6.6614 1.5673
8.4113 -6.3614 1.5392
8.4121 -6.0713 1.5128
8.4129 -5.7904 1.4880
8.4136 -5.5179 1.4646
8.4143 -5.2533 1.4426
8.4150 -4.9960 1.4219
8.4921 -4.7884 1.4152
10.7402 -5.7436 1.7663
10.7410 -5.4389 1.7443
10.7418 -5.1411 1.7237
10.7426 -4.8495 1.7043
10.7433 -4.5637 1.6861
10.7441 -4.2833 1.6691
10.7448 -4.0077 1.6532
10.7455 -3.7367 1.6384
10.7462 -3.4699 1.6246
10.7470 -3.2068 1.6118
10.7476 -2.9472 1.5999
10.7483 -2.6907 1.5890
10.7490 -2.4371 1.5789
10.7497 -2.1859 1.5698
10.7504 -1.9371 1.5615
10.7510 -1.6902 1.5540
10.7517 -1.4450 1.5473
10.7523 -1.2012 1.5415
10.7530 -0.9587 1.5364
10.7536 -0.7171 1.5322
10.1857 -0.4510 1.4478
10.1859 -0.2232 1.4452
10.1860 0.0043 1.4433
10.1862 0.2319 1.4420
10.1864 0.4597 1.4416
10.1865 0.6879 1.4418
10.1867 0.9169 1.4427
10.1868 1.1467 1.4444
8.8595 1.1982 1.2583
14.9144 2.3574 2.1229
14.8745 2.6928 2.1229
15.8915 3.2450 2.2753
15.8325 3.6030 2.2753
15.7653 3.9599 2.2753
15.6900 4.3157 2.2753
15.6067 4.6700 2.2753
15.5152 5.0227 2.2753
15.4157 5.3736 2.2753
15.3082 5.7225 2.2753
15.1927 6.0692 2.2753
15.0692 6.4136 2.2753
14.9378 6.7555 2.2753
14.7985 7.0946 2.2753
14.6513 7.4307 2.2753
14.4964 7.7638 2.2753
14.3338 8.0936 2.2753
14.1635 8.4198 2.2753
13.9857 8.7424 2.2753
13.8003 9.0612 2.2753
13.6075 9.3758 2.2753
13.4074 9.6863 2.2753
13.2000 9.9924 2.2753
12.9854 10.2938 2.2753
12.7638 10.5906 2.2753
12.5352 10.8824 2.2753
12.2997 11.1690 2.2753
12.0575 11.4504 2.2753
11.8087 11.7264 2.2753
11.5534 11.9966 2.2753
11.2918 12.2612 2.2753
11.0238 12.5198 2.2753
10.7497 12.7724 2.2753
10.4697 13.0186 2.2753
10.1838 13.2585 2.2753
9.8922 13.4919 2.2753
9.5952 13.7185 2.2753
9.2927 13.9384 2.2753
8.9850 14.1512 2.2753
8.6723 14.3570 2.2753
8.3546 14.5556 2.2753
8.0323 14.7467 2.2753
7.7054 14.9304 2.2753
7.3742 15.1065 2.2753
7.0387 15.2749 2.2753
6.6993 15.4355 2.2753
6.3561 15.5882 2.2753
6.0092 15.7329 2.2753
5.6590 15.8694 2.2753
5.3055 15.9978 2.2753
4.9489 16.1179 2.2753
4.5896 16.2297 2.2753
4.2276 16.3331 2.2753
3.8631 16.4279 2.2753
3.4965 16.5142 2.2753
3.1278 16.5919 2.2753
2.7574 16.6610 2.2753
2.3854 16.7214 2.2753
2.0120 16.7730 2.2753
1.6374 16.8158 2.2753
1.2619 16.8499 2.2753
0.8857 16.8751 2.2753
0.5090 16.8915 2.2753
0.1319 16.8990 2.2753
-0.2452 16.8976 2.2753
-0.6221 16.8875 2.2753
-0.9987 16.8684 2.2753
-1.3747 16.8406 2.2753
-1.7499 16.8039 2.2753
-2.1242 16.7584 2.2753
-2.4972 16.7042 2.2753
-2.8687 16.6412 2.2753
-3.2386 16.5695 2.2753
-3.6080 16.4952 2.2761
-3.9774 16.4197 2.2779
-4.3414 16.3214 2.2778
-4.7028 16.2147 2.2777
-5.0615 16.0996 2.2776
-5.4173 15.9762 2.2775
-5.7700 15.8445 2.2774
-6.1194 15.7047 2.2774
-6.4652 15.5569 2.2773
-6.8073 15.4010 2.2772
-7.1456 15.2373 2.2771
-7.4797 15.0658 2.2770
-7.8097 14.8868 2.2769
-8.1351 14.7001 2.2768
-8.4559 14.5061 2.2767
-8.7720 14.3047 2.2767
-9.0831 14.0962 2.2766
-9.3891 13.8806 2.2765
-9.6898 13.6581 2.2764
-9.9851 13.4290 2.2763
-10.2748 13.1931 2.2763
-10.5587 12.9507 2.2762
-10.8368 12.7021 2.2761
-11.1088 12.4472 2.2761
-11.3746 12.1864 2.2760
-11.6342 11.9196 2.2759
-11.8873 11.6472 2.2759
-12.1339 11.3692 2.2758
-12.3738 11.0859 2.2758
-12.6070 10.7974 2.2757
-12.8333 10.5038 2.2757
-13.0525 10.2053 2.2756
-13.2647 9.9022 2.2756
-13.4697 9.5946 2.2755
-13.6674 9.2827 2.2755
-13.8577 8.9666 2.2754
-14.0406 8.6465 2.2754
-14.2229 8.3266 2.2764
-14.3834 7.9950 2.2753
-14.5437 7.6642 2.2753
-14.6963 7.3302 2.2753
-14.8411 6.9931 2.2753
-14.9780 6.6532 2.2753
-15.1071 6.3106 2.2753
-15.2282 5.9654 2.2753
-15.3413 5.6180 2.2753
-15.4465 5.2684 2.2753
-15.5436 4.9170 2.2753
-15.6326 4.5638 2.2753
-15.7135 4.2090 2.2753
-15.7863 3.8529 2.2753
-15.8510 3.4956 2.2753
-15.9076 3.1374 2.2753
-15.9561 2.7783 2.2753
-15.9964 2.4186 2.2753
-14.9550 1.9206 2.1229
-14.9775 1.5844 2.1229
-14.9925 1.2482 2.1229
-14.9999 0.9120 2.1229
-14.9998 0.5762 2.1229
-14.9922 0.2407 2.1229
-14.4787 -0.0909 2.0522
-12.1450 -0.3476 1.7240
-14.4281 -0.7358 2.0522
-14.3921 -1.0567 2.0522
-14.3491 -1.3764 2.0522
-14.2990 -1.6947 2.0522
-14.2419 -2.0114 2.0522
-14.1779 -2.3265 2.0522
-14.1071 -2.6398 2.0522
-14.0294 -2.9510 2.0522
-13.9450 -3.2602 2.0522
-13.8539 -3.5670 2.0522
-13.7561 -3.8715 2.0522
-13.6518 -4.1735 2.0522
-13.5410 -4.4727 2.0522
-13.4238 -4.7692 2.0522
-13.3002 -5.0627 2.0522
-11.6679 -4.7425 1.8181
-11.6687 -5.0494 1.8372
-11.6695 -5.3625 1.8576
-11.6704 -5.6820 1.8793
-11.6712 -6.0087 1.9025
-11.3834 -6.1861 1.8794
-11.0576 -6.3331 1.8503
-10.7276 -6.4667 1.8205
-10.4052 -6.5938 1.7920
-10.0904 -6.7149 1.7648
-9.7837 -6.8311 1.7390
-9.7051 -7.1040 1.7544
-9.5878 -7.3528 1.7640
-9.2760 -7.4486 1.7383
-8.9714 -7.5399 1.7138
-8.6737 -7.6270 1.6904
-8.3826 -7.7099 1.6682
-8.0975 -7.7889 1.6470
-7.8158 -7.8617 1.6263
-7.5386 -7.9297 1.6063
-7.2671 -7.9946 1.5873
-7.0008 -8.0562 1.5692
-6.7394 -8.1149 1.5520
-6.4827 -8.1708 1.5356
-6.2305 -8.2239 1.5200
-5.9824 -8.2743 1.5052
-5.7376 -8.3214 1.4910
-5.4957 -8.3646 1.4772
-5.2574 -8.4055 1.4642
-5.0226 -8.4443 1.4518
-4.7911 -8.4810 1.4401
-4.5626 -8.5157 1.4291
-4.3371 -8.5484 1.4186
-4.1142 -8.5793 1.4088
-3.8939 -8.6083 1.3995
-3.6760 -8.6355 1.3908
-3.4602 -8.6611 1.3827
-3.2466 -8.6849 1.3751
-3.0348 -8.7071 1.3680
-2.8248 -8.7277 1.3615
-2.6164 -8.7467 1.3554
-2.4096 -8.7642 1.3498
-2.2041 -8.7802 1.3447
-1.9998 -8.7947 1.3401
-1.7966 -8.8073 1.3358
-1.5944 -8.8183 1.3321
-1.3931 -8.8280 1.3287
-1.1926 -8.8364 1.3258
-0.9928 -8.8435 1.3234
-0.7935 -8.8492 1.3214
-0.5947 -8.8537 1.3199
-0.3963 -8.8569 1.3188
-0.1981 -8.8588 1.3181
0.0000 -8.4455 1.4514
0.1889 -8.4448 1.4517
0.3778 -8.4427 1.4523
0.5670 -8.4391 1.4535
0.7564 -8.4341 1.4550
0.9463 -8.4277 1.4571
1.1366 -8.4199 1.4596
1.3274 -8.4106 1.4626
1.5189 -8.3998 1.4660
1.7112 -8.3875 1.4699
1.9044 -8.3737 1.4743
2.0985 -8.3584 1.4792
2.2937 -8.3415 1.4846
2.4901 -8.3231 1.4904
2.6877 -8.3029 1.4968
2.8864 -8.2801 1.5035
3.0866 -8.2555 1.5107
3.2882 -8.2291 1.5185
3.4916 -8.2009 1.5267
3.6967 -8.1708 1.5356
3.9037 -8.1388 1.5450
4.1128 -8.1048 1.5549
4.3240 -8.0688 1.5655
4.5375 -8.0306 1.5767
4.7535 -7.9903 1.5885
4.9721 -7.9478 1.6010
5.1934 -7.9030 1.6142
5.4177 -7.8558 1.6280
5.6447 -7.8057 1.6425
5.8733 -7.7508 1.6572
6.1050 -7.6931 1.6727
6.2065 -7.4717 1.6533
6.3075 -7.2569 1.6356
6.5376 -7.1904 1.6521
6.7716 -7.1213 1.6696
7.0093 -7.0488 1.6878
7.2509 -6.9729 1.7069
7.4967 -6.8934 1.7268
7.7455 -6.8091 1.7474
7.9946 -6.7173 1.7680
8.2479 -6.6214 1.7896
8.4111 -6.4487 1.7919
8.4119 -6.1557 1.7610
8.4126 -5.8721 1.7319
8.4134 -5.5973 1.7046
8.4141 -5.3304 1.6788
8.4148 -5.0709 1.6546
8.4155 -4.8183 1.6318
10.7399 -5.8344 2.0550
10.7407 -5.5277 2.0294
10.7415 -5.2279 2.0052
10.7423 -4.9345 1.9826
10.7431 -4.6470 1.9614
10.7438 -4.3650 1.9415
10.7446 -4.0881 1.9230
10.7453 -3.8158 1.9057
10.7460 -3.5477 1.8896
10.7467 -3.2836 1.8746
10.7474 -3.0230 1.8608
10.7481 -2.7656 1.8480
10.7488 -2.5111 1.8363
10.7495 -2.2593 1.8257
10.7502 -2.0098 1.8160
10.7508 -1.7624 1.8073
10.7515 -1.5167 1.7996
10.7521 -1.2725 1.7928
10.7528 -1.0296 1.7869
10.7534 -0.7878 1.7819
8.8157 -0.4481 1.4574
9.9009 -0.2818 1.6338
9.9011 -0.0606 1.6316
9.9012 0.1606 1.6302
9.9014 0.3819 1.6297
9.9016 0.6036 1.6299
9.9017 0.8259 1.6310
9.9019 1.0491 1.6329
8.8594 1.1392 1.4634
12.8236 1.9410 2.1229
12.7893 2.2290 2.1229
12.7485 2.5164 2.1229
13.6130 3.0043 2.2753
13.5554 3.3107 2.2753
13.4908 3.6159 2.2753
13.4193 3.9199 2.2753
13.3409 4.2224 2.2753
13.2556 4.5235 2.2753
13.1634 4.8227 2.2753
13.0644 5.1201 2.2753
12.9586 5.4153 2.2753
12.8468 5.7084 2.2753
12.7268 5.9991 2.2753
12.6008 6.2872 2.2753
12.4682 6.5727 2.2753
12.3290 6.8553 2.2753
12.1833 7.1349 2.2753
12.0312 7.4113 2.2753
11.8727 7.6844 2.2753
11.7078 7.9540 2.2753
11.5367 8.2200 2.2753
11.3594 8.4822 2.2753
11.1761 8.7405 2.2753
10.9867 8.9947 2.2753
10.7914 9.2447 2.2753
10.5903 9.4903 2.2753
10.3834 9.7314 2.2753
10.1710 9.9679 2.2753
9.9529 10.1995 2.2753
9.7295 10.4262 2.2753
9.5008 10.6479 2.2753
9.2669 10.8643 2.2753
9.0279 11.0755 2.2753
8.7839 11.2811 2.2753
8.5352 11.4813 2.2753
8.2817 11.6757 2.2753
8.0237 11.8644 2.2753
7.7612 12.0471 2.2753
7.4945 12.2237 2.2753
7.2236 12.3942 2.2753
6.9486 12.5585 2.2753
6.6698 12.7165 2.2753
6.3874 12.8680 2.2753
6.1013 13.0130 2.2753
5.8119 13.1513 2.2753
5.5192 13.2830 2.2753
5.2234 13.4078 2.2753
4.9247 13.5258 2.2753
4.6233 13.6368 2.2753
4.3192 13.7409 2.2753
4.0127 13.8378 2.2753
3.7040 13.9276 2.2753
3.3932 14.0103 2.2753
3.0805 14.0857 2.2753
2.7660 14.1538 2.2753
2.4500 14.2145 2.2753
2.1326 14.2679 2.2753
1.8140 14.3139 2.2753
1.4944 14.3525 2.2753
1.1739 14.3836 2.2753
0.8528 14.4072 2.2753
0.5312 14.4234 2.2753
0.2093 14.4320 2.2753
-0.1127 14.4331 2.2753
-0.4347 14.4267 2.2753
-0.7564 14.4129 2.2753
-1.0777 14.3915 2.2753
-1.3984 14.3626 2.2753
-1.7190 14.3318 2.2761
-2.0401 14.3035 2.2786
-2.3583 14.2517 2.2785
-2.6751 14.1925 2.2784
-2.9904 14.1259 2.2783
-3.3039 14.0521 2.2782
-3.6156 13.9710 2.2782
-3.9252 13.8827 2.2781
-4.2326 13.7872 2.2780
-4.5376 13.6847 2.2779
-4.8400 13.5751 2.2778
-5.1397 13.4586 2.2777
-5.4365 13.3352 2.2777
-5.7303 13.2050 2.2776
-6.0208 13.0680 2.2775
-6.3080 12.9245 2.2774
-6.5916 12.7744 2.2774
-6.8715 12.6178 2.2773
-7.1476 12.4549 2.2772
-7.4197 12.2857 2.2771
-7.6877 12.1103 2.2771
-7.9515 11.9289 2.2770
-8.2108 11.7416 2.2769
-8.4656 11.5484 2.2769
-8.7158 11.3495 2.2768
-8.9611 11.1451 2.2767
-9.2015 10.9351 2.2767
-9.4368 10.7198 2.2766
-9.6671 10.4993 2.2766
-9.8919 10.2737 2.2765
-10.1115 10.0431 2.2765
-10.3255 9.8078 2.2764
-10.5339 9.5678 2.2764
-10.7367 9.3232 2.2763
-10.9336 9.0742 2.2763
-11.1246 8.8209 2.2762
-11.3097 8.5636 2.2762
-11.4886 8.3023 2.2761
-11.6615 8.0372 2.2761
-11.8417 7.7774 2.2787
-12.0091 7.5091 2.2800
-12.1703 7.2372 2.2813
-12.3254 6.9618 2.2826
-12.4742 6.6830 2.2839
-12.6167 6.4011 2.2852
-12.7527 6.1161 2.2866
-12.8823 5.8281 2.2879
-13.0053 5.5375 2.2893
-13.1171 5.2423 2.2899
-13.1764 4.9278 2.2825
-13.2467 4.6197 2.2784
-13.3212 4.3146 2.2761
-13.3972 4.0110 2.2754
-13.4701 3.7072 2.2753
-13.5368 3.4023 2.2753
-13.5964 3.0963 2.2753
-13.6492 2.7893 2.2753
-13.6950 2.4815 2.2753
-13.7339 2.1730 2.2753
-12.8599 1.7413 2.1255
-12.8926 1.4533 2.1271
-12.9227 1.1652 2.1293
-12.9504 0.8766 2.1321
-12.9832 0.5879 2.1369
-13.0044 0.2981 2.1408
-12.4573 0.0072 2.0522
-12.1808 -0.2650 2.0091
-12.4213 -0.5480 2.0522
-12.3940 -0.8245 2.0522
-12.3607 -1.1001 2.0522
-12.3212 -1.3746 2.0522
-12.2758 -1.6479 2.0522
-12.2243 -1.9199 2.0522
-12.1669 -2.1904 2.0522
-12.1035 -2.4593 2.0522
-12.0343 -2.7266 2.0522
-11.9593 -2.9919 2.0522
-11.8785 -3.2554 2.0522
-11.7920 -3.5167 2.0522
-11.6998 -3.7758 2.0522
-11.6021 -4.0326 2.0522
-11.4988 -4.2870 2.0522
-11.4722 -4.5716 2.0670
-11.4730 -4.8717 2.0881
-11.2350 -5.0699 2.0667
-10.9697 -5.2483 2.0407
-10.7016 -5.4171 2.0145
-10.4273 -5.5744 1.9875
-10.1573 -5.7255 1.9616
-9.8894 -5.8695 1.9363
-9.7145 -6.0633 1.9297
-9.6990 -6.3591 1.9559
-9.5258 -6.5546 1.9516
-9.2470 -6.6721 1.9260
-8.9732 -6.7846 1.9015
-8.7004 -6.8893 1.8773
-8.4299 -6.9872 1.8535
-8.1643 -7.0808 1.8308
-7.9035 -7.1703 1.8090
-7.6470 -7.2558 1.7883
-7.3942 -7.3368 1.7682
-7.1423 -7.4110 1.7483
-6.8947 -7.4818 1.7294
-6.6511 -7.5493 1.7112
-6.4113 -7.6138 1.6940
-6.1752 -7.6752 1.6775
-5.9425 -7.7338 1.6618
-5.7130 -7.7896 1.6468
-5.4856 -7.8412 1.6323
-5.2604 -7.8891 1.6182
-5.0382 -7.9346 1.6049
-4.8188 -7.9779 1.5922
-4.6021 -8.0188 1.5802
-4.3878 -8.0576 1.5688
-4.1759 -8.0942 1.5581
-3.9662 -8.1288 1.5479
-3.7586 -8.1614 1.5383
-3.5529 -8.1921 1.5293
-3.3491 -8.2209 1.5209
-3.1469 -8.2478 1.5130
-2.9463 -8.2729 1.5056
-2.7472 -8.2963 1.4988
-2.5493 -8.3173 1.4923
-2.3525 -8.3362 1.4863
-2.1570 -8.3535 1.4808
-1.9625 -8.3693 1.4757
-1.7691 -8.3835 1.4712
-1.5765 -8.3963 1.4671
-1.3848 -8.4075 1.4636
-1.1938 -8.4172 1.4604
-1.0033 -8.4255 1.4578
-0.8133 -8.4324 1.4556
-0.6238 -8.4378 1.4539
-0.4346 -8.4417 1.4526
-0.2456 -8.4443 1.4518
-0.0567 -8.4454 1.4514
0.1322 -8.4452 1.4515
0.3211 -8.4435 1.4521
0.5102 -8.4403 1.4531
0.6996 -8.4358 1.4545
0.8893 -8.4298 1.4564
1.0794 -8.4224 1.4588
1.2701 -8.4135 1.4616
1.4614 -8.4031 1.4649
1.6534 -8.3913 1.4687
1.8463 -8.3780 1.4729
2.0402 -8.3632 1.4777
2.2350 -8.3467 1.4829
2.4311 -8.3288 1.4886
2.6284 -8.3093 1.4949
2.8267 -8.2871 1.5014
3.0264 -8.2631 1.5085
3.2276 -8.2372 1.5161
3.4304 -8.2096 1.5242
3.6349 -8.1800 1.5329
3.8414 -8.1486 1.5421
4.0498 -8.1152 1.5519
4.2604 -8.0798 1.5623
4.4732 -8.0423 1.5733
4.6884 -8.0027 1.5849
4.9062 -7.9608 1.5972
5.1267 -7.9167 1.6101
5.3501 -7.8702 1.6238
5.5765 -7.8213 1.6381
5.8044 -7.7676 1.6527
6.0352 -7.7107 1.6680
6.1996 -7.5661 1.6653
6.2393 -7.2764 1.6309
6.4681 -7.2106 1.6471
6.7010 -7.1424 1.6643
6.9376 -7.0709 1.6822
7.1780 -6.9961 1.7011
7.4225 -6.9177 1.7207
7.6712 -6.8356 1.7413
7.9194 -6.7453 1.7618
8.1715 -6.6506 1.7830
8.4109 -6.5385 1.8016
8.4117 -6.2426 1.7701
8.4124 -5.9563 1.7405
8.4132 -5.6788 1.7126
8.4139 -5.4096 1.6864
8.4146 -5.1480 1.6617
8.4153 -4.8934 1.6385
10.7397 -5.9279 2.0631
10.7405 -5.6189 2.0369
10.7413 -5.3171 2.0123
10.7421 -5.0218 1.9892
10.7429 -4.7327 1.9676
10.7436 -4.4491 1.9473
10.7444 -4.1706 1.9284
10.7451 -3.8970 1.9107
10.7458 -3.6277 1.8943
10.7465 -3.3624 1.8790
10.7472 -3.1008 1.8648
10.7479 -2.8425 1.8517
10.7486 -2.5872 1.8397
10.7493 -2.3346 1.8288
10.7500 -2.0844 1.8188
10.7506 -1.8364 1.8098
10.7513 -1.5902 1.8018
10.7519 -1.3456 1.7947
10.7526 -1.1024 1.7885
10.7532 -0.8602 1.7833
8.8156 -0.5074 1.4583
9.9009 -0.3482 1.6346
9.9010 -0.1269 1.6322
9.9012 0.0942 1.6306
9.9013 0.3155 1.6298
9.9015 0.5371 1.6298
9.9017 0.7592 1.6306
9.9018 0.9821 1.6323
9.4663 1.1529 1.5628
12.8326 1.8545 2.1229
12.8003 2.1427 2.1229
12.7614 2.4302 2.1229
13.6289 2.9122 2.2753
13.5734 3.2189 2.2753
13.5109 3.5244 2.2753
13.4415 3.8289 2.2753
13.3652 4.1319 2.2753
13.2819 4.4333 2.2753
13.1918 4.7331 2.2753
13.0948 5.0311 2.2753
12.9911 5.3270 2.2753
12.8805 5.6208 2.2753
12.7633 5.9121 2.2753
12.6393 6.2011 2.2753
12.5086 6.4874 2.2753
12.3715 6.7709 2.2753
12.2277 7.0514 2.2753
12.0775 7.3287 2.2753
11.9209 7.6029 2.2753
11.7579 7.8736 2.2753
11.5887 8.1406 2.2753
11.4133 8.4040 2.2753
11.2317 8.6635 2.2753
11.0441 8.9189 2.2753
10.8506 9.1701 2.2753
10.6512 9.4171 2.2753
10.4461 9.6596 2.2753
10.2353 9.8974 2.2753
10.0189 10.1305 2.2753
9.7971 10.3587 2.2753
9.5700 10.5819 2.2753
9.3376 10.7999 2.2753
9.1001 11.0127 2.2753
8.8576 11.2200 2.2753
8.6103 11.4218 2.2753
8.3582 11.6180 2.2753
8.1016 11.8084 2.2753
7.8404 11.9929 2.2753
7.5749 12.1713 2.2753
7.3053 12.3437 2.2753
7.0315 12.5099 2.2753
6.7539 12.6698 2.2753
6.4725 12.8232 2.2753
6.1875 12.9701 2.2753
5.8990 13.1105 2.2753
5.6073 13.2441 2.2753
5.3125 13.3711 2.2753
5.0146 13.4911 2.2753
4.7140 13.6042 2.2753
4.4107 13.7104 2.2753
4.1049 13.8095 2.2753
3.7968 13.9014 2.2753
3.4866 13.9862 2.2753
3.1745 14.0638 2.2753
2.8605 14.1341 2.2753
2.5450 14.1971 2.2753
2.2280 14.2527 2.2753
1.9097 14.3009 2.2753
1.5904 14.3417 2.2753
1.2702 14.3750 2.2753
0.9492 14.4009 2.2753
0.6277 14.4193 2.2753
0.3059 14.4302 2.2753
-0.0161 14.4336 2.2753
-0.3381 14.4294 2.2753
-0.6599 14.4178 2.2753
-0.9813 14.3987 2.2753
-1.3022 14.3720 2.2753
-1.6228 14.3407 2.2757
-1.9445 14.3176 2.2786
-2.2630 14.2680 2.2785
-2.5802 14.2110 2.2785
-2.8960 14.1467 2.2784
-3.2100 14.0750 2.2783
-3.5223 13.9961 2.2782
-3.8325 13.9099 2.2781
-4.1406 13.8166 2.2780
-4.4464 13.7162 2.2779
-4.7496 13.6087 2.2778
-5.0501 13.4942 2.2778
-5.3478 13.3730 2.2777
-5.6425 13.2448 2.2776
-5.9340 13.1098 2.2775
-6.2221 12.9682 2.2775
-6.5069 12.8201 2.2774
-6.7879 12.6654 2.2773
-7.0652 12.5044 2.2772
-7.3386 12.3371 2.2772
-7.6078 12.1636 2.2771
-7.8728 11.9840 2.2770
-8.1335 11.7983 2.2770
-8.3897 11.6069 2.2769
-8.6412 11.4097 2.2768
-8.8880 11.2069 2.2768
-9.1299 10.9986 2.2767
-9.3668 10.7849 2.2766
-9.5986 10.5659 2.2766
-9.8250 10.3419 2.2765
-10.0462 10.1128 2.2765
-10.2619 9.8789 2.2764
-10.4720 9.6403 2.2764
-10.6765 9.3970 2.2763
-10.8751 9.1493 2.2763
-11.0679 8.8974 2.2762
-11.2548 8.6413 2.2762
-11.4356 8.3811 2.2762
-11.6103 8.1171 2.2761
-11.7788 7.8494 2.2761
-11.9595 7.5900 2.2796
-12.1226 7.3191 2.2809
-12.2796 7.0448 2.2822
-12.4303 6.7670 2.2835
-12.5746 6.4860 2.2848
-12.7126 6.2019 2.2862
-12.8441 5.9148 2.2875
-12.9691 5.6250 2.2889
-13.0875 5.3324 2.2903
-13.1573 5.0214 2.2844
-13.2249 4.7117 2.2794
-13.2989 4.4060 2.2767
-13.3748 4.1021 2.2756
-13.4487 3.7985 2.2753
-13.5175 3.4940 2.2753
-13.5793 3.1882 2.2753
-13.6341 2.8815 2.2753
-13.6820 2.5739 2.2753
-13.7230 2.2656 2.2753
-12.8502 1.8277 2.1253
-12.8832 1.5397 2.1266
-12.9143 1.2517 2.1286
-12.9403 0.9631 2.1309
-12.9741 0.6746 2.1355
-12.9982 0.3851 2.1396
-13.0264 0.0949 2.1454
-12.4475 -0.1874 2.0522
-12.1718 -0.4553 2.0099
-12.4029 -0.7417 2.0522
-12.3713 -1.0175 2.0522
-12.3337 -1.2924 2.0522
-12.2900 -1.5661 2.0522
-12.2404 -1.8384 2.0522
-12.1847 -2.1094 2.0522
-12.1231 -2.3788 2.0522
-12.0557 -2.6466 2.0522
-11.9824 -2.9125 2.0522
-11.9033 -3.1766 2.0522
-11.8185 -3.4385 2.0522
-11.7281 -3.6983 2.0522
-11.6320 -3.9558 2.0522
-11.5304 -4.2110 2.0522
-11.4719 -4.4826 2.0610
-11.4727 -4.7811 2.0816
-11.3152 -5.0150 2.0747
-11.0490 -5.1955 2.0484
-10.7846 -5.3686 2.0228
-10.5092 -5.5278 1.9955
-10.2379 -5.6808 1.9693
-9.9707 -5.8277 1.9440
-9.7246 -5.9793 1.9232
-9.7038 -6.2696 1.9479
-9.6105 -6.5183 1.9594
-9.3301 -6.6374 1.9335
-9.0548 -6.7513 1.9088
-8.7826 -6.8590 1.8846
-8.5105 -6.9583 1.8605
-8.2435 -7.0531 1.8375
-7.9812 -7.1438 1.8154
-7.7235 -7.2305 1.7944
-7.4701 -7.3134 1.7743
-7.2175 -7.3891 1.7542
-6.9685 -7.4609 1.7350
-6.7238 -7.5294 1.7166
-6.4829 -7.5948 1.6991
-6.2457 -7.6571 1.6823
-6.0119 -7.7165 1.6664
-5.7815 -7.7731 1.6512
-5.5537 -7.8263 1.6367
-5.3276 -7.8750 1.6224
-5.1045 -7.9212 1.6088
-4.8843 -7.9651 1.5959
-4.6668 -8.0068 1.5837
-4.4518 -8.0461 1.5722
-4.2392 -8.0835 1.5612
-4.0289 -8.1187 1.5509
-3.8207 -8.1519 1.5411
-3.6144 -8.1831 1.5320
-3.4100 -8.2124 1.5234
-3.2074 -8.2399 1.5153
-3.0064 -8.2656 1.5078
-2.8068 -8.2895 1.5008
-2.6086 -8.3113 1.4942
-2.4114 -8.3307 1.4880
-2.2155 -8.3484 1.4824
-2.0207 -8.3647 1.4772
-1.8270 -8.3794 1.4725
-1.6342 -8.3926 1.4683
-1.4422 -8.4043 1.4646
-1.2510 -8.4145 1.4613
-1.0604 -8.4232 1.4585
-0.8703 -8.4305 1.4562
-0.6806 -8.4363 1.4544
-0.4913 -8.4407 1.4530
-0.3022 -8.4437 1.4520
-0.1133 -8.4453 1.4515
0.0755 -8.4454 1.4515
0.2644 -8.4441 1.4519
0.4535 -8.4414 1.4527
0.6427 -8.4373 1.4540
0.8323 -8.4317 1.4558
1.0223 -8.4247 1.4580
1.2128 -8.4163 1.4607
1.4039 -8.4064 1.4639
1.5957 -8.3950 1.4675
1.7884 -8.3821 1.4716
1.9819 -8.3678 1.4762
2.1765 -8.3519 1.4813
2.3721 -8.3343 1.4869
2.5691 -8.3153 1.4929
2.7671 -8.2940 1.4994
2.9663 -8.2705 1.5063
3.1670 -8.2452 1.5138
3.3694 -8.2181 1.5217
3.5734 -8.1891 1.5302
3.7792 -8.1583 1.5393
3.9871 -8.1254 1.5489
4.1970 -8.0906 1.5591
4.4091 -8.0538 1.5699
4.6236 -8.0148 1.5814
4.8406 -7.9736 1.5934
5.0603 -7.9302 1.6062
5.2828 -7.8844 1.6196
5.5082 -7.8363 1.6337
5.7358 -7.7841 1.6483
5.9656 -7.7280 1.6633
6.1926 -7.6618 1.6775
6.2156 -7.3479 1.6378
6.3989 -7.2304 1.6421
6.6307 -7.1631 1.6590
6.8662 -7.0927 1.6768
7.1054 -7.0189 1.6953
7.3487 -6.9416 1.7147
7.5962 -6.8606 1.7351
7.8446 -6.7729 1.7556
8.0954 -6.6795 1.7765
8.3505 -6.5819 1.7985
8.4114 -6.3303 1.7793
8.4122 -6.0412 1.7492
8.4129 -5.7612 1.7208
8.4137 -5.4896 1.6941
8.4144 -5.2257 1.6690
8.4151 -4.9691 1.6453
8.5396 -4.7885 1.6470
10.7402 -5.7108 2.0446
10.7411 -5.4070 2.0195
10.7419 -5.1098 1.9960
10.7426 -4.8188 1.9739
10.7434 -4.5336 1.9533
10.7442 -4.2537 1.9339
10.7449 -3.9786 1.9159
10.7456 -3.7081 1.8991
10.7463 -3.4416 1.8834
10.7470 -3.1789 1.8689
10.7477 -2.9197 1.8555
10.7484 -2.6635 1.8432
10.7491 -2.4101 1.8319
10.7498 -2.1592 1.8217
10.7504 -1.9106 1.8124
10.7511 -1.6639 1.8041
10.7517 -1.4189 1.7967
10.7524 -1.1752 1.7903
10.7530 -0.9328 1.7848
10.7537 -0.6912 1.7802
9.9008 -0.4146 1.6355
9.9010 -0.1933 1.6328
9.9011 0.0279 1.6310
9.9013 0.2491 1.6299
9.9015 0.4706 1.6297
9.9016 0.6925 1.6303
9.9018 0.9151 1.6317
9.9019 1.1386 1.6339
8.8596 1.2198 1.4647
12.8106 2.0562 2.1229
12.7737 2.3440 2.1229
12.7304 2.6312 2.1229
13.5908 3.1270 2.2753
13.5304 3.4329 2.2753
13.4630 3.7377 2.2753
13.3888 4.0411 2.2753
13.3076 4.3431 2.2753
13.2195 4.6434 2.2753
13.1246 4.9419 2.2753
13.0229 5.2384 2.2753
12.9144 5.5328 2.2753
12.7991 5.8250 2.2753
12.6772 6.1147 2.2753
12.5486 6.4018 2.2753
12.4133 6.6861 2.2753
12.2715 6.9675 2.2753
12.1232 7.2459 2.2753
11.9686 7.5210 2.2753
11.8075 7.7927 2.2753
11.6401 8.0609 2.2753
11.4665 8.3254 2.2753
11.2868 8.5860 2.2753
11.1010 8.8427 2.2753
10.9093 9.0952 2.2753
10.7116 9.3435 2.2753
10.5082 9.5873 2.2753
10.2991 9.8266 2.2753
10.0844 10.0611 2.2753
9.8642 10.2908 2.2753
9.6387 10.5155 2.2753
9.4078 10.7351 2.2753
9.1719 10.9494 2.2753
8.9309 11.1584 2.2753
8.6850 11.3619 2.2753
8.4344 11.5598 2.2753
8.1790 11.7519 2.2753
7.9192 11.9381 2.2753
7.6550 12.1185 2.2753
7.3866 12.2926 2.2753
7.1141 12.4607 2.2753
6.8376 12.6225 2.2753
6.5573 12.7779 2.2753
6.2734 12.9268 2.2753
5.9859 13.0691 2.2753
5.6952 13.2048 2.2753
5.4012 13.3337 2.2753
5.1043 13.4558 2.2753
4.8044 13.5710 2.2753
4.5019 13.6793 2.2753
4.1969 13.7805 2.2753
3.8895 13.8746 2.2753
3.5799 13.9615 2.2753
3.2683 14.0413 2.2753
2.9549 14.1138 2.2753
2.6398 14.1789 2.2753
2.3232 14.2368 2.2753
2.0053 14.2872 2.2753
1.6863 14.3302 2.2753
1.3663 14.3658 2.2753
1.0456 14.3939 2.2753
0.7242 14.4146 2.2753
0.4025 14.4277 2.2753
0.0805 14.4333 2.2753
-0.2415 14.4314 2.2753
-0.5634 14.4221 2.2753
-0.8850 14.4052 2.2753
-1.2061 14.3808 2.2753
-1.5265 14.3490 2.2753
-1.8479 14.3254 2.2778
-2.1676 14.2836 2.2786
-2.4852 14.2288 2.2785
-2.8014 14.1667 2.2784
-3.1160 14.0973 2.2783
-3.4288 14.0205 2.2782
-3.7397 13.9365 2.2781
-4.0484 13.8453 2.2780
-4.3549 13.7471 2.2780
-4.6589 13.6417 2.2779
-4.9602 13.5293 2.2778
-5.2588 13.4101 2.2777
-5.5544 13.2839 2.2776
-5.8469 13.1510 2.2776
-6.1361 13.0114 2.2775
-6.4218 12.8652 2.2774
-6.7040 12.7125 2.2773
-6.9824 12.5534 2.2773
-7.2570 12.3879 2.2772
-7.5275 12.2163 2.2771
-7.7938 12.0385 2.2770
-8.0558 11.8547 2.2770
-8.3133 11.6650 2.2769
-8.5662 11.4695 2.2768
-8.8144 11.2684 2.2768
-9.0578 11.0617 2.2767
-9.2962 10.8496 2.2767
-9.5296 10.6322 2.2766
-9.7576 10.4096 2.2765
-9.9804 10.1820 2.2765
-10.1978 9.9496 2.2764
-10.4096 9.7123 2.2764
-10.6157 9.4705 2.2763
-10.8161 9.2241 2.2763
-11.0107 8.9734 2.2763
-11.1994 8.7185 2.2762
-11.3820 8.4595 2.2762
-11.5585 8.1967 2.2761
-11.7289 7.9301 2.2761
-11.9093 7.6705 2.2792
-12.0743 7.4007 2.2805
-12.2331 7.1274 2.2818
-12.3857 6.8507 2.2831
-12.5320 6.5706 2.2844
-12.6719 6.2874 2.2858
-12.8053 6.0012 2.2871
-12.9323 5.7122 2.2885
-13.0527 5.4205 2.2899
-13.1387 5.1153 2.2864
-13.2036 4.8040 2.2806
-13.2760 4.4973 2.2772
-13.3518 4.1931 2.2757
-13.4268 3.8896 2.2753
-13.4976 3.5854 2.2753
-13.5615 3.2801 2.2753
-13.6184 2.9736 2.2753
-13.6684 2.6663 2.2753
-13.7114 2.3581 2.2753
-12.9965 1.9375 2.1510
-12.8734 1.6261 2.1261
-12.9053 1.3381 2.1280
-12.9331 1.0497 2.1302
-12.9642 0.7613 2.1340
-12.9921 0.4721 2.1384
-13.0129 0.1820 2.1427
-12.4521 -0.1040 2.0522
-12.1428 -0.3728 2.0040
-12.4111 -0.6587 2.0522
-12.3814 -0.9349 2.0522
-12.3456 -1.2100 2.0522
-12.3038 -1.4841 2.0522
-12.2559 -1.7569 2.0522
-12.2020 -2.0283 2.0522
-12.1422 -2.2982 2.0522
-12.0766 -2.5665 2.0522
-12.0050 -2.8330 2.0522
-11.9277 -3.0976 2.0522
-11.8446 -3.3602 2.0522
-11.7558 -3.6206 2.0522
-11.6614 -3.8789 2.0522
-11.5614 -4.1347 2.0522
-11.4717 -4.3941 2.0550
-11.4725 -4.6910 2.0753
-11.3957 -4.9595 2.0827
-11.1285 -5.1420 2.0562
-10.8645 -5.3178 2.0306
-10.5914 -5.4808 2.0036
-10.3188 -5.6356 1.9770
-10.0504 -5.7843 1.9515
-9.7804 -5.9237 1.9259
-9.7084 -6.1808 1.9400
-9.6922 -6.4793 1.9667
-9.4137 -6.6022 1.9412
-9.1369 -6.7176 1.9161
-8.8651 -6.8282 1.8920
-8.5916 -6.9289 1.8676
-8.3231 -7.0251 1.8443
-8.0594 -7.1171 1.8220
-7.8004 -7.2050 1.8006
-7.5457 -7.2890 1.7802
-7.2929 -7.3669 1.7602
-7.0428 -7.4397 1.7406
-6.7968 -7.5092 1.7220
-6.5548 -7.5755 1.7042
-6.3164 -7.6387 1.6873
-6.0817 -7.6990 1.6711
-5.8503 -7.7564 1.6557
-5.6221 -7.8111 1.6411
-5.3951 -7.8607 1.6266
-5.1712 -7.9076 1.6128
-4.9501 -7.9522 1.5997
-4.7318 -7.9945 1.5873
-4.5161 -8.0346 1.5756
-4.3028 -8.0725 1.5644
-4.0918 -8.1083 1.5539
-3.8829 -8.1421 1.5440
-3.6761 -8.1739 1.5347
-3.4712 -8.2038 1.5259
-3.2680 -8.2319 1.5177
-3.0665 -8.2580 1.5100
-2.8665 -8.2825 1.5028
-2.6680 -8.3051 1.4962
-2.4704 -8.3250 1.4898
-2.2742 -8.3433 1.4840
-2.0790 -8.3600 1.4787
-1.8850 -8.3752 1.4739
-1.6920 -8.3888 1.4695
-1.4998 -8.4009 1.4656
-1.3083 -8.4115 1.4623
-1.1175 -8.4207 1.4593
-0.9273 -8.4284 1.4569
-0.7375 -8.4347 1.4549
-0.5481 -8.4395 1.4533
-0.3589 -8.4429 1.4522
-0.1700 -8.4449 1.4516
0.0189 -8.4455 1.4514
0.2078 -8.4446 1.4517
0.3967 -8.4423 1.4524
0.5859 -8.4387 1.4536
0.7754 -8.4336 1.4552
0.9653 -8.4270 1.4573
1.1556 -8.4190 1.4599
1.3466 -8.4095 1.4629
1.5381 -8.3986 1.4664
1.7305 -8.3862 1.4703
1.9238 -8.3722 1.4748
2.1180 -8.3568 1.4797
2.3133 -8.3397 1.4851
2.5098 -8.3212 1.4911
2.7076 -8.3007 1.4975
2.9064 -8.2777 1.5042
3.1067 -8.2529 1.5115
3.3085 -8.2264 1.5193
3.5120 -8.1980 1.5276
3.7173 -8.1677 1.5365
3.9245 -8.1355 1.5459
4.1338 -8.1013 1.5560
4.3452 -8.0651 1.5666
4.5590 -8.0267 1.5779
4.7752 -7.9862 1.5897
4.9941 -7.9435 1.6023
5.2157 -7.8984 1.6155
5.4403 -7.8510 1.6294
5.6675 -7.8004 1.6439
5.8963 -7.7452 1.6587
6.1284 -7.6872 1.6743
6.2088 -7.4406 1.6494
6.3302 -7.2503 1.6372
6.5608 -7.1837 1.6539
6.7952 -7.1142 1.6713
7.0333 -7.0414 1.6897
7.2753 -6.9651 1.7088
7.5215 -6.8853 1.7289
7.7702 -6.8001 1.7494
8.0198 -6.7079 1.7702
8.2735 -6.6116 1.7918
8.4112 -6.4189 1.7887
8.4120 -6.1269 1.7580
8.4127 -5.8443 1.7291
8.4135 -5.5702 1.7019
8.4142 -5.3041 1.6763
8.4149 -5.0453 1.6523
8.4155 -4.7934 1.6296
10.7400 -5.8034 2.0524
10.7408 -5.4974 2.0269
10.7416 -5.1982 2.0029
10.7424 -4.9055 1.9804
10.7432 -4.6186 1.9593
10.7439 -4.3371 1.9396
10.7447 -4.0606 1.9212
10.7454 -3.7888 1.9040
10.7461 -3.5211 1.8880
10.7468 -3.2574 1.8732
10.7475 -2.9971 1.8594
10.7482 -2.7400 1.8468
10.7489 -2.4859 1.8352
10.7496 -2.2343 1.8247
10.7502 -1.9850 1.8151
10.7509 -1.7377 1.8065
10.7515 -1.4922 1.7988
10.7522 -1.2482 1.7921
10.7529 -1.0054 1.7863
10.7535 -0.7636 1.7815
9.7867 -0.4756 1.6176
9.9009 -0.2597 1.6335
9.9011 -0.0385 1.6314
9.9012 0.1827 1.6301
9.9014 0.4041 1.6297
9.9016 0.6258 1.6300
9.9017 0.8482 1.6312
9.9019 1.0715 1.6332
8.8594 1.1594 1.4637
12.8204 1.9698 2.1229
12.7855 2.2578 2.1229
12.7440 2.5451 2.1229
13.6076 3.0350 2.2753
13.5492 3.3412 2.2753
13.4840 3.6464 2.2753
13.4118 3.9502 2.2753
13.3327 4.2526 2.2753
13.2467 4.5535 2.2753
13.1538 4.8526 2.2753
13.0541 5.1497 2.2753
12.9476 5.4448 2.2753
12.8345 5.7376 2.2753
12.7144 6.0280 2.2753
12.5878 6.3159 2.2753
12.4546 6.6011 2.2753
12.3147 6.8834 2.2753
12.1684 7.1627 2.2753
12.0156 7.4388 2.2753
11.8564 7.7116 2.2753
11.6910 7.9808 2.2753
11.5192 8.2464 2.2753
11.3414 8.5083 2.2753
11.1574 8.7661 2.2753
10.9674 9.0199 2.2753
10.7715 9.2695 2.2753
10.5698 9.5146 2.2753
10.3624 9.7553 2.2753
10.1494 9.9913 2.2753
9.9308 10.2224 2.2753
9.7069 10.4486 2.2753
9.4776 10.6698 2.2753
9.2432 10.8857 2.2753
9.0037 11.0963 2.2753
8.7593 11.3014 2.2753
8.5100 11.5010 2.2753
8.2561 11.6949 2.2753
7.9976 11.8829 2.2753
7.7347 12.0650 2.2753
7.4675 12.2411 2.2753
7.1962 12.4110 2.2753
6.9209 12.5746 2.2753
6.6418 12.7319 2.2753
6.3589 12.8828 2.2753
6.0725 13.0271 2.2753
5.7827 13.1648 2.2753
5.4897 13.2957 2.2753
5.1937 13.4199 2.2753
4.8947 13.5372 2.2753
4.5929 13.6476 2.2753
4.2887 13.7509 2.2753
3.9820 13.8471 2.2753
3.6730 13.9362 2.2753
3.3620 14.0181 2.2753
3.0491 14.0928 2.2753
2.7345 14.1602 2.2753
2.4183 14.2202 2.2753
2.1008 14.2729 2.2753
1.7821 14.3181 2.2753
1.4624 14.3559 2.2753
1.1419 14.3863 2.2753
0.8207 14.4092 2.2753
0.4990 14.4245 2.2753
0.1771 14.4324 2.2753
-0.1449 14.4328 2.2753
-0.4669 14.4257 2.2753
-0.7885 14.4111 2.2753
-1.1098 14.3889 2.2753
-1.4304 14.3593 2.2753
-1.7511 14.3301 2.2765
-2.0720 14.2986 2.2786
-2.3901 14.2461 2.2785
-2.7067 14.1862 2.2784
-3.0218 14.1189 2.2783
-3.3352 14.0443 2.2782
-3.6466 13.9625 2.2782
-3.9561 13.8734 2.2781
-4.2632 13.7773 2.2780
-4.5680 13.6740 2.2779
-4.8701 13.5638 2.2778
-5.1695 13.4466 2.2777
-5.4661 13.3225 2.2777
-5.7595 13.1916 2.2776
-6.0497 13.0540 2.2775
-6.3365 12.9097 2.2774
-6.6197 12.7590 2.2773
-6.8993 12.6018 2.2773
-7.1750 12.4382 2.2772
-7.4468 12.2684 2.2771
-7.7143 12.0924 2.2771
-7.9776 11.9104 2.2770
-8.2365 11.7225 2.2769
-8.4909 11.5288 2.2769
-8.7405 11.3293 2.2768
-8.9854 11.1243 2.2767
-9.2253 10.9138 2.2767
-9.4601 10.6980 2.2766
-9.6898 10.4769 2.2766
-9.9142 10.2508 2.2765
-10.1331 10.0198 2.2765
-10.3466 9.7840 2.2764
-10.5545 9.5435 2.2764
-10.7566 9.2985 2.2763
-10.9530 9.0490 2.2763
-11.1434 8.7954 2.2762
-11.3278 8.5377 2.2762
-11.5062 8.2760 2.2761
-11.6784 8.0105 2.2761
-11.8587 7.7507 2.2788
-12.0255 7.4821 2.2801
-12.1861 7.2098 2.2814
-12.3406 6.9340 2.2827
-12.4888 6.6550 2.2840
-12.6306 6.3727 2.2854
-12.7660 6.0874 2.2867
-12.8949 5.7992 2.2881
-13.0173 5.5082 2.2894
-13.1225 5.2105 2.2890
-13.1833 4.8968 2.2820
-13.2539 4.5890 2.2780
-13.3285 4.2841 2.2760
-13.4046 3.9806 2.2753
-13.4771 3.6768 2.2753
-13.5430 3.3718 2.2753
-13.6021 3.0656 2.2753
-13.6541 2.7585 2.2753
-13.6992 2.4507 2.2753
-13.7374 2.1421 2.2753
-12.8631 1.7125 2.1256
-12.8959 1.4246 2.1273
-12.9254 1.1363 2.1295
-12.9539 0.8478 2.1326
-12.9855 0.5590 2.1373
-13.0066 0.2690 2.1413
-12.4561 -0.0206 2.0522
-12.1603 -0.2918 2.0060
-12.4188 -0.5757 2.0522
-12.3910 -0.8521 2.0522
-12.3570 -1.1276 2.0522
-12.3170 -1.4020 2.0522
-12.2709 -1.6752 2.0522
-12.2188 -1.9470 2.0522
-12.1608 -2.2174 2.0522
-12.0969 -2.4862 2.0522
-12.0271 -2.7532 2.0522
-11.9515 -3.0184 2.0522
-11.8701 -3.2816 2.0522
-11.7830 -3.5427 2.0522
-11.6903 -3.8016 2.0522
-11.5920 -4.0582 2.0522
-11.4882 -4.3123 2.0522
-11.4722 -4.6013 2.0690
-11.4730 -4.9020 2.0903
-11.2083 -5.0880 2.0640
-10.9434 -5.2657 2.0381
-10.6739 -5.4331 2.0118
-10.4001 -5.5898 1.9849
-10.1305 -5.7403 1.9591
-9.8620 -5.8831 1.9337
-9.7130 -6.0925 1.9322
-9.6973 -6.3891 1.9586
-9.4977 -6.5666 1.9489
-9.2194 -6.6836 1.9235
-8.9461 -6.7955 1.8991
-8.6731 -6.8992 1.8748
-8.4031 -6.9967 1.8512
-8.1380 -7.0899 1.8285
-7.8776 -7.1790 1.8069
-7.6217 -7.2641 1.7862
-7.3688 -7.3444 1.7662
-7.1174 -7.4182 1.7464
-6.8702 -7.4887 1.7275
-6.6270 -7.5560 1.7095
-6.3876 -7.6201 1.6923
-6.1518 -7.6812 1.6759
-5.9194 -7.7395 1.6603
-5.6902 -7.7950 1.6454
-5.4629 -7.8461 1.6309
-5.2380 -7.8938 1.6169
-5.0161 -7.9391 1.6036
-4.7970 -7.9820 1.5910
-4.5805 -8.0228 1.5790
-4.3665 -8.0613 1.5677
-4.1548 -8.0978 1.5570
-3.9453 -8.1322 1.5469
-3.7379 -8.1646 1.5374
-3.5325 -8.1951 1.5285
-3.3288 -8.2236 1.5201
-3.1268 -8.2504 1.5122
-2.9264 -8.2753 1.5049
-2.7274 -8.2985 1.4981
-2.5295 -8.3192 1.4917
-2.3329 -8.3380 1.4857
-2.1375 -8.3551 1.4802
-1.9431 -8.3708 1.4752
-1.7498 -8.3849 1.4708
-1.5573 -8.3974 1.4668
-1.3657 -8.4085 1.4632
-1.1747 -8.4181 1.4602
-0.9843 -8.4263 1.4576
-0.7944 -8.4329 1.4554
-0.6049 -8.4382 1.4537
-0.4157 -8.4421 1.4525
-0.2267 -8.4445 1.4518
-0.0378 -8.4455 1.4514
0.1511 -8.4450 1.4516
0.3401 -8.4432 1.4522
0.5291 -8.4399 1.4532
0.7185 -8.4352 1.4547
0.9083 -8.4291 1.4566
1.0985 -8.4215 1.4591
1.2892 -8.4125 1.4619
1.4806 -8.4020 1.4653
1.6727 -8.3900 1.4691
1.8657 -8.3766 1.4734
2.0596 -8.3616 1.4782
2.2546 -8.3450 1.4834
2.4507 -8.3269 1.4892
2.6482 -8.3072 1.4955
2.8466 -8.2848 1.5021
3.0464 -8.2606 1.5092
3.2478 -8.2346 1.5169
3.4508 -8.2067 1.5250
3.6555 -8.1770 1.5338
3.8621 -8.1454 1.5430
4.0708 -8.1118 1.5529
4.2815 -8.0761 1.5634
4.4946 -8.0384 1.5744
4.7101 -7.9986 1.5861
4.9282 -7.9565 1.5985
5.1489 -7.9122 1.6115
5.3726 -7.8655 1.6252
5.5993 -7.8163 1.6396
5.8273 -7.7620 1.6542
6.0584 -7.7049 1.6695
6.2020 -7.5345 1.6613
6.2620 -7.2700 1.6324
6.4912 -7.2039 1.6488
6.7245 -7.1354 1.6660
6.9614 -7.0636 1.6841
7.2023 -6.9884 1.7030
7.4472 -6.9096 1.7228
7.6961 -6.8269 1.7434
7.9445 -6.7360 1.7638
8.1969 -6.6409 1.7852
8.4109 -6.5084 1.7983
8.4117 -6.2135 1.7670
8.4125 -5.9281 1.7376
8.4132 -5.6516 1.7099
8.4140 -5.3831 1.6838
8.4147 -5.1222 1.6593
8.4153 -4.8683 1.6363
10.7397 -5.8966 2.0604
10.7406 -5.5885 2.0344
10.7414 -5.2873 2.0099
10.7422 -4.9927 1.9870
10.7429 -4.7040 1.9655
10.7437 -4.4210 1.9454
10.7444 -4.1431 1.9266
10.7452 -3.8699 1.9090
10.7459 -3.6010 1.8927
10.7466 -3.3361 1.8775
10.7473 -3.0748 1.8634
10.7480 -2.8168 1.8505
10.7487 -2.5618 1.8386
10.7494 -2.3095 1.8277
10.7500 -2.0595 1.8178
10.7507 -1.8117 1.8090
10.7513 -1.5657 1.8010
10.7520 -1.3212 1.7940
10.7527 -1.0781 1.7880
10.7533 -0.8361 1.7828
8.8156 -0.4876 1.4580
9.9009 -0.3261 1.6343
9.9010 -0.1048 1.6320
9.9012 0.1164 1.6304
9.9014 0.3376 1.6297
9.9015 0.5593 1.6298
9.9017 0.7814 1.6308
9.9018 1.0044 1.6325
9.2968 1.1533 1.5351
12.8296 1.8833 2.1229
12.7966 2.1714 2.1229
12.7572 2.4590 2.1229
13.6237 2.9429 2.2753
13.5675 3.2495 2.2753
13.5043 3.5550 2.2753
13.4342 3.8592 2.2753
13.3571 4.1621 2.2753
13.2732 4.4634 2.2753
13.1824 4.7630 2.2753
13.0848 5.0607 2.2753
12.9803 5.3565 2.2753
12.8691 5.6500 2.2753
12.7512 5.9412 2.2753
12.6265 6.2299 2.2753
12.4952 6.5159 2.2753
12.3574 6.7990 2.2753
12.2130 7.0793 2.2753
12.0621 7.3563 2.2753
11.9049 7.6301 2.2753
11.7413 7.9004 2.2753
11.5714 8.1671 2.2753
11.3954 8.4301 2.2753
11.2132 8.6892 2.2753
11.0250 8.9443 2.2753
10.8309 9.1951 2.2753
10.6309 9.4415 2.2753
10.4252 9.6836 2.2753
10.2139 9.9209 2.2753
9.9970 10.1535 2.2753
9.7746 10.3813 2.2753
9.5470 10.6039 2.2753
9.3141 10.8215 2.2753
9.0761 11.0336 2.2753
8.8331 11.2404 2.2753
8.5853 11.4417 2.2753
8.3328 11.6374 2.2753
8.0756 11.8271 2.2753
7.8141 12.0110 2.2753
7.5481 12.1889 2.2753
7.2781 12.3607 2.2753
7.0039 12.5262 2.2753
6.7259 12.6854 2.2753
6.4441 12.8382 2.2753
6.1588 12.9845 2.2753
5.8700 13.1242 2.2753
5.5780 13.2572 2.2753
5.2828 13.3834 2.2753
4.9847 13.5028 2.2753
4.6837 13.6152 2.2753
4.3802 13.7206 2.2753
4.0742 13.8190 2.2753
3.7659 13.9103 2.2753
3.4555 13.9943 2.2753
3.1431 14.0712 2.2753
2.8290 14.1408 2.2753
2.5133 14.2030 2.2753
2.1962 14.2578 2.2753
1.8778 14.3053 2.2753
1.5584 14.3454 2.2753
1.2381 14.3780 2.2753
0.9171 14.4031 2.2753
0.5956 14.4207 2.2753
0.2737 14.4308 2.2753
-0.0483 14.4335 2.2753
-0.3703 14.4286 2.2753
-0.6921 14.4162 2.2753
-1.0135 14.3963 2.2753
-1.3342 14.3688 2.2753
-1.6548 14.3377 2.2758
-1.9764 14.3130 2.2786
-2.2948 14.2626 2.2785
-2.6119 14.2049 2.2784
-2.9274 14.1398 2.2784
-3.2414 14.0674 2.2783
-3.5534 13.9878 2.2782
-3.8635 13.9009 2.2781
-4.1713 13.8069 2.2780
-4.4768 13.7057 2.2779
-4.7798 13.5976 2.2778
-5.0800 13.4824 2.2778
-5.3774 13.3604 2.2777
-5.6718 13.2316 2.2776
-5.9630 13.0960 2.2775
-6.2508 12.9537 2.2774
-6.5352 12.8049 2.2774
-6.8158 12.6496 2.2773
-7.0927 12.4879 2.2772
-7.3656 12.3200 2.2772
-7.6345 12.1459 2.2771
-7.8991 11.9656 2.2770
-8.1593 11.7795 2.2769
-8.4150 11.5875 2.2769
-8.6661 11.3897 2.2768
-8.9124 11.1863 2.2768
-9.1538 10.9775 2.2767
-9.3902 10.7633 2.2766
-9.6215 10.5438 2.2766
-9.8474 10.3192 2.2765
-10.0680 10.0896 2.2765
-10.2832 9.8552 2.2764
-10.4927 9.6161 2.2764
-10.6966 9.3724 2.2763
-10.8947 9.1243 2.2763
-11.0869 8.8719 2.2762
-11.2732 8.6154 2.2762
-11.4534 8.3549 2.2762
-11.6274 8.0905 2.2761
-11.7953 7.8225 2.2761
-11.9761 7.5631 2.2797
-12.1386 7.2919 2.2810
-12.2949 7.0171 2.2823
-12.4450 6.7390 2.2836
-12.5887 6.4577 2.2849
-12.7261 6.1733 2.2863
-12.8569 5.8859 2.2877
-12.9812 5.5958 2.2890
-13.0990 5.3031 2.2904
-13.1634 4.9900 2.2837
-13.2322 4.6810 2.2790
-13.3064 4.3756 2.2765
-13.3824 4.0718 2.2755
-13.4559 3.7681 2.2753
-13.5240 3.4634 2.2753
-13.5851 3.1576 2.2753
-13.6392 2.8508 2.2753
-13.6864 2.5431 2.2753
-13.7267 2.2347 2.2753
-12.8534 1.7989 2.1254
-12.8863 1.5109 2.1267
-12.9171 1.2229 2.1288
-12.9431 0.9342 2.1312
-12.9772 0.6457 2.1360
-13.0001 0.3561 2.1400
-12.4596 0.0629 2.0522
-12.2675 -0.2121 2.0228
-12.1997 -0.4837 2.0148
-12.4000 -0.7693 2.0522
-12.3678 -1.0451 2.0522
-12.3296 -1.3198 2.0522
-12.2853 -1.5933 2.0522
-12.2351 -1.8656 2.0522
-12.1788 -2.1364 2.0522
-12.1167 -2.4057 2.0522
-12.0486 -2.6733 2.0522
-11.9747 -2.9390 2.0522
-11.8951 -3.2028 2.0522
-11.8097 -3.4646 2.0522
-11.7187 -3.7242 2.0522
-11.6221 -3.9815 2.0522
-11.5199 -4.2364 2.0522
-11.4720 -4.5122 2.0630
-11.4728 -4.8112 2.0838
-11.2884 -5.0334 2.0720
-11.0225 -5.2131 2.0458
-10.7569 -5.3848 2.0201
-10.4818 -5.5434 1.9929
-10.2110 -5.6957 1.9667
-9.9442 -5.8421 1.9416
-9.7181 -6.0053 1.9247
-9.7022 -6.2994 1.9505
-9.5822 -6.5305 1.9568
-9.3024 -6.6490 1.9310
-9.0276 -6.7624 1.9063
-8.7551 -6.8691 1.8822
-8.4836 -6.9679 1.8582
-8.2170 -7.0624 1.8352
-7.9553 -7.1527 1.8133
-7.6980 -7.2390 1.7923
-7.4450 -7.3215 1.7723
-7.1923 -7.3964 1.7522
-6.9439 -7.4679 1.7331
-6.6995 -7.5361 1.7148
-6.4590 -7.6012 1.6973
-6.2221 -7.6632 1.6807
-5.9887 -7.7223 1.6649
-5.7586 -7.7786 1.6498
-5.5310 -7.8313 1.6352
-5.3052 -7.8798 1.6210
-5.0824 -7.9258 1.6075
-4.8625 -7.9694 1.5947
