ply
format ascii 1.0
element vertex 2175
property float32 x
property float32 y
property float32 z
end_header
-5.4172 2.1190 2.0931
-5.4595 1.9960 2.0910
-5.4989 1.8723 2.0888
-5.5356 1.7477 2.0866
-5.5694 1.6224 2.0844
-5.6003 1.4965 2.0821
-5.6284 1.3701 2.0799
-5.6536 1.2431 2.0777
-5.6760 1.1157 2.0754
-5.6954 0.9879 2.0732
-5.7120 0.8597 2.0709
-5.7257 0.7314 2.0686
-5.7365 0.6029 2.0664
-5.7444 0.4743 2.0641
-5.7494 0.3456 2.0618
-5.7516 0.2169 2.0595
-5.7508 0.0883 2.0573
-5.7472 -0.0401 2.0550
-5.7408 -0.1683 2.0527
-5.7315 -0.2963 2.0505
-5.7193 -0.4239 2.0482
-5.7044 -0.5511 2.0460
-5.6866 -0.6778 2.0437
-5.6660 -0.8041 2.0415
-5.6427 -0.9297 2.0393
-5.6165 -1.0547 2.0371
-5.5877 -1.1790 2.0349
-5.5561 -1.3026 2.0327
-5.5218 -1.4253 2.0305
-5.4848 -1.5471 2.0284
-5.4452 -1.6680 2.0262
-5.4029 -1.7880 2.0241
-5.3581 -1.9068 2.0220
-5.3106 -2.0246 2.0199
-5.2606 -2.1412 2.0179
-5.2081 -2.2566 2.0158
-5.1531 -2.3707 2.0138
-5.0957 -2.4835 2.0118
-5.0358 -2.5949 2.0098
-4.9735 -2.7050 2.0079
-4.9089 -2.8135 2.0060
-4.8419 -2.9206 2.0041
-4.7727 -3.0261 2.0022
-4.7012 -3.1299 2.0004
-4.6275 -3.2321 1.9986
-4.5516 -3.3327 1.9968
-4.4736 -3.4314 1.9951
-4.3935 -3.5284 1.9933
-4.3114 -3.6236 1.9917
-4.2272 -3.7168 1.9900
-4.1411 -3.8082 1.9884
-4.0530 -3.8976 1.9868
-3.9631 -3.9851 1.9853
-3.8714 -4.0705 1.9838
-3.7778 -4.1538 1.9823
-3.6825 -4.2350 1.9809
-3.5855 -4.3141 1.9795
-3.4869 -4.3911 1.9781
-3.3866 -4.4658 1.9768
-3.2848 -4.5383 1.9755
-3.1815 -4.6086 1.9743
-3.0768 -4.6765 1.9731
-2.9706 -4.7422 1.9719
-2.8631 -4.8055 1.9708
-2.7542 -4.8664 1.9697
-2.6441 -4.9250 1.9687
-2.5329 -4.9811 1.9677
-2.4204 -5.0347 1.9667
-2.3069 -5.0859 1.9658
-2.1923 -5.1347 1.9650
-2.0767 -5.1809 1.9641
-1.9602 -5.2246 1.9634
-1.8428 -5.2657 1.9626
-1.7246 -5.3043 1.9620
-1.6055 -5.3403 1.9613
-1.4858 -5.3737 1.9607
-1.3654 -5.4045 1.9602
-1.2444 -5.4328 1.9597
-1.1228 -5.4583 1.9592
-1.0007 -5.4813 1.9588
-0.8782 -5.5015 1.9585
-0.7552 -5.5192 1.9582
-0.6320 -5.5342 1.9579
-0.5084 -5.5465 1.9577
-0.3846 -5.5561 1.9575
-0.2607 -5.5631 1.9574
-0.1366 -5.5674 1.9573
-0.0124 -5.5690 1.9573
0.1117 -5.5679 1.9573
0.2358 -5.5641 1.9574
0.3598 -5.5577 1.9575
0.4836 -5.5486 1.9576
0.6072 -5.5368 1.9579
0.7305 -5.5223 1.9581
0.8536 -5.5052 1.9584
0.9762 -5.4855 1.9588
1.0984 -5.4630 1.9592
1.2200 -5.4380 1.9596
1.3412 -5.4103 1.9601
1.4617 -5.3800 1.9606
1.5816 -5.3471 1.9612
1.7007 -5.3116 1.9618
1.8191 -5.2735 1.9625
1.9367 -5.2328 1.9632
2.0534 -5.1896 1.9640
2.1691 -5.1439 1.9648
2.2839 -5.0957 1.9656
2.3976 -5.0450 1.9665
2.5103 -4.9918 1.9675
2.6218 -4.9362 1.9685
2.7321 -4.8781 1.9695
2.8412 -4.8177 1.9706
2.9490 -4.7548 1.9717
3.0554 -4.6896 1.9728
3.1605 -4.6221 1.9740
3.2641 -4.5523 1.9753
3.3662 -4.4803 1.9765
3.4667 -4.4060 1.9778
3.5657 -4.3295 1.9792
3.6630 -4.2508 1.9806
3.7586 -4.1700 1.9820
3.8525 -4.0871 1.9835
3.9446 -4.0021 1.9850
4.0349 -3.9150 1.9865
4.1233 -3.8260 1.9881
4.2098 -3.7350 1.9897
4.2944 -3.6421 1.9913
4.3769 -3.5473 1.9930
4.4574 -3.4507 1.9947
4.5358 -3.3523 1.9965
4.6121 -3.2521 1.9982
4.6863 -3.1503 2.0000
4.7582 -3.0467 2.0019
4.8279 -2.9416 2.0037
4.8953 -2.8348 2.0056
4.9604 -2.7266 2.0075
4.9887 -2.5989 1.9957
4.9929 -2.4610 1.9756
4.9968 -2.3259 1.9568
5.0005 -2.1932 1.9393
5.0039 -2.0628 1.9230
5.0072 -1.9346 1.9078
5.0103 -1.8083 1.8938
5.0177 -1.6854 1.8826
5.0334 -1.5665 1.8756
5.0706 -1.4548 1.8776
5.1053 -1.3421 1.8796
5.1375 -1.2287 1.8816
5.1760 -1.1163 1.8868
5.1945 -0.9995 1.8856
5.2192 -0.8839 1.8877
5.2413 -0.7677 1.8897
5.2609 -0.6509 1.8918
5.2779 -0.5337 1.8939
5.2923 -0.4160 1.8959
5.3040 -0.2979 1.8980
5.3132 -0.1795 1.9001
5.3197 -0.0609 1.9022
5.3235 0.0580 1.9043
5.3247 0.1770 1.9064
5.3233 0.2961 1.9085
5.3192 0.4152 1.9106
5.3124 0.5343 1.9127
5.3029 0.6533 1.9148
5.2908 0.7722 1.9169
5.2760 0.8908 1.9190
5.2585 1.0092 1.9211
5.2383 1.1273 1.9232
5.2155 1.2449 1.9253
5.1901 1.3621 1.9274
5.1619 1.4788 1.9294
5.1312 1.5949 1.9315
5.0978 1.7103 1.9335
5.0618 1.8251 1.9356
5.0258 1.9401 1.9386
5.0144 2.0656 1.9522
5.0093 2.1957 1.9695
5.0061 2.3291 1.9890
5.0027 2.4650 2.0097
4.9991 2.6036 2.0318
4.9952 2.7453 2.0553
4.9910 2.8901 2.0804
4.9866 3.0384 2.1070
4.9261 3.1547 2.1114
4.8573 3.2661 2.1134
4.7860 3.3759 2.1154
4.7121 3.4842 2.1173
4.6357 3.5908 2.1192
4.5569 3.6957 2.1210
4.4756 3.7988 2.1228
4.3920 3.9001 2.1246
4.3060 3.9995 2.1264
4.2178 4.0970 2.1281
4.1272 4.1925 2.1298
4.0345 4.2860 2.1314
3.9396 4.3773 2.1331
3.8426 4.4665 2.1346
3.7435 4.5535 2.1362
3.6424 4.6382 2.1377
3.5393 4.7207 2.1391
3.4343 4.8008 2.1405
3.3275 4.8785 2.1419
3.2188 4.9537 2.1432
3.1085 5.0265 2.1445
2.9964 5.0967 2.1458
2.8827 5.1644 2.1470
2.7674 5.2295 2.1481
2.6506 5.2919 2.1492
2.5323 5.3516 2.1503
2.4127 5.4086 2.1513
2.2918 5.4628 2.1522
0.8039 2.0431 0.7978
0.7578 2.0602 0.7977
0.7114 2.0763 0.7977
0.6647 2.0914 0.7977
1.6696 5.6917 2.1563
1.5421 5.7287 2.1569
1.4138 5.7629 2.1575
1.2847 5.7941 2.1581
1.1549 5.8223 2.1586
1.0245 5.8474 2.1590
0.8935 5.8696 2.1594
0.7620 5.8888 2.1598
0.6301 5.9048 2.1600
0.4978 5.9178 2.1602
0.3652 5.9277 2.1604
0.2325 5.9346 2.1605
0.0996 5.9384 2.1606
-0.0333 5.9392 2.1606
-0.1662 5.9369 2.1605
-0.2990 5.9316 2.1605
-0.4316 5.9232 2.1603
-0.5641 5.9117 2.1601
-0.6962 5.8973 2.1599
-0.8279 5.8796 2.1596
-0.9591 5.8590 2.1592
-1.0899 5.8353 2.1588
-1.2200 5.8086 2.1583
-1.3494 5.7790 2.1578
-1.4782 5.7463 2.1572
-1.6061 5.7107 2.1566
-0.6412 2.0987 0.7977
-0.6881 2.0841 0.7977
-0.7347 2.0686 0.7978
-0.7810 2.0520 0.7978
-2.2310 5.4891 2.1527
-2.3526 5.4362 2.1518
-2.4729 5.3806 2.1508
-2.5918 5.3223 2.1498
-2.7094 5.2612 2.1487
-2.8254 5.1975 2.1475
-2.9399 5.1311 2.1464
-3.0528 5.0622 2.1452
-3.1641 4.9907 2.1439
-3.2736 4.9167 2.1426
-3.3814 4.8402 2.1412
-3.4873 4.7613 2.1398
-3.5914 4.6800 2.1384
-3.6935 4.5964 2.1369
-3.7936 4.5105 2.1354
-3.8917 4.4224 2.1339
-3.9876 4.3322 2.1323
-4.0815 4.2397 2.1306
-4.1731 4.1453 2.1290
-4.2625 4.0487 2.1272
-4.3497 3.9503 2.1255
-4.4345 3.8499 2.1237
-4.5170 3.7477 2.1219
-4.5970 3.6437 2.1201
-4.6746 3.5379 2.1182
-4.7498 3.4305 2.1163
-4.8224 3.3214 2.1144
-4.8925 3.2108 2.1124
-4.9600 3.0988 2.1105
-5.0249 2.9852 2.1085
-5.0871 2.8704 2.1064
-5.1467 2.7541 2.1044
-5.2037 2.6366 2.1023
-5.2578 2.5180 2.1002
-5.3093 2.3983 2.0981
-5.3580 2.2775 2.0959
-5.4039 2.1557 2.0938
-5.4471 2.0330 2.0916
-5.4874 1.9095 2.0894
-5.5249 1.7851 2.0872
-5.5595 1.6601 2.0850
-5.5914 1.5344 2.0828
-5.6203 1.4080 2.0806
-5.6464 1.2812 2.0783
-5.6696 1.1539 2.0761
-5.6899 1.0262 2.0738
-5.7073 0.8982 2.0716
-5.7219 0.7700 2.0693
-5.7336 0.6415 2.0670
-5.7423 0.5129 2.0648
-5.7482 0.3842 2.0625
-5.7512 0.2555 2.0602
-5.7514 0.1269 2.0579
-5.7486 -0.0016 2.0557
-5.7430 -0.1299 2.0534
-5.7346 -0.2579 2.0511
-5.7233 -0.3856 2.0489
-5.7092 -0.5130 2.0466
-5.6922 -0.6399 2.0444
-5.6725 -0.7663 2.0422
-5.6499 -0.8921 2.0399
-5.6247 -1.0173 2.0377
-5.5966 -1.1418 2.0355
-5.5658 -1.2656 2.0333
-5.5323 -1.3886 2.0312
-5.4962 -1.5107 2.0290
-5.4574 -1.6318 2.0269
-5.4159 -1.7521 2.0247
-5.3718 -1.8712 2.0226
-5.3251 -1.9893 2.0205
-5.2759 -2.1063 2.0185
-5.2242 -2.2221 2.0164
-5.1699 -2.3366 2.0144
-5.1132 -2.4498 2.0124
-5.0540 -2.5617 2.0104
-4.9925 -2.6721 2.0085
-4.9285 -2.7811 2.0066
-4.8623 -2.8886 2.0047
-4.7937 -2.9946 2.0028
-4.7229 -3.0989 2.0009
-4.6498 -3.2017 1.9991
-4.5746 -3.3027 1.9973
-4.4973 -3.4020 1.9956
-4.4178 -3.4995 1.9939
-4.3362 -3.5952 1.9922
-4.2527 -3.6891 1.9905
-4.1671 -3.7810 1.9889
-4.0797 -3.8710 1.9873
-3.9903 -3.9590 1.9857
-3.8991 -4.0451 1.9842
-3.8061 -4.1290 1.9827
-3.7113 -4.2109 1.9813
-3.6148 -4.2906 1.9799
-3.5166 -4.3682 1.9785
-3.4168 -4.4436 1.9772
-3.3155 -4.5168 1.9759
-3.2127 -4.5877 1.9746
-3.1083 -4.6564 1.9734
-3.0026 -4.7227 1.9722
-2.8954 -4.7868 1.9711
-2.7870 -4.8484 1.9700
-2.6773 -4.9077 1.9690
-2.5664 -4.9645 1.9680
-2.4543 -5.0189 1.9670
-2.3410 -5.0708 1.9661
-2.2268 -5.1203 1.9652
-2.1115 -5.1673 1.9644
-1.9953 -5.2117 1.9636
-1.8781 -5.2536 1.9629
-1.7601 -5.2930 1.9622
-1.6413 -5.3298 1.9615
-1.5218 -5.3640 1.9609
-1.4016 -5.3956 1.9604
-1.2808 -5.4246 1.9598
-1.1593 -5.4509 1.9594
-1.0374 -5.4747 1.9590
-0.9150 -5.4958 1.9586
-0.7922 -5.5142 1.9583
-0.6690 -5.5300 1.9580
-0.5455 -5.5431 1.9577
-0.4218 -5.5535 1.9576
-0.2978 -5.5613 1.9574
-0.1738 -5.5664 1.9573
-0.0497 -5.5688 1.9573
0.0744 -5.5685 1.9573
0.1986 -5.5655 1.9573
0.3226 -5.5599 1.9574
0.4465 -5.5516 1.9576
0.5702 -5.5406 1.9578
0.6936 -5.5270 1.9580
0.8167 -5.5107 1.9583
0.9394 -5.4917 1.9587
1.0617 -5.4700 1.9590
1.1836 -5.4458 1.9595
1.3049 -5.4189 1.9599
1.4256 -5.3893 1.9605
1.5457 -5.3572 1.9610
1.6651 -5.3225 1.9616
1.7837 -5.2852 1.9623
1.9015 -5.2453 1.9630
2.0185 -5.2029 1.9638
2.1345 -5.1579 1.9646
2.2496 -5.1104 1.9654
2.3636 -5.0605 1.9663
2.4766 -5.0080 1.9672
2.5885 -4.9531 1.9682
2.6992 -4.8958 1.9692
2.8086 -4.8361 1.9702
2.9168 -4.7740 1.9713
3.0236 -4.7095 1.9725
3.1291 -4.6426 1.9737
3.2331 -4.5735 1.9749
3.3357 -4.5021 1.9761
3.4367 -4.4285 1.9774
3.5361 -4.3526 1.9788
3.6340 -4.2746 1.9802
3.7301 -4.1944 1.9816
3.8245 -4.1121 1.9830
3.9172 -4.0278 1.9845
4.0080 -3.9413 1.9860
4.0970 -3.8529 1.9876
4.1841 -3.7625 1.9892
4.2692 -3.6702 1.9908
4.3524 -3.5760 1.9925
4.4335 -3.4799 1.9942
4.5125 -3.3820 1.9959
4.5895 -3.2824 1.9977
4.6642 -3.1810 1.9995
4.7368 -3.0780 2.0013
4.8072 -2.9733 2.0032
4.8753 -2.8670 2.0050
4.9411 -2.7592 2.0069
4.9874 -2.6409 2.0020
4.9917 -2.5021 1.9815
4.9957 -2.3662 1.9623
4.9994 -2.2327 1.9444
5.0029 -2.1017 1.9277
5.0063 -1.9728 1.9122
5.0094 -1.8460 1.8979
5.0142 -1.7216 1.8854
5.0254 -1.6010 1.8764
5.0597 -1.4884 1.8770
5.0951 -1.3760 1.8790
5.1281 -1.2628 1.8810
5.1586 -1.1488 1.8830
5.1866 -1.0341 1.8850
5.2121 -0.9187 1.8871
5.2350 -0.8026 1.8891
5.2553 -0.6860 1.8912
5.2730 -0.5689 1.8932
5.2882 -0.4513 1.8953
5.3008 -0.3334 1.8974
5.3107 -0.2151 1.8995
5.3180 -0.0965 1.9016
5.3226 0.0223 1.9037
5.3246 0.1413 1.9058
5.3240 0.2604 1.9079
5.3207 0.3795 1.9100
5.3147 0.4986 1.9121
5.3060 0.6177 1.9142
5.2947 0.7366 1.9163
5.2807 0.8553 1.9184
5.2640 0.9737 1.9205
5.2447 1.0919 1.9226
5.2227 1.2097 1.9247
5.1980 1.3270 1.9267
5.1769 1.4456 1.9311
5.1407 1.5601 1.9309
5.1081 1.6757 1.9329
5.0728 1.7907 1.9349
5.0350 1.9049 1.9370
5.0179 2.0278 1.9480
5.0102 2.1562 1.9640
5.0071 2.2888 1.9830
5.0037 2.4239 2.0033
5.0002 2.5618 2.0250
4.9964 2.7025 2.0481
4.9923 2.8464 2.0727
4.9879 2.9936 2.0989
4.9462 3.1211 2.1109
4.8782 3.2329 2.1128
4.8076 3.3431 2.1148
4.7345 3.4518 2.1167
4.6589 3.5589 2.1186
4.5808 3.6644 2.1205
4.5003 3.7680 2.1223
4.4173 3.8699 2.1241
4.3321 3.9699 2.1259
4.2445 4.0680 2.1276
4.1546 4.1641 2.1293
4.0626 4.2581 2.1309
3.9683 4.3501 2.1326
3.8719 4.4400 2.1342
3.7734 4.5276 2.1357
3.6729 4.6131 2.1372
3.5704 4.6962 2.1387
3.4660 4.7770 2.1401
3.3597 4.8554 2.1415
3.2516 4.9314 2.1428
3.1417 5.0049 2.1441
3.0302 5.0759 2.1454
2.9169 5.1444 2.1466
2.8021 5.2102 2.1478
2.6858 5.2734 2.1489
2.5680 5.3340 2.1500
2.4488 5.3918 2.1510
2.3282 5.4468 2.1520
0.8176 2.0378 0.7978
0.7717 2.0552 0.7977
0.7254 2.0716 0.7977
0.6787 2.0870 0.7977
1.7076 5.6799 2.1561
1.5804 5.7179 2.1567
1.4524 5.7530 2.1574
1.3235 5.7850 2.1579
1.1939 5.8141 2.1584
1.0637 5.8402 2.1589
0.9328 5.8633 2.1593
0.8015 5.8833 2.1597
0.6697 5.9004 2.1600
0.5375 5.9142 2.1602
0.4050 5.9251 2.1604
0.2723 5.9329 2.1605
0.1395 5.9376 2.1606
0.0066 5.9393 2.1606
-0.1263 5.9379 2.1606
-0.2592 5.9335 2.1605
-0.3918 5.9260 2.1604
-0.5244 5.9155 2.1602
-0.6566 5.9019 2.1600
-0.7884 5.8852 2.1597
-0.9198 5.8655 2.1594
-1.0507 5.8427 2.1590
-1.1810 5.8170 2.1585
-1.3107 5.7882 2.1580
-1.4396 5.7564 2.1574
-1.5678 5.7217 2.1568
-0.6271 2.1028 0.7977
-0.6741 2.0886 0.7977
-0.7208 2.0733 0.7977
-0.7671 2.0570 0.7978
-0.8131 2.0397 0.7978
-2.3162 5.4524 2.1521
-2.4369 5.3976 2.1511
-2.5563 5.3401 2.1501
-2.6742 5.2798 2.1490
-2.7907 5.2169 2.1479
-2.9057 5.1513 2.1467
-3.0191 5.0831 2.1455
-3.1309 5.0124 2.1443
-3.2410 4.9391 2.1430
-3.3493 4.8634 2.1416
-3.4557 4.7852 2.1403
-3.5604 4.7046 2.1388
-3.6631 4.6217 2.1374
-3.7638 4.5365 2.1359
-3.8625 4.4491 2.1343
-3.9591 4.3594 2.1327
-4.0535 4.2677 2.1311
-4.1459 4.1738 2.1295
-4.2360 4.0779 2.1278
-4.3238 3.9800 2.1260
-4.4093 3.8802 2.1243
-4.4925 3.7785 2.1225
-4.5732 3.6751 2.1206
-4.6516 3.5698 2.1188
-4.7275 3.4629 2.1169
-4.8009 3.3543 2.1150
-4.8717 3.2442 2.1130
-4.9400 3.1326 2.1111
-5.0057 3.0194 2.1091
-5.0687 2.9049 2.1070
-5.1292 2.7891 2.1050
-5.1869 2.6720 2.1029
-5.2419 2.5537 2.1008
-5.2942 2.4343 2.0987
-5.3437 2.3138 2.0966
-5.3905 2.1923 2.0944
-5.4344 2.0699 2.0923
-5.4756 1.9466 2.0901
-5.5139 1.8225 2.0879
-5.5494 1.6977 2.0857
-5.5821 1.5722 2.0835
-5.6119 1.4460 2.0813
-5.6389 1.3193 2.0790
-5.6629 1.1922 2.0768
-5.6841 1.0646 2.0745
-5.7024 0.9366 2.0723
-5.7178 0.8085 2.0700
-5.7304 0.6800 2.0677
-5.7400 0.5514 2.0654
-5.7467 0.4228 2.0632
-5.7506 0.2941 2.0609
-5.7516 0.1655 2.0586
-5.7497 0.0369 2.0564
-5.7450 -0.0914 2.0541
-5.7374 -0.2196 2.0518
-5.7270 -0.3474 2.0496
-5.7137 -0.4748 2.0473
-5.6976 -0.6018 2.0451
-5.6787 -0.7284 2.0428
-5.6570 -0.8544 2.0406
-5.6325 -0.9798 2.0384
-5.6053 -1.1045 2.0362
-5.5754 -1.2285 2.0340
-5.5427 -1.3518 2.0318
-5.5073 -1.4741 2.0296
-5.4693 -1.5956 2.0275
-5.4286 -1.7161 2.0254
-5.3853 -1.8356 2.0233
-5.3394 -1.9541 2.0212
-5.2909 -2.0714 2.0191
-5.2399 -2.1875 2.0170
-5.1864 -2.3024 2.0150
-5.1304 -2.4160 2.0130
-5.0720 -2.5283 2.0110
-5.0112 -2.6391 2.0091
-4.9480 -2.7486 2.0071
-4.8824 -2.8565 2.0052
-4.8145 -2.9630 2.0033
-4.7444 -3.0678 2.0015
-4.6720 -3.1710 1.9997
-4.5974 -3.2725 1.9979
-4.5207 -3.3724 1.9961
-4.4418 -3.4704 1.9944
-4.3609 -3.5667 1.9927
-4.2780 -3.6611 1.9910
-4.1930 -3.7536 1.9894
-4.1061 -3.8442 1.9878
-4.0173 -3.9328 1.9862
-3.9266 -4.0195 1.9847
-3.8341 -4.1041 1.9832
-3.7399 -4.1865 1.9817
-3.6439 -4.2669 1.9803
-3.5462 -4.3452 1.9789
-3.4469 -4.4213 1.9776
-3.3461 -4.4951 1.9763
-3.2437 -4.5667 1.9750
-3.1398 -4.6360 1.9738
-3.0345 -4.7031 1.9726
-2.9277 -4.7678 1.9714
-2.8197 -4.8302 1.9703
-2.7103 -4.8901 1.9693
-2.5998 -4.9477 1.9683
-2.4880 -5.0028 1.9673
-2.3751 -5.0555 1.9664
-2.2612 -5.1057 1.9655
-2.1462 -5.1535 1.9646
-2.0302 -5.1987 1.9638
-1.9133 -5.2413 1.9631
-1.7956 -5.2814 1.9624
-1.6771 -5.3190 1.9617
-1.5577 -5.3540 1.9611
-1.4377 -5.3864 1.9605
-1.3171 -5.4161 1.9600
-1.1958 -5.4433 1.9595
-1.0740 -5.4678 1.9591
-0.9518 -5.4897 1.9587
-0.8290 -5.5089 1.9583
-0.7060 -5.5255 1.9581
-0.5826 -5.5394 1.9578
-0.4589 -5.5507 1.9576
-0.3351 -5.5592 1.9575
-0.2110 -5.5651 1.9574
-0.0869 -5.5683 1.9573
0.0372 -5.5689 1.9573
0.1614 -5.5667 1.9573
0.2854 -5.5619 1.9574
0.4093 -5.5544 1.9575
0.5331 -5.5442 1.9577
0.6566 -5.5313 1.9580
0.7798 -5.5158 1.9582
0.9027 -5.4976 1.9585
1.0251 -5.4768 1.9589
1.1471 -5.4533 1.9593
1.2686 -5.4272 1.9598
1.3895 -5.3985 1.9603
1.5097 -5.3671 1.9609
1.6293 -5.3332 1.9615
1.7482 -5.2967 1.9621
1.8663 -5.2575 1.9628
1.9835 -5.2159 1.9635
2.0998 -5.1717 1.9643
2.2152 -5.1249 1.9651
2.3295 -5.0757 1.9660
2.4428 -5.0240 1.9669
2.5551 -4.9699 1.9679
2.6661 -4.9132 1.9689
2.7759 -4.8542 1.9699
2.8845 -4.7928 1.9710
2.9917 -4.7290 1.9721
3.0976 -4.6629 1.9733
3.2021 -4.5945 1.9745
3.3051 -4.5238 1.9758
3.4065 -4.4508 1.9770
3.5065 -4.3756 1.9784
3.6048 -4.2983 1.9797
3.7014 -4.2187 1.9811
3.7964 -4.1371 1.9826
3.8896 -4.0533 1.9841
3.9810 -3.9675 1.9856
4.0705 -3.8797 1.9871
4.1582 -3.7898 1.9887
4.2439 -3.6981 1.9903
4.3276 -3.6044 1.9920
4.4094 -3.5089 1.9937
4.4890 -3.4116 1.9954
4.5666 -3.3124 1.9972
4.6420 -3.2116 1.9989
4.7153 -3.1091 2.0008
4.7863 -3.0049 2.0026
4.8551 -2.8991 2.0045
4.9216 -2.7917 2.0064
4.9857 -2.6829 2.0083
4.9904 -2.5435 1.9875
4.9945 -2.4067 1.9679
4.9983 -2.2725 1.9496
5.0019 -2.1408 1.9326
5.0053 -2.0113 1.9168
5.0085 -1.8838 1.9021
5.0114 -1.7583 1.8885
5.0221 -1.6371 1.8790
5.0486 -1.5219 1.8764
5.0848 -1.4098 1.8784
5.1185 -1.2969 1.8804
5.1497 -1.1831 1.8824
5.1785 -1.0686 1.8844
5.2047 -0.9533 1.8865
5.2284 -0.8375 1.8885
5.2495 -0.7210 1.8906
5.2680 -0.6041 1.8926
5.2839 -0.4867 1.8947
5.2973 -0.3688 1.8968
5.3080 -0.2506 1.8989
5.3161 -0.1321 1.9010
5.3215 -0.0133 1.9031
5.3243 0.1056 1.9052
5.3245 0.2246 1.9073
5.3219 0.3438 1.9094
5.3168 0.4629 1.9115
5.3089 0.5820 1.9136
5.2984 0.7009 1.9157
5.2852 0.8197 1.9178
5.2693 0.9382 1.9199
5.2508 1.0565 1.9220
5.2295 1.1744 1.9241
5.2057 1.2919 1.9261
5.1791 1.4088 1.9282
5.1499 1.5253 1.9303
5.1181 1.6411 1.9323
5.0837 1.7563 1.9343
5.0466 1.8707 1.9364
5.0213 1.9901 1.9439
5.0111 2.1169 1.9585
5.0080 2.2488 1.9771
5.0048 2.3831 1.9971
5.0013 2.5201 2.0184
4.9975 2.6599 2.0410
4.9935 2.8028 2.0652
4.9893 2.9490 2.0909
4.9661 3.0872 2.1103
4.8989 3.1995 2.1122
4.8291 3.3102 2.1142
4.7567 3.4194 2.1161
4.6818 3.5270 2.1180
4.6045 3.6329 2.1199
4.5247 3.7371 2.1217
4.4425 3.8395 2.1236
4.3579 3.9401 2.1253
4.2710 4.0388 2.1271
4.1818 4.1354 2.1288
4.0904 4.2301 2.1305
3.9968 4.3227 2.1321
3.9011 4.4132 2.1337
3.8032 4.5016 2.1353
3.7033 4.5877 2.1368
3.6014 4.6715 2.1383
3.4976 4.7530 2.1397
3.3918 4.8321 2.1411
3.2842 4.9089 2.1424
3.1749 4.9831 2.1438
3.0638 5.0549 2.1450
2.9511 5.1241 2.1463
2.8367 5.1908 2.1474
2.7208 5.2548 2.1486
2.6034 5.3161 2.1496
2.4846 5.3747 2.1507
2.3645 5.4306 2.1517
0.8313 2.0324 0.7978
0.7855 2.0501 0.7978
0.7393 2.0668 0.7977
0.6927 2.0825 0.7977
0.6459 2.0971 0.7977
1.6187 5.7068 2.1566
1.4909 5.7428 2.1572
1.3623 5.7757 2.1578
1.2329 5.8057 2.1583
1.1028 5.8327 2.1588
0.9721 5.8567 2.1592
0.8409 5.8776 2.1596
0.7093 5.8956 2.1599
0.5772 5.9104 2.1601
0.4448 5.9222 2.1603
0.3122 5.9308 2.1604
0.1794 5.9365 2.1605
0.0465 5.9391 2.1606
-0.0864 5.9387 2.1606
-0.2193 5.9351 2.1605
-0.3521 5.9286 2.1604
-0.4846 5.9190 2.1603
-0.6169 5.9063 2.1601
-0.7489 5.8906 2.1598
-0.8804 5.8717 2.1595
-1.0115 5.8499 2.1591
-1.1420 5.8250 2.1586
-1.2719 5.7971 2.1581
-1.4010 5.7663 2.1576
-1.5294 5.7324 2.1570
-1.6570 5.6956 2.1564
-0.6600 2.0930 0.7977
-0.7068 2.0780 0.7977
-0.7533 2.0620 0.7978
-0.7994 2.0450 0.7978
-2.2798 5.4683 2.1523
-2.4009 5.4143 2.1514
-2.5206 5.3576 2.1504
-2.6390 5.2981 2.1493
-2.7560 5.2360 2.1482
-2.8714 5.1712 2.1471
-2.9853 5.1039 2.1459
-3.0975 5.0339 2.1447
-3.2081 4.9614 2.1434
-3.3169 4.8864 2.1421
-3.4240 4.8089 2.1407
-3.5292 4.7291 2.1393
-3.6324 4.6469 2.1378
-3.7338 4.5623 2.1363
-3.8331 4.4755 2.1348
-3.9303 4.3866 2.1332
-4.0254 4.2954 2.1316
-4.1184 4.2022 2.1300
-4.2092 4.1069 2.1283
-4.2977 4.0096 2.1266
-4.3839 3.9103 2.1248
-4.4678 3.8092 2.1230
-4.5493 3.7063 2.1212
-4.6284 3.6016 2.1193
-4.7050 3.4951 2.1175
-4.7791 3.3871 2.1156
-4.8507 3.2774 2.1136
-4.9198 3.1663 2.1117
-4.9862 3.0535 2.1097
-5.0501 2.9394 2.1076
-5.1113 2.8240 2.1056
-5.1698 2.7073 2.1035
-5.2257 2.5893 2.1015
-5.2788 2.4703 2.0994
-5.3291 2.3501 2.0972
-5.3767 2.2289 2.0951
-5.4215 2.1068 2.0929
-5.4635 1.9837 2.0908
-5.5027 1.8598 2.0886
-5.5391 1.7352 2.0864
-5.5726 1.6098 2.0841
-5.6033 1.4839 2.0819
-5.6311 1.3574 2.0797
-5.6560 1.2303 2.0774
-5.6781 1.1029 2.0752
-5.6972 0.9751 2.0729
-5.7135 0.8469 2.0707
-5.7269 0.7186 2.0684
-5.7374 0.5900 2.0661
-5.7450 0.4614 2.0639
-5.7498 0.3327 2.0616
-5.7516 0.2041 2.0593
-5.7506 0.0755 2.0570
-5.7467 -0.0529 2.0548
-5.7400 -0.1811 2.0525
-5.7304 -0.3091 2.0502
-5.7180 -0.4366 2.0480
-5.7027 -0.5638 2.0457
-5.6847 -0.6905 2.0435
-5.6638 -0.8167 2.0413
-5.6402 -0.9423 2.0390
-5.6138 -1.0672 2.0368
-5.5846 -1.1914 2.0346
-5.5528 -1.3149 2.0325
-5.5182 -1.4375 2.0303
-5.4810 -1.5593 2.0281
-5.4411 -1.6801 2.0260
-5.3986 -1.7999 2.0239
-5.3534 -1.9186 2.0218
-5.3057 -2.0363 2.0197
-5.2555 -2.1528 2.0177
-5.2027 -2.2680 2.0156
-5.1475 -2.3820 2.0136
-5.0898 -2.4947 2.0116
-5.0297 -2.6061 2.0096
-4.9672 -2.7159 2.0077
-4.9023 -2.8242 2.0058
-4.8351 -2.9312 2.0039
-4.7657 -3.0365 2.0020
-4.6939 -3.1402 2.0002
-4.6200 -3.2423 1.9984
-4.5439 -3.3426 1.9966
-4.4657 -3.4412 1.9949
-4.3854 -3.5380 1.9932
-4.3031 -3.6330 1.9915
-4.2187 -3.7261 1.9899
-4.1324 -3.8172 1.9882
-4.0441 -3.9065 1.9867
-3.9540 -3.9937 1.9851
-3.8621 -4.0789 1.9836
-3.7683 -4.1620 1.9821
-3.6729 -4.2430 1.9807
-3.5757 -4.3219 1.9793
-3.4769 -4.3987 1.9780
-3.3765 -4.4732 1.9767
-3.2745 -4.5455 1.9754
-3.1711 -4.6155 1.9741
-3.0662 -4.6832 1.9729
-2.9599 -4.7486 1.9718
-2.8522 -4.8117 1.9707
-2.7433 -4.8724 1.9696
-2.6330 -4.9307 1.9686
-2.5217 -4.9866 1.9676
-2.4091 -5.0400 1.9666
-2.2955 -5.0909 1.9657
-2.1808 -5.1394 1.9649
-2.0651 -5.1854 1.9641
-1.9485 -5.2288 1.9633
-1.8310 -5.2697 1.9626
-1.7127 -5.3080 1.9619
-1.5936 -5.3438 1.9613
-1.4738 -5.3769 1.9607
-1.3533 -5.4075 1.9601
-1.2323 -5.4354 1.9596
-1.1106 -5.4607 1.9592
-0.9885 -5.4834 1.9588
-0.8659 -5.5034 1.9584
-0.7429 -5.5208 1.9581
-0.6196 -5.5355 1.9579
-0.4960 -5.5476 1.9577
-0.3722 -5.5569 1.9575
-0.2482 -5.5636 1.9574
-0.1242 -5.5677 1.9573
-0.0000 -5.2090 1.9636
0.1161 -5.2078 1.9637
0.2321 -5.2040 1.9637
0.1430 -2.1352 0.8067
0.1905 -2.1314 0.8067
0.2380 -2.1265 0.8067
0.2853 -2.1205 0.8067
0.3325 -2.1135 0.8067
0.3794 -2.1053 0.8067
0.4262 -2.0962 0.8066
0.4728 -2.0859 0.8066
0.5191 -2.0746 0.8066
0.5652 -2.0623 0.8066
0.6109 -2.0489 0.8065
0.6563 -2.0344 0.8065
0.7014 -2.0190 0.8065
0.7461 -2.0025 0.8064
0.7904 -1.9850 0.8064
2.0391 -4.8063 1.9708
2.1463 -4.7609 1.9716
2.2525 -4.7131 1.9724
2.3576 -4.6631 1.9733
2.4618 -4.6107 1.9742
2.5647 -4.5561 1.9752
2.6665 -4.4992 1.9762
2.7671 -4.4401 1.9772
2.8664 -4.3789 1.9783
2.9644 -4.3154 1.9794
3.0610 -4.2499 1.9806
3.1562 -4.1822 1.9818
3.2500 -4.1124 1.9830
3.3422 -4.0405 1.9843
3.4329 -3.9667 1.9856
3.5221 -3.8908 1.9869
3.6095 -3.8130 1.9883
3.6953 -3.7332 1.9897
3.7794 -3.6515 1.9912
3.8617 -3.5680 1.9926
3.9423 -3.4827 1.9942
4.0209 -3.3956 1.9957
4.0977 -3.3067 1.9973
4.1726 -3.2161 1.9989
4.2455 -3.1239 2.0005
4.3164 -3.0300 2.0022
4.3853 -2.9345 2.0038
4.4521 -2.8375 2.0056
4.5168 -2.7390 2.0073
4.5794 -2.6391 2.0091
4.6398 -2.5377 2.0109
4.6980 -2.4349 2.0127
4.7539 -2.3308 2.0145
4.8076 -2.2255 2.0164
4.8590 -2.1189 2.0183
4.9080 -2.0112 2.0202
4.9547 -1.9023 2.0221
4.9870 -1.7881 2.0192
4.9900 -1.6644 2.0055
4.9927 -1.5424 1.9930
4.9952 -1.4218 1.9815
4.9975 -1.3026 1.9711
4.9996 -1.1846 1.9617
5.0016 -1.0678 1.9533
5.0033 -0.9519 1.9459
5.0049 -0.8369 1.9395
5.0063 -0.7226 1.9340
5.0075 -0.6090 1.9294
5.0086 -0.4959 1.9258
5.0095 -0.3832 1.9231
5.0102 -0.2709 1.9212
5.0108 -0.1588 1.9203
5.0111 -0.0468 1.9203
5.0114 0.0651 1.9211
5.0114 0.1771 1.9229
5.0113 0.2893 1.9255
5.0110 0.4018 1.9291
5.0105 0.5146 1.9336
5.0099 0.6279 1.9389
5.0090 0.7418 1.9453
5.0080 0.8564 1.9525
5.0069 0.9718 1.9607
5.0056 1.0882 1.9700
5.0040 1.2055 1.9802
5.0024 1.3241 1.9914
5.0005 1.4439 2.0037
4.9984 1.5651 2.0171
4.9961 1.6879 2.0316
4.9936 1.8124 2.0473
4.9909 1.9387 2.0641
4.9880 2.0670 2.0822
4.9679 2.1901 2.0944
4.9207 2.3020 2.0964
4.8710 2.4128 2.0983
4.8187 2.5227 2.1003
4.7639 2.6313 2.1022
4.7067 2.7388 2.1041
4.6470 2.8450 2.1060
4.5848 2.9499 2.1078
4.5203 3.0534 2.1097
4.4533 3.1555 2.1115
4.3841 3.2560 2.1132
4.3125 3.3551 2.1150
4.2386 3.4525 2.1167
4.1625 3.5483 2.1184
4.0842 3.6424 2.1201
4.0037 3.7347 2.1217
3.9211 3.8252 2.1233
3.8364 3.9138 2.1249
3.7497 4.0005 2.1264
3.6610 4.0853 2.1279
3.5703 4.1680 2.1294
3.4777 4.2487 2.1308
3.3832 4.3273 2.1322
3.2869 4.4037 2.1335
3.1888 4.4780 2.1348
3.0890 4.5500 2.1361
2.9876 4.6197 2.1373
2.8845 4.6871 2.1385
2.7799 4.7521 2.1397
2.6738 4.8148 2.1408
2.5662 4.8750 2.1418
2.4573 4.9327 2.1429
2.3470 4.9880 2.1438
0.8319 1.8758 0.7981
0.7895 1.8935 0.7981
0.7468 1.9104 0.7981
0.7038 1.9263 0.7980
0.6604 1.9413 0.7980
0.6167 1.9553 0.7980
0.5727 1.9683 0.7979
0.5284 1.9804 0.7979
0.4839 1.9915 0.7979
0.4392 2.0016 0.7979
0.3942 2.0108 0.7978
0.3491 2.0189 0.7978
0.3038 2.0261 0.7978
0.2584 2.0322 0.7978
0.2128 2.0374 0.7978
0.1672 2.0415 0.7978
0.1214 2.0447 0.7978
0.0756 2.0469 0.7978
0.0298 2.0480 0.7978
-0.0161 2.0482 0.7978
-0.0619 2.0473 0.7978
-0.1077 2.0455 0.7978
-0.1535 2.0426 0.7978
-0.1992 2.0388 0.7978
-0.2447 2.0339 0.7978
-0.2902 2.0281 0.7978
-0.3356 2.0212 0.7978
-0.3808 2.0134 0.7979
-0.4258 2.0045 0.7979
-0.4706 1.9947 0.7979
-0.5152 1.9839 0.7979
-0.5595 1.9722 0.7980
-0.6036 1.9594 0.7980
-0.6474 1.9457 0.7980
-0.6909 1.9310 0.7980
-0.7340 1.9154 0.7981
-0.7768 1.8989 0.7981
-0.8193 1.8814 0.7982
-2.3138 5.0042 2.1441
-2.4245 4.9497 2.1432
-2.5339 4.8928 2.1422
-2.6419 4.8333 2.1411
-2.7484 4.7714 2.1400
-2.8535 4.7070 2.1389
-2.9571 4.6403 2.1377
-3.0590 4.5713 2.1365
-3.1593 4.5000 2.1352
-3.2579 4.4264 2.1339
-3.3547 4.3507 2.1326
-3.4498 4.2727 2.1312
-3.5429 4.1927 2.1298
-3.6342 4.1105 2.1283
-3.7236 4.0264 2.1269
-3.8109 3.9403 2.1253
-3.8962 3.8522 2.1238
-3.9795 3.7622 2.1222
-4.0606 3.6705 2.1206
-4.1396 3.5769 2.1189
-4.2164 3.4816 2.1172
-4.2909 3.3847 2.1155
-4.3632 3.2861 2.1138
-4.4332 3.1860 2.1120
-4.5008 3.0844 2.1102
-4.5661 2.9813 2.1084
-4.6290 2.8768 2.1065
-4.6894 2.7710 2.1047
-4.7474 2.6639 2.1028
-4.8029 2.5556 2.1009
-4.8560 2.4461 2.0989
-4.9065 2.3356 2.0970
-4.9544 2.2239 2.0950
-4.9998 2.1113 2.0930
-5.0426 1.9978 2.0910
-5.0828 1.8834 2.0890
-5.1204 1.7682 2.0869
-5.1553 1.6523 2.0849
-5.1877 1.5357 2.0828
-5.2173 1.4184 2.0808
-5.2443 1.3007 2.0787
-5.2686 1.1824 2.0766
-5.2903 1.0637 2.0745
-5.3092 0.9446 2.0724
-5.3255 0.8252 2.0703
-5.3391 0.7055 2.0682
-5.3499 0.5857 2.0661
-5.3581 0.4657 2.0639
-5.3636 0.3457 2.0618
-5.3664 0.2257 2.0597
-5.3666 0.1057 2.0576
-5.3640 -0.0142 2.0554
-5.3588 -0.1339 2.0533
-5.3509 -0.2534 2.0512
-5.3404 -0.3725 2.0491
-5.3272 -0.4914 2.0470
-5.3114 -0.6098 2.0449
-5.2930 -0.7278 2.0428
-5.2720 -0.8452 2.0408
-5.2484 -0.9621 2.0387
-5.2222 -1.0783 2.0366
-5.1934 -1.1938 2.0346
-5.1622 -1.3086 2.0326
-5.1284 -1.4227 2.0306
-5.0922 -1.5358 2.0286
-5.0534 -1.6480 2.0266
-5.0123 -1.7593 2.0246
-4.9687 -1.8696 2.0227
-4.9227 -1.9787 2.0207
-4.8743 -2.0869 2.0188
-4.8237 -2.1938 2.0169
-4.7707 -2.2995 2.0151
-4.7154 -2.4040 2.0132
-4.6579 -2.5072 2.0114
-4.5981 -2.6090 2.0096
-4.5362 -2.7093 2.0078
-4.4721 -2.8083 2.0061
-4.4059 -2.9058 2.0043
-4.3377 -3.0017 2.0027
-4.2674 -3.0961 2.0010
-4.1950 -3.1888 1.9993
-4.1207 -3.2799 1.9977
-4.0445 -3.3693 1.9962
-3.9664 -3.4570 1.9946
-3.8864 -3.5428 1.9931
-3.8046 -3.6269 1.9916
-3.7210 -3.7091 1.9902
-3.6357 -3.7894 1.9887
-3.5487 -3.8678 1.9873
-3.4601 -3.9443 1.9860
-3.3698 -4.0188 1.9847
-3.2780 -4.0912 1.9834
-3.1847 -4.1616 1.9822
-3.0899 -4.2300 1.9809
-2.9937 -4.2962 1.9798
-2.8961 -4.3603 1.9786
-2.7972 -4.4222 1.9776
-2.6970 -4.4819 1.9765
-2.5956 -4.5395 1.9755
-2.4929 -4.5947 1.9745
-2.3891 -4.6478 1.9736
-2.2843 -4.6985 1.9727
-2.1784 -4.7470 1.9718
-2.0715 -4.7931 1.9710
-0.8037 -1.9797 0.8064
-0.7595 -1.9975 0.8065
-0.7149 -2.0143 0.8065
-0.6699 -2.0300 0.8065
-0.6246 -2.0448 0.8066
-0.5790 -2.0585 0.8066
-0.5330 -2.0711 0.8066
-0.4868 -2.0827 0.8066
-0.4403 -2.0933 0.8066
-0.3935 -2.1028 0.8067
-0.3466 -2.1112 0.8067
-0.2995 -2.1186 0.8067
-0.2522 -2.1248 0.8067
-0.2048 -2.1300 0.8067
-0.1573 -2.1342 0.8067
-0.2670 -5.2024 1.9638
-0.1510 -5.2069 1.9637
-0.0349 -5.2089 1.9636
0.0812 -5.2084 1.9637
0.1973 -5.2054 1.9637
0.1287 -2.1361 0.8067
0.1763 -2.1326 0.8067
0.2237 -2.1280 0.8067
0.2711 -2.1224 0.8067
0.3183 -2.1157 0.8067
0.3654 -2.1079 0.8067
0.4122 -2.0990 0.8066
0.4589 -2.0891 0.8066
0.5053 -2.0781 0.8066
0.5514 -2.0661 0.8066
0.5972 -2.0530 0.8065
0.6427 -2.0389 0.8065
0.6879 -2.0237 0.8065
0.7327 -2.0075 0.8064
0.7772 -1.9904 0.8064
0.8212 -1.9722 0.8064
2.1142 -4.7747 1.9713
2.2207 -4.7277 1.9722
2.3262 -4.6783 1.9730
2.4306 -4.6266 1.9739
2.5339 -4.5727 1.9749
2.6361 -4.5165 1.9759
2.7371 -4.4581 1.9769
2.8367 -4.3975 1.9780
2.9351 -4.3347 1.9791
3.0322 -4.2698 1.9802
3.1278 -4.2027 1.9814
3.2220 -4.1335 1.9827
3.3147 -4.0623 1.9839
3.4059 -3.9890 1.9852
3.4955 -3.9138 1.9865
3.5835 -3.8365 1.9879
3.6698 -3.7573 1.9893
3.7544 -3.6762 1.9907
3.8372 -3.5933 1.9922
3.9183 -3.5085 1.9937
3.9975 -3.4219 1.9952
4.0749 -3.3335 1.9968
4.1504 -3.2435 1.9984
4.2239 -3.1517 2.0000
4.2954 -3.0583 2.0017
4.3649 -2.9633 2.0033
4.4323 -2.8668 2.0050
4.4976 -2.7687 2.0068
4.5609 -2.6692 2.0085
4.6219 -2.5682 2.0103
4.6807 -2.4659 2.0121
4.7374 -2.3622 2.0140
4.7917 -2.2572 2.0158
4.8438 -2.1510 2.0177
4.8935 -2.0436 2.0196
4.9409 -1.9351 2.0215
4.9860 -1.8255 2.0234
4.9891 -1.7013 2.0095
4.9919 -1.5788 1.9966
4.9945 -1.4578 1.9848
4.9968 -1.3382 1.9741
4.9990 -1.2199 1.9644
5.0010 -1.1027 1.9557
5.0028 -0.9866 1.9480
5.0044 -0.8713 1.9413
5.0059 -0.7568 1.9355
5.0072 -0.6430 1.9307
5.0083 -0.5297 1.9268
5.0093 -0.4170 1.9238
5.0100 -0.3046 1.9217
5.0106 -0.1924 1.9205
5.0110 -0.0804 1.9202
5.0113 0.0315 1.9208
5.0114 0.1435 1.9223
5.0113 0.2556 1.9246
5.0111 0.3680 1.9279
5.0107 0.4807 1.9321
5.0101 0.5939 1.9372
5.0093 0.7076 1.9433
5.0084 0.8220 1.9502
5.0073 0.9371 1.9582
5.0060 1.0532 1.9671
5.0045 1.1702 1.9770
5.0029 1.2884 1.9879
5.0010 1.4078 1.9999
4.9990 1.5286 2.0130
4.9968 1.6509 2.0271
4.9944 1.7749 2.0424
4.9917 1.9006 2.0589
4.9889 2.0283 2.0766
4.9815 2.1563 2.0938
4.9351 2.2685 2.0958
4.8861 2.3797 2.0978
4.8346 2.4898 2.0997
4.7806 2.5989 2.1016
4.7241 2.7067 2.1035
4.6651 2.8133 2.1054
4.6037 2.9185 2.1073
4.5399 3.0225 2.1091
4.4737 3.1250 2.1109
4.4051 3.2260 2.1127
4.3342 3.3255 2.1145
4.2610 3.4234 2.1162
4.1856 3.5197 2.1179
4.1079 3.6143 2.1196
4.0281 3.7072 2.1212
3.9461 3.7982 2.1228
3.8621 3.8874 2.1244
3.7759 3.9747 2.1259
3.6878 4.0601 2.1274
3.5977 4.1434 2.1289
3.5056 4.2247 2.1304
3.4117 4.3039 2.1318
3.3160 4.3810 2.1331
3.2184 4.4559 2.1344
3.1192 4.5286 2.1357
3.0182 4.5990 2.1370
2.9156 4.6671 2.1382
2.8115 4.7329 2.1393
2.7058 4.7962 2.1405
2.5987 4.8572 2.1415
2.4901 4.9157 2.1426
2.3802 4.9717 2.1436
0.8445 1.8702 0.7981
0.8023 1.8883 0.7981
0.7597 1.9054 0.7981
0.7167 1.9216 0.7980
0.6734 1.9369 0.7980
0.6298 1.9512 0.7980
0.5859 1.9645 0.7979
0.5417 1.9769 0.7979
0.4973 1.9883 0.7979
0.4526 1.9987 0.7979
0.4077 2.0081 0.7979
0.3627 2.0166 0.7978
0.3174 2.0240 0.7978
0.2720 2.0305 0.7978
0.2265 2.0359 0.7978
0.1809 2.0404 0.7978
0.1351 2.0439 0.7978
0.0894 2.0463 0.7978
0.0435 2.0478 0.7978
-0.0023 2.0483 0.7978
-0.0481 2.0477 0.7978
-0.0940 2.0461 0.7978
-0.1397 2.0436 0.7978
-0.1855 2.0400 0.7978
-0.2311 2.0355 0.7978
-0.2766 2.0299 0.7978
-0.3220 2.0234 0.7978
-0.3672 2.0158 0.7979
-0.4123 2.0073 0.7979
-0.4571 1.9978 0.7979
-0.5018 1.9873 0.7979
-0.5462 1.9758 0.7979
-0.5904 1.9633 0.7980
-0.6343 1.9499 0.7980
-0.6778 1.9355 0.7980
-0.7211 1.9202 0.7981
-0.7640 1.9039 0.7981
-0.8066 1.8867 0.7981
-2.2804 5.0201 2.1444
-2.3914 4.9663 2.1435
-2.5012 4.9101 2.1425
-2.6096 4.8514 2.1414
-2.7166 4.7902 2.1404
-2.8222 4.7266 2.1392
-2.9262 4.6606 2.1381
-3.0286 4.5923 2.1369
-3.1294 4.5216 2.1356
-3.2285 4.4487 2.1343
-3.3259 4.3736 2.1330
-3.4214 4.2963 2.1316
-3.5152 4.2169 2.1302
-3.6070 4.1354 2.1288
-3.6970 4.0518 2.1273
-3.7849 3.9663 2.1258
-3.8709 3.8788 2.1242
-3.9547 3.7894 2.1227
-4.0365 3.6982 2.1211
-4.1161 3.6052 2.1194
-4.1936 3.5104 2.1177
-4.2688 3.4140 2.1160
-4.3417 3.3159 2.1143
-4.4124 3.2162 2.1125
-4.4808 3.1150 2.1107
-4.5467 3.0124 2.1089
-4.6104 2.9083 2.1071
-4.6715 2.8029 2.1052
-4.7303 2.6962 2.1033
-4.7865 2.5882 2.1014
-4.8403 2.4791 2.0995
-4.8916 2.3688 2.0976
-4.9403 2.2575 2.0956
-4.9865 2.1452 2.0936
-5.0300 2.0319 2.0916
-5.0710 1.9177 2.0896
-5.1094 1.8028 2.0876
-5.1451 1.6871 2.0855
-5.1782 1.5707 2.0835
-5.2087 1.4537 2.0814
-5.2365 1.3361 2.0793
-5.2616 1.2179 2.0772
-5.2840 1.0993 2.0751
-5.3038 0.9803 2.0730
-5.3209 0.8610 2.0709
-5.3353 0.7414 2.0688
-5.3470 0.6217 2.0667
-5.3559 0.5017 2.0646
-5.3623 0.3817 2.0624
-5.3659 0.2617 2.0603
-5.3668 0.1417 2.0582
-5.3651 0.0217 2.0561
-5.3607 -0.0980 2.0540
-5.3536 -0.2176 2.0519
-5.3438 -0.3369 2.0497
-5.3314 -0.4558 2.0476
-5.3164 -0.5743 2.0456
-5.2988 -0.6924 2.0435
-5.2785 -0.8100 2.0414
-5.2557 -0.9271 2.0393
-5.2303 -1.0435 2.0373
-5.2023 -1.1593 2.0352
-5.1718 -1.2743 2.0332
-5.1388 -1.3885 2.0312
-5.1033 -1.5019 2.0292
-5.0653 -1.6145 2.0272
-5.0249 -1.7261 2.0252
-4.9820 -1.8366 2.0232
-4.9367 -1.9461 2.0213
-4.8891 -2.0546 2.0194
-4.8391 -2.1619 2.0175
-4.7868 -2.2679 2.0156
-4.7322 -2.3728 2.0138
-4.6754 -2.4763 2.0119
-4.6163 -2.5785 2.0101
-4.5550 -2.6794 2.0084
-4.4916 -2.7788 2.0066
-4.4260 -2.8767 2.0049
-4.3584 -2.9731 2.0032
-4.2887 -3.0679 2.0015
-4.2169 -3.1612 1.9998
-4.1432 -3.2528 1.9982
-4.0676 -3.3427 1.9966
-3.9900 -3.4308 1.9951
-3.9106 -3.5173 1.9935
-3.8293 -3.6019 1.9920
-3.7463 -3.6846 1.9906
-3.6615 -3.7655 1.9892
-3.5750 -3.8445 1.9878
-3.4869 -3.9216 1.9864
-3.3971 -3.9966 1.9851
-3.3057 -4.0697 1.9838
-3.2129 -4.1407 1.9825
-3.1185 -4.2097 1.9813
-3.0227 -4.2765 1.9801
-2.9256 -4.3413 1.9790
-2.8270 -4.4038 1.9779
-2.7272 -4.4642 1.9768
-2.6261 -4.5224 1.9758
-2.5238 -4.5784 1.9748
-2.4204 -4.6321 1.9738
-2.3159 -4.6835 1.9729
-2.2102 -4.7327 1.9721
-2.1036 -4.7795 1.9712
-0.8169 -1.9742 0.8064
-0.7728 -1.9923 0.8064
-0.7283 -2.0094 0.8065
-0.6835 -2.0254 0.8065
-0.6383 -2.0405 0.8065
-0.5927 -2.0545 0.8066
-0.5468 -2.0674 0.8066
-0.5007 -2.0794 0.8066
-0.4543 -2.0902 0.8066
-0.4076 -2.1000 0.8067
-0.3607 -2.1088 0.8067
-0.3136 -2.1165 0.8067
-0.2664 -2.1231 0.8067
-0.2190 -2.1286 0.8067
-0.1715 -2.1330 0.8067
-0.3018 -5.2005 1.9638
-0.1858 -5.2058 1.9637
-0.0697 -5.2086 1.9637
0.0464 -5.2088 1.9637
0.1625 -5.2066 1.9637
0.1144 -2.1369 0.8067
0.1620 -2.1338 0.8067
0.2095 -2.1295 0.8067
0.2569 -2.1242 0.8067
0.3042 -2.1178 0.8067
0.3513 -2.1103 0.8067
0.3982 -2.1018 0.8066
0.4449 -2.0922 0.8066
0.4914 -2.0815 0.8066
0.5376 -2.0698 0.8066
0.5835 -2.0570 0.8065
0.6291 -2.0432 0.8065
0.6744 -2.0284 0.8065
0.7193 -2.0125 0.8064
0.7639 -1.9956 0.8064
0.8080 -1.9777 0.8064
2.0821 -4.7884 1.9711
2.1889 -4.7420 1.9719
2.2947 -4.6934 1.9728
2.3994 -4.6424 1.9737
2.5031 -4.5891 1.9746
2.6056 -4.5336 1.9756
2.7069 -4.4759 1.9766
2.8070 -4.4159 1.9777
2.9058 -4.3538 1.9788
3.0032 -4.2895 1.9799
3.0993 -4.2230 1.9811
3.1939 -4.1545 1.9823
3.2871 -4.0839 1.9835
3.3787 -4.0112 1.9848
3.4688 -3.9365 1.9861
3.5573 -3.8599 1.9875
3.6441 -3.7813 1.9889
3.7292 -3.7008 1.9903
3.8126 -3.6184 1.9918
3.8942 -3.5341 1.9932
3.9740 -3.4480 1.9948
4.0519 -3.3602 1.9963
4.1279 -3.2707 1.9979
4.2020 -3.1794 1.9995
4.2741 -3.0865 2.0012
4.3442 -2.9920 2.0028
4.4123 -2.8959 2.0045
4.4783 -2.7983 2.0062
4.5421 -2.6992 2.0080
4.6038 -2.5987 2.0098
4.6633 -2.4967 2.0116
4.7206 -2.3934 2.0134
4.7757 -2.2888 2.0153
4.8284 -2.1830 2.0171
4.8789 -2.0760 2.0190
4.9270 -1.9678 2.0209
4.9727 -1.8585 2.0229
4.9882 -1.7384 2.0136
4.9911 -1.6154 2.0004
4.9937 -1.4940 1.9883
4.9962 -1.3740 1.9772
4.9984 -1.2553 1.9672
5.0004 -1.1378 1.9582
5.0023 -1.0213 1.9502
5.0040 -0.9058 1.9432
5.0055 -0.7911 1.9372
5.0068 -0.6771 1.9321
5.0080 -0.5637 1.9279
5.0090 -0.4508 1.9246
5.0098 -0.3383 1.9222
5.0105 -0.2261 1.9208
5.0109 -0.1140 1.9202
5.0112 -0.0021 1.9205
5.0114 0.1099 1.9217
5.0114 0.2220 1.9238
5.0112 0.3342 1.9268
5.0108 0.4468 1.9308
5.0103 0.5598 1.9356
5.0096 0.6734 1.9414
5.0087 0.7876 1.9481
5.0076 0.9025 1.9557
5.0064 1.0182 1.9643
5.0050 1.1350 1.9739
5.0034 1.2528 1.9846
5.0016 1.3718 1.9962
4.9997 1.4922 2.0089
4.9975 1.6140 2.0228
4.9951 1.7375 2.0377
4.9926 1.8627 2.0538
4.9898 1.9898 2.0712
4.9867 2.1190 2.0898
4.9493 2.2349 2.0952
4.9011 2.3464 2.0972
4.8503 2.4569 2.0991
4.7971 2.5663 2.1011
4.7413 2.6745 2.1030
4.6831 2.7814 2.1049
4.6224 2.8871 2.1067
4.5593 2.9915 2.1086
4.4938 3.0944 2.1104
4.4259 3.1959 2.1122
4.3557 3.2958 2.1139
4.2832 3.3942 2.1157
4.2084 3.4910 2.1174
4.1315 3.5861 2.1191
4.0523 3.6795 2.1207
3.9710 3.7711 2.1223
3.8875 3.8608 2.1239
3.8020 3.9487 2.1255
3.7145 4.0347 2.1270
3.6249 4.1186 2.1285
3.5335 4.2006 2.1299
3.4401 4.2804 2.1313
3.3449 4.3581 2.1327
3.2479 4.4337 2.1341
3.1491 4.5070 2.1353
3.0487 4.5781 2.1366
2.9466 4.6469 2.1378
2.8429 4.7134 2.1390
2.7377 4.7775 2.1401
2.6310 4.8391 2.1412
2.5228 4.8984 2.1423
2.4133 4.9551 2.1433
2.3025 5.0094 2.1442
0.8150 1.8830 0.7981
0.7725 1.9004 0.7981
0.7296 1.9169 0.7980
0.6864 1.9324 0.7980
0.6429 1.9470 0.7980
0.5991 1.9606 0.7980
0.5550 1.9733 0.7979
0.5107 1.9850 0.7979
0.4661 1.9957 0.7979
0.4212 2.0054 0.7979
0.3762 2.0141 0.7978
0.3310 2.0219 0.7978
0.2856 2.0286 0.7978
0.2402 2.0344 0.7978
0.1946 2.0392 0.7978
0.1489 2.0429 0.7978
0.1031 2.0457 0.7978
0.0573 2.0475 0.7978
0.0115 2.0482 0.7978
-0.0344 2.0480 0.7978
-0.0802 2.0467 0.7978
-0.1260 2.0445 0.7978
-0.1718 2.0412 0.7978
-0.2174 2.0370 0.7978
-0.2630 2.0317 0.7978
-0.3084 2.0254 0.7978
-0.3537 2.0182 0.7979
-0.3988 2.0100 0.7979
-0.4437 2.0007 0.7979
-0.4884 1.9905 0.7979
-0.5329 1.9793 0.7979
-0.5772 1.9672 0.7980
-0.6211 1.9540 0.7980
-0.6648 1.9400 0.7980
-0.7082 1.9249 0.7981
-0.7512 1.9089 0.7981
-0.7939 1.8920 0.7981
-2.2468 5.0357 2.1447
-2.3582 4.9827 2.1438
-2.4684 4.9273 2.1428
-2.5772 4.8693 2.1417
-2.6847 4.8088 2.1407
-2.7907 4.7459 2.1396
-2.8951 4.6806 2.1384
-2.9980 4.6130 2.1372
-3.0993 4.5431 2.1360
-3.1989 4.4709 2.1347
-3.2968 4.3964 2.1334
-3.3930 4.3198 2.1320
-3.4872 4.2410 2.1306
-3.5797 4.1601 2.1292
-3.6702 4.0771 2.1277
-3.7588 3.9922 2.1262
-3.8453 3.9052 2.1247
-3.9298 3.8164 2.1231
-4.0122 3.7257 2.1215
-4.0925 3.6333 2.1199
-4.1706 3.5390 2.1182
-4.2464 3.4431 2.1165
-4.3201 3.3454 2.1148
-4.3915 3.2463 2.1131
-4.4605 3.1455 2.1113
-4.5272 3.0433 2.1095
-4.5915 2.9396 2.1076
-4.6534 2.8346 2.1058
-4.7129 2.7283 2.1039
-4.7699 2.6207 2.1020
-4.8244 2.5119 2.1001
-4.8765 2.4020 2.0981
-4.9260 2.2911 2.0962
-4.9729 2.1790 2.0942
-5.0172 2.0660 2.0922
-5.0590 1.9521 2.0902
-5.0982 1.8374 2.0882
-5.1347 1.7219 2.0861
-5.1686 1.6057 2.0841
-5.1998 1.4889 2.0820
-5.2284 1.3714 2.0799
-5.2543 1.2534 2.0778
-5.2776 1.1349 2.0758
-5.2982 1.0161 2.0737
-5.3160 0.8969 2.0715
-5.3312 0.7774 2.0694
-5.3437 0.6576 2.0673
-5.3535 0.5377 2.0652
-5.3607 0.4177 2.0631
-5.3651 0.2977 2.0610
-5.3668 0.1777 2.0588
-5.3659 0.0577 2.0567
-5.3623 -0.0621 2.0546
-5.3560 -0.1817 2.0525
-5.3470 -0.3011 2.0504
-5.3354 -0.4201 2.0483
-5.3212 -0.5388 2.0462
-5.3044 -0.6571 2.0441
-5.2849 -0.7748 2.0420
-5.2628 -0.8920 2.0399
-5.2382 -1.0087 2.0379
-5.2110 -1.1246 2.0358
-5.1813 -1.2399 2.0338
-5.1490 -1.3543 2.0318
-5.1142 -1.4680 2.0298
-5.0770 -1.5808 2.0278
-5.0373 -1.6927 2.0258
-4.9951 -1.8035 2.0238
-4.9506 -1.9134 2.0219
-4.9036 -2.0221 2.0200
-4.8543 -2.1298 2.0181
-4.8027 -2.2362 2.0162
-4.7488 -2.3415 2.0143
-4.6927 -2.4454 2.0125
-4.6342 -2.5480 2.0107
-4.5736 -2.6493 2.0089
-4.5108 -2.7491 2.0071
-4.4459 -2.8475 2.0054
-4.3789 -2.9443 2.0037
-4.3098 -3.0397 2.0020
-4.2387 -3.1334 2.0003
-4.1655 -3.2255 1.9987
-4.0905 -3.3159 1.9971
-4.0135 -3.4046 1.9955
-3.9346 -3.4915 1.9940
-3.8539 -3.5767 1.9925
-3.7714 -3.6600 1.9910
-3.6871 -3.7415 1.9896
-3.6011 -3.8210 1.9882
-3.5135 -3.8987 1.9868
-3.4242 -3.9743 1.9855
-3.3333 -4.0480 1.9842
-3.2409 -4.1197 1.9829
-3.1470 -4.1892 1.9817
-3.0516 -4.2567 1.9805
-2.9549 -4.3221 1.9793
-2.8567 -4.3853 1.9782
-2.7573 -4.4464 1.9771
-2.6566 -4.5052 1.9761
-2.5546 -4.5618 1.9751
-2.4515 -4.6162 1.9741
-2.3473 -4.6683 1.9732
-2.2420 -4.7182 1.9723
-2.1357 -4.7657 1.9715
-0.8300 -1.9686 0.8064
-0.7861 -1.9870 0.8064
-0.7417 -2.0043 0.8065
-0.6970 -2.0207 0.8065
-0.6519 -2.0361 0.8065
-0.6064 -2.0504 0.8066
-0.5606 -2.0637 0.8066
-0.5145 -2.0759 0.8066
-0.4682 -2.0871 0.8066
-0.4216 -2.0972 0.8067
-0.3748 -2.1063 0.8067
-0.3278 -2.1143 0.8067
-0.2806 -2.1212 0.8067
-0.2333 -2.1271 0.8067
-0.1858 -2.1318 0.8067
-0.1382 -2.1355 0.8067
-0.2206 -5.2045 1.9637
-0.1045 -5.2080 1.9637
0.0116 -5.2090 1.9636
0.1277 -5.2075 1.9637
0.2437 -5.2035 1.9637
0.1477 -2.1348 0.8067
0.1953 -2.1309 0.8067
0.2427 -2.1259 0.8067
0.2900 -2.1198 0.8067
0.3372 -2.1127 0.8067
0.3841 -2.1045 0.8067
0.4309 -2.0952 0.8066
0.4774 -2.0848 0.8066
0.5237 -2.0734 0.8066
0.5697 -2.0610 0.8066
0.6155 -2.0475 0.8065
0.6608 -2.0329 0.8065
0.7059 -2.0174 0.8065
0.7505 -2.0008 0.8064
0.7948 -1.9832 0.8064
2.0498 -4.8019 1.9708
2.1569 -4.7562 1.9716
2.2630 -4.7082 1.9725
2.3681 -4.6579 1.9734
2.4721 -4.6054 1.9743
2.5750 -4.5505 1.9753
2.6766 -4.4934 1.9763
2.7771 -4.4341 1.9773
2.8763 -4.3727 1.9784
2.9741 -4.3090 1.9796
3.0706 -4.2432 1.9807
3.1657 -4.1753 1.9819
3.2593 -4.1053 1.9832
3.3514 -4.0332 1.9844
3.4419 -3.9592 1.9857
3.5309 -3.8831 1.9871
3.6182 -3.8051 1.9885
3.7038 -3.7251 1.9899
3.7877 -3.6433 1.9913
3.8699 -3.5596 1.9928
3.9502 -3.4741 1.9943
4.0287 -3.3868 1.9958
4.1053 -3.2977 1.9974
4.1800 -3.2070 1.9990
4.2527 -3.1146 2.0007
4.3234 -3.0205 2.0023
4.3921 -2.9249 2.0040
4.4587 -2.8277 2.0057
4.5232 -2.7291 2.0075
4.5855 -2.6290 2.0092
4.6457 -2.5274 2.0110
4.7037 -2.4246 2.0129
4.7594 -2.3204 2.0147
4.8128 -2.2149 2.0166
4.8640 -2.1082 2.0184
4.9128 -2.0003 2.0203
4.9592 -1.8914 2.0223
4.9873 -1.7756 2.0178
4.9902 -1.6521 2.0042
4.9929 -1.5302 1.9918
4.9954 -1.4098 1.9804
4.9977 -1.2908 1.9701
4.9998 -1.1729 1.9608
5.0018 -1.0561 1.9525
5.0035 -0.9403 1.9452
5.0050 -0.8254 1.9389
5.0064 -0.7112 1.9335
5.0077 -0.5976 1.9290
5.0087 -0.4846 1.9255
5.0096 -0.3720 1.9228
5.0103 -0.2597 1.9211
5.0108 -0.1476 1.9203
5.0112 -0.0356 1.9203
5.0114 0.0763 1.9213
5.0114 0.1883 1.9231
5.0112 0.3005 1.9259
5.0109 0.4130 1.9295
5.0104 0.5259 1.9341
5.0098 0.6393 1.9395
5.0090 0.7533 1.9459
5.0080 0.8679 1.9533
5.0068 0.9834 1.9616
5.0054 1.0998 1.9709
5.0039 1.2173 1.9813
5.0022 1.3360 1.9926
5.0003 1.4559 2.0050
4.9982 1.5773 2.0185
4.9959 1.7003 2.0331
4.9934 1.8249 2.0489
4.9906 1.9514 2.0659
4.9877 2.0800 2.0841
4.9633 2.2013 2.0946
4.9158 2.3131 2.0966
4.8658 2.4239 2.0985
4.8133 2.5336 2.1005
4.7583 2.6421 2.1024
4.7008 2.7495 2.1043
4.6409 2.8556 2.1062
4.5785 2.9603 2.1080
4.5137 3.0637 2.1098
4.4465 3.1656 2.1116
4.3770 3.2660 2.1134
4.3052 3.3649 2.1152
4.2311 3.4622 2.1169
4.1548 3.5578 2.1186
4.0763 3.6517 2.1202
3.9956 3.7438 2.1219
3.9128 3.8341 2.1235
3.8279 3.9226 2.1250
3.7409 4.0091 2.1265
3.6520 4.0937 2.1280
3.5611 4.1762 2.1295
3.4683 4.2567 2.1309
3.3736 4.3350 2.1323
3.2772 4.4112 2.1337
3.1789 4.4853 2.1350
3.0790 4.5570 2.1362
2.9774 4.6265 2.1375
2.8742 4.6937 2.1386
2.7694 4.7585 2.1398
2.6631 4.8209 2.1409
2.5554 4.8809 2.1420
2.4463 4.9384 2.1430
2.3359 4.9933 2.1439
0.8276 1.8776 0.7981
0.7853 1.8953 0.7981
0.7425 1.9120 0.7981
0.6994 1.9279 0.7980
0.6560 1.9427 0.7980
0.6123 1.9566 0.7980
0.5683 1.9696 0.7979
0.5240 1.9815 0.7979
0.4795 1.9925 0.7979
0.4347 2.0026 0.7979
0.3897 2.0116 0.7978
0.3446 2.0197 0.7978
0.2993 2.0267 0.7978
0.2538 2.0328 0.7978
0.2082 2.0378 0.7978
0.1626 2.0419 0.7978
0.1168 2.0450 0.7978
0.0710 2.0470 0.7978
0.0252 2.0481 0.7978
-0.0206 2.0482 0.7978
-0.0665 2.0472 0.7978
-0.1123 2.0452 0.7978
-0.1580 2.0423 0.7978
-0.2037 2.0383 0.7978
-0.2493 2.0334 0.7978
-0.2948 2.0274 0.7978
-0.3401 2.0205 0.7978
-0.3853 2.0125 0.7979
-0.4302 2.0036 0.7979
-0.4750 1.9937 0.7979
-0.5196 1.9828 0.7979
-0.5639 1.9709 0.7980
-0.6080 1.9581 0.7980
-0.6517 1.9443 0.7980
-0.6952 1.9295 0.7981
-0.7383 1.9138 0.7981
-0.7811 1.8971 0.7981
-0.8235 1.8795 0.7982
-2.3249 4.9989 2.1440
-2.4355 4.9442 2.1431
-2.5447 4.8869 2.1421
-2.6526 4.8272 2.1410
-2.7590 4.7650 2.1399
-2.8639 4.7005 2.1388
-2.9673 4.6336 2.1376
-3.0691 4.5643 2.1364
-3.1692 4.4927 2.1351
-3.2676 4.4190 2.1338
-3.3643 4.3430 2.1324
-3.4592 4.2648 2.1311
-3.5522 4.1846 2.1296
-3.6433 4.1022 2.1282
-3.7324 4.0179 2.1267
-3.8195 3.9315 2.1252
-3.9047 3.8433 2.1236
-3.9877 3.7531 2.1220
-4.0686 3.6612 2.1204
-4.1474 3.5675 2.1187
-4.2239 3.4720 2.1171
-4.2982 3.3749 2.1153
-4.3703 3.2762 2.1136
-4.4400 3.1759 2.1118
-4.5074 3.0741 2.1100
-4.5725 2.9709 2.1082
-4.6351 2.8663 2.1064
-4.6953 2.7603 2.1045
-4.7531 2.6531 2.1026
-4.8084 2.5447 2.1007
-4.8611 2.4351 2.0987
-4.9114 2.3246 2.0968
-4.9591 2.2127 2.0948
-5.0042 2.1000 2.0928
-5.0467 1.9863 2.0908
-5.0867 1.8719 2.0888
-5.1240 1.7566 2.0867
-5.1587 1.6406 2.0847
-5.1907 1.5240 2.0826
-5.2201 1.4067 2.0806
-5.2468 1.2888 2.0785
-5.2709 1.1705 2.0764
-5.2923 1.0518 2.0743
-5.3110 0.9327 2.0722
-5.3270 0.8132 2.0701
-5.3403 0.6936 2.0680
-5.3509 0.5737 2.0658
-5.3588 0.4537 2.0637
-5.3640 0.3337 2.0616
-5.3666 0.2137 2.0595
-5.3664 0.0937 2.0574
-5.3636 -0.0262 2.0552
-5.3581 -0.1459 2.0531
-5.3500 -0.2653 2.0510
-5.3392 -0.3845 2.0489
-5.3258 -0.5033 2.0468
-5.3097 -0.6216 2.0447
-5.2910 -0.7396 2.0426
-5.2697 -0.8569 2.0406
-5.2459 -0.9738 2.0385
-5.2194 -1.0899 2.0364
-5.1904 -1.2054 2.0344
-5.1589 -1.3201 2.0324
-5.1249 -1.4340 2.0304
-5.0884 -1.5471 2.0284
-5.0494 -1.6593 2.0264
-5.0080 -1.7704 2.0244
-4.9642 -1.8806 2.0225
-4.9180 -1.9896 2.0205
-4.8694 -2.0976 2.0186
-4.8185 -2.2044 2.0167
-4.7652 -2.3100 2.0149
-4.7097 -2.4144 2.0130
-4.6520 -2.5174 2.0112
-4.5920 -2.6191 2.0094
-4.5299 -2.7193 2.0076
-4.4656 -2.8181 2.0059
-4.3992 -2.9154 2.0042
-4.3307 -3.0112 2.0025
-4.2602 -3.1054 2.0008
-4.1877 -3.1980 1.9992
-4.1132 -3.2889 1.9976
-4.0368 -3.3781 1.9960
-3.9585 -3.4656 1.9945
-3.8783 -3.5513 1.9929
-3.7963 -3.6352 1.9915
-3.7126 -3.7172 1.9900
-3.6271 -3.7974 1.9886
-3.5399 -3.8756 1.9872
-3.4511 -3.9518 1.9859
-3.3607 -4.0261 1.9846
-3.2688 -4.0984 1.9833
-3.1753 -4.1686 1.9820
-3.0804 -4.2367 1.9808
-2.9840 -4.3027 1.9797
-2.8863 -4.3666 1.9785
-2.7872 -4.4283 1.9774
-2.6869 -4.4878 1.9764
-2.5854 -4.5451 1.9754
-2.4826 -4.6001 1.9744
-2.3787 -4.6529 1.9735
-2.2737 -4.7035 1.9726
-2.1677 -4.7517 1.9717
-0.8431 -1.9629 0.8064
-0.7993 -1.9816 0.8064
-0.7551 -1.9992 0.8065
-0.7104 -2.0159 0.8065
-0.6654 -2.0316 0.8065
-0.6201 -2.0462 0.8066
-0.5744 -2.0598 0.8066
-0.5284 -2.0723 0.8066
-0.4821 -2.0838 0.8066
-0.4356 -2.0943 0.8067
-0.3889 -2.1037 0.8067
-0.3419 -2.1120 0.8067
-0.2948 -2.1192 0.8067
-0.2475 -2.1254 0.8067
-0.2000 -2.1305 0.8067
-0.1525 -2.1345 0.8067
-0.2554 -5.2030 1.9638
-0.1393 -5.2072 1.9637
-0.0232 -5.2090 1.9636
0.0928 -5.2082 1.9637
0.2089 -5.2049 1.9637
0.1335 -2.1358 0.8067
0.1810 -2.1322 0.8067
0.2285 -2.1275 0.8067
0.2758 -2.1218 0.8067
0.3230 -2.1149 0.8067
0.3701 -2.1070 0.8067
0.4169 -2.0981 0.8066
0.4635 -2.0880 0.8066
0.5099 -2.0770 0.8066
0.5560 -2.0648 0.8066
0.6018 -2.0516 0.8065
0.6473 -2.0374 0.8065
0.6924 -2.0221 0.8065
0.7372 -2.0059 0.8064
0.7816 -1.9886 0.8064
0.8255 -1.9703 0.8064
2.1249 -4.7701 1.9714
2.2313 -4.7229 1.9722
2.3367 -4.6732 1.9731
2.4410 -4.6214 1.9740
2.5442 -4.5672 1.9750
2.6463 -4.5108 1.9760
2.7471 -4.4522 1.9770
2.8467 -4.3913 1.9781
2.9449 -4.3283 1.9792
3.0418 -4.2631 1.9804
3.1373 -4.1959 1.9816
3.2313 -4.1265 1.9828
3.3239 -4.0551 1.9840
3.4149 -3.9816 1.9853
3.5044 -3.9061 1.9867
3.5922 -3.8287 1.9880
3.6783 -3.7493 1.9894
3.7628 -3.6680 1.9909
3.8454 -3.5849 1.9923
3.9263 -3.4999 1.9939
4.0054 -3.4131 1.9954
4.0825 -3.3246 1.9969
4.1578 -3.2344 1.9985
4.2311 -3.1425 2.0002
4.3024 -3.0489 2.0018
4.3717 -2.9537 2.0035
4.4389 -2.8570 2.0052
4.5041 -2.7588 2.0069
4.5671 -2.6591 2.0087
4.6279 -2.5580 2.0105
4.6865 -2.4556 2.0123
4.7429 -2.3517 2.0141
4.7970 -2.2467 2.0160
4.8489 -2.1403 2.0179
4.8984 -2.0328 2.0198
4.9455 -1.9242 2.0217
4.9864 -1.8130 2.0220
4.9894 -1.6890 2.0082
4.9922 -1.5667 1.9954
4.9947 -1.4458 1.9837
4.9971 -1.3264 1.9731
4.9992 -1.2081 1.9635
5.0012 -1.0910 1.9549
5.0030 -0.9750 1.9473
5.0046 -0.8598 1.9407
5.0060 -0.7454 1.9350
5.0073 -0.6316 1.9303
5.0084 -0.5184 1.9264
5.0093 -0.4057 1.9235
5.0101 -0.2933 1.9215
5.0107 -0.1812 1.9204
5.0111 -0.0692 1.9202
5.0113 0.0427 1.9209
5.0114 0.1547 1.9225
5.0113 0.2668 1.9249
5.0110 0.3792 1.9283
5.0106 0.4920 1.9326
5.0100 0.6052 1.9378
5.0092 0.7190 1.9439
5.0083 0.8334 1.9510
5.0071 0.9487 1.9590
5.0058 1.0648 1.9680
5.0044 1.1820 1.9781
5.0027 1.3003 1.9891
5.0009 1.4198 2.0012
4.9988 1.5408 2.0143
4.9966 1.6632 2.0286
4.9941 1.7874 2.0440
4.9915 1.9133 2.0606
4.9886 2.0412 2.0785
4.9770 2.1676 2.0940
4.9303 2.2797 2.0960
4.8811 2.3908 2.0979
4.8294 2.5008 2.0999
4.7751 2.6097 2.1018
4.7183 2.7174 2.1037
4.6591 2.8239 2.1056
4.5974 2.9290 2.1075
4.5334 3.0328 2.1093
4.4669 3.1351 2.1111
4.3981 3.2360 2.1129
4.3270 3.3354 2.1146
4.2536 3.4332 2.1164
4.1779 3.5293 2.1181
4.1000 3.6237 2.1197
4.0200 3.7164 2.1214
3.9378 3.8072 2.1230
3.8535 3.8962 2.1246
3.7672 3.9833 2.1261
3.6789 4.0685 2.1276
3.5886 4.1516 2.1291
3.4963 4.2327 2.1305
3.4022 4.3118 2.1319
3.3063 4.3886 2.1333
3.2086 4.4633 2.1346
3.1091 4.5357 2.1359
3.0080 4.6059 2.1371
2.9053 4.6738 2.1383
2.8010 4.7393 2.1395
2.6952 4.8024 2.1406
