ply
format ascii 1.0
element vertex 2093
property float32 x
property float32 y
property float32 z
end_header
-11.5598 9.5484 2.4104
-11.7407 9.2648 2.4060
-11.9143 8.9776 2.4016
-12.0805 8.6871 2.3971
-12.2395 8.3933 2.3925
-12.3910 8.0966 2.3879
-12.5351 7.7972 2.3833
-12.6717 7.4951 2.3786
-12.8008 7.1907 2.3739
-12.9224 6.8841 2.3691
-13.0366 6.5756 2.3644
-13.1431 6.2653 2.3595
-13.2422 5.9534 2.3547
-13.3301 5.6386 2.3492
-13.4101 5.3227 2.3436
-13.4825 5.0060 2.3380
-13.5473 4.6887 2.3324
-13.6047 4.3709 2.3268
-13.6547 4.0530 2.3212
-13.6972 3.7349 2.3156
-13.7324 3.4170 2.3100
-13.7603 3.0994 2.3043
-13.7810 2.7823 2.2987
-13.7944 2.4658 2.2932
-13.8008 2.1500 2.2876
-13.8001 1.8353 2.2820
-13.7924 1.5217 2.2765
-13.7777 1.2093 2.2709
-13.7562 0.8984 2.2655
-13.7280 0.5890 2.2600
-13.6452 0.2804 2.2467
-13.6516 -0.0244 2.2491
-13.6035 -0.3283 2.2438
-13.5043 -0.6279 2.2311
-13.4446 -0.9264 2.2259
-13.3785 -1.2226 2.2208
-13.3064 -1.5164 2.2158
-13.2282 -1.8077 2.2108
-13.1833 -2.1025 2.2124
-13.0921 -2.3890 2.2074
-12.9952 -2.6726 2.2023
-12.8925 -2.9531 2.1974
-12.7843 -3.2306 2.1925
-12.6706 -3.5047 2.1876
-12.5515 -3.7756 2.1829
-12.4270 -4.0430 2.1781
-12.2975 -4.3070 2.1735
-12.1628 -4.5674 2.1689
-12.0231 -4.8241 2.1643
-11.8785 -5.0771 2.1599
-11.7292 -5.3263 2.1555
-11.5752 -5.5716 2.1511
-11.4165 -5.8129 2.1469
-11.2535 -6.0502 2.1427
-11.0860 -6.2835 2.1385
-10.9143 -6.5126 2.1345
-10.7383 -6.7375 2.1305
-10.5584 -6.9582 2.1266
-10.3744 -7.1745 2.1228
-10.1866 -7.3865 2.1190
-9.9949 -7.5940 2.1154
-9.7997 -7.7972 2.1118
-9.6008 -7.9958 2.1083
-9.3985 -8.1898 2.1048
-9.1927 -8.3793 2.1015
-8.9838 -8.5641 2.0982
-8.7716 -8.7443 2.0951
-8.5563 -8.9198 2.0919
-8.3380 -9.0905 2.0889
-8.1169 -9.2565 2.0860
-7.8929 -9.4177 2.0832
-7.6663 -9.5740 2.0804
-7.4370 -9.7255 2.0777
-7.2052 -9.8721 2.0751
-6.9710 -10.0138 2.0726
-6.7344 -10.1506 2.0702
-6.4956 -10.2824 2.0679
-6.2547 -10.4093 2.0656
-6.0116 -10.5311 2.0635
-5.7666 -10.6480 2.0614
-5.5197 -10.7597 2.0594
-5.2711 -10.8665 2.0575
-5.0207 -10.9682 2.0558
-4.7687 -11.0648 2.0540
-4.5152 -11.1563 2.0524
-4.2602 -11.2428 2.0509
-4.0038 -11.3241 2.0495
-3.7462 -11.4002 2.0481
-3.4874 -11.4713 2.0469
-3.2275 -11.5371 2.0457
-2.9666 -11.5979 2.0446
-2.7047 -11.6534 2.0436
-2.4421 -11.7038 2.0428
-2.1786 -11.7490 2.0420
-1.9144 -11.7891 2.0412
-1.6497 -11.8239 2.0406
-1.3844 -11.8536 2.0401
-1.1187 -11.8780 2.0397
-0.8527 -11.8973 2.0393
-0.5864 -11.9113 2.0391
-0.3199 -11.9202 2.0389
-0.0533 -11.9238 2.0389
0.2133 -11.9223 2.0389
0.4798 -11.9155 2.0390
0.7462 -11.9035 2.0392
1.0124 -11.8864 2.0395
1.2782 -11.8640 2.0399
1.5436 -11.8364 2.0404
1.8086 -11.8036 2.0410
2.0730 -11.7657 2.0417
2.3368 -11.7225 2.0424
2.5998 -11.6742 2.0433
2.8620 -11.6207 2.0442
3.1233 -11.5620 2.0453
3.3836 -11.4982 2.0464
3.6428 -11.4293 2.0476
3.9009 -11.3551 2.0489
4.1578 -11.2759 2.0503
4.4133 -11.1915 2.0518
4.6675 -11.1020 2.0534
4.9201 -11.0075 2.0551
5.0000 -10.5469 1.9888
5.0533 -10.0712 1.9192
5.2841 -9.9688 1.9210
5.5132 -9.8618 1.9229
5.7405 -9.7501 1.9249
5.9659 -9.6337 1.9269
6.1894 -9.5126 1.9291
6.4108 -9.3870 1.9313
6.6300 -9.2567 1.9336
6.8470 -9.1219 1.9360
7.0617 -8.9825 1.9384
7.2737 -8.8382 1.9409
7.4829 -8.6890 1.9434
7.6894 -8.5353 1.9459
7.8932 -8.3772 1.9485
8.0943 -8.2147 1.9512
8.2924 -8.0478 1.9540
8.4877 -7.8767 1.9568
8.6799 -7.7012 1.9597
8.8689 -7.5215 1.9627
9.0548 -7.3376 1.9658
9.2373 -7.1495 1.9690
9.4164 -6.9573 1.9722
9.5921 -6.7610 1.9755
9.7641 -6.5607 1.9789
9.9325 -6.3563 1.9824
10.0971 -6.1480 1.9859
10.2579 -5.9359 1.9895
10.4147 -5.7198 1.9932
10.5675 -5.5001 1.9969
10.7161 -5.2766 2.0008
10.8605 -5.0494 2.0046
11.0006 -4.8186 2.0086
11.1363 -4.5843 2.0126
11.2675 -4.3465 2.0167
11.3941 -4.1053 2.0208
11.5160 -3.8608 2.0251
11.6331 -3.6130 2.0293
11.7453 -3.3620 2.0337
11.8526 -3.1081 2.0381
11.9549 -2.8510 2.0425
12.0520 -2.5911 2.0470
12.1438 -2.3283 2.0516
12.2303 -2.0628 2.0562
12.3114 -1.7946 2.0609
12.3870 -1.5239 2.0656
12.4571 -1.2508 2.0703
7.4534 -0.5806 1.2352
7.4452 -0.4129 1.2310
12.6328 -0.4178 2.0849
12.6796 -0.1360 2.0898
12.7204 0.1477 2.0948
12.7552 0.4332 2.0998
12.7838 0.7203 2.1049
12.8062 1.0089 2.1100
12.8222 1.2988 2.1151
12.8319 1.5900 2.1202
12.8352 1.8824 2.1254
12.8319 2.1756 2.1305
12.8221 2.4697 2.1358
12.8057 2.7644 2.1410
12.7826 3.0597 2.1462
12.7527 3.3553 2.1515
12.7161 3.6511 2.1567
12.6726 3.9470 2.1620
12.6223 4.2427 2.1673
12.5651 4.5381 2.1725
12.5009 4.8331 2.1778
12.4297 5.1274 2.1831
12.3515 5.4209 2.1883
12.2664 5.7134 2.1936
12.1741 6.0048 2.1988
12.0748 6.2948 2.2040
11.9685 6.5832 2.2092
11.8551 6.8699 2.2144
11.7346 7.1547 2.2195
11.6071 7.4374 2.2246
11.4726 7.7178 2.2297
11.3287 7.9940 2.2343
11.1763 8.2662 2.2385
11.0170 8.5353 2.2427
10.8509 8.8011 2.2468
10.6781 9.0635 2.2508
10.4986 9.3222 2.2548
10.3125 9.5770 2.2587
10.1199 9.8277 2.2626
9.9208 10.0743 2.2664
9.7153 10.3163 2.2702
9.5036 10.5538 2.2738
9.2856 10.7864 2.2774
9.0616 11.0141 2.2809
8.8316 11.2366 2.2843
8.5958 11.4537 2.2877
8.3542 11.6653 2.2910
8.1070 11.8711 2.2941
7.8544 12.0711 2.2972
7.5965 12.2650 2.3002
7.3334 12.4527 2.3031
7.0653 12.6341 2.3059
6.7925 12.8090 2.3086
6.5149 12.9772 2.3112
6.2328 13.1386 2.3137
5.9464 13.2929 2.3161
5.6541 13.4363 2.3177
5.3582 13.5724 2.3192
5.0587 13.7014 2.3206
4.9943 14.5158 2.4384
4.7628 14.9170 2.4866
4.4322 15.0311 2.4879
4.0986 15.1371 2.4891
3.7623 15.2348 2.4901
3.4235 15.3242 2.4911
3.0824 15.4051 2.4920
2.7391 15.4768 2.4927
2.3924 15.5299 2.4917
2.0446 15.5740 2.4905
1.6959 15.6091 2.4892
1.3465 15.6353 2.4877
0.9967 15.6523 2.4861
0.6468 15.6605 2.4844
0.2972 15.6699 2.4842
-0.0525 15.6730 2.4842
-0.4022 15.6673 2.4841
-0.7516 15.6527 2.4839
-1.1004 15.6292 2.4836
-1.4485 15.5970 2.4832
-1.7956 15.5559 2.4827
-2.1414 15.5061 2.4820
-2.4858 15.4476 2.4812
-2.8284 15.3805 2.4803
-3.1691 15.3047 2.4793
-3.5075 15.2204 2.4782
-3.8440 15.1295 2.4772
-4.1782 15.0311 2.4763
-4.5096 14.9245 2.4753
-4.8381 14.8097 2.4742
-5.1633 14.6867 2.4730
-5.4852 14.5558 2.4717
-5.8035 14.4170 2.4703
-6.1179 14.2703 2.4688
-6.4284 14.1160 2.4672
-6.7346 13.9542 2.4655
-7.0364 13.7850 2.4637
-7.3336 13.6085 2.4618
-7.6261 13.4249 2.4598
-7.9135 13.2344 2.4577
-8.1959 13.0370 2.4555
-8.4730 12.8329 2.4533
-8.7446 12.6223 2.4509
-9.0106 12.4055 2.4485
-9.2708 12.1824 2.4460
-9.5251 11.9534 2.4434
-9.7734 11.7185 2.4407
-10.0156 11.4780 2.4379
-10.2514 11.2321 2.4351
-10.4808 10.9809 2.4322
-10.7009 10.7219 2.4286
-10.9122 10.4561 2.4245
-11.1166 10.1859 2.4203
-11.3139 9.9113 2.4161
-11.5041 9.6327 2.4117
-11.6872 9.3503 2.4074
-11.8630 9.0642 2.4029
-12.0314 8.7746 2.3984
-12.1926 8.4818 2.3939
-12.3463 8.1860 2.3893
-12.4927 7.8873 2.3847
-12.6315 7.5860 2.3800
-12.7629 7.2822 2.3753
-12.8868 6.9763 2.3706
-13.0031 6.6683 2.3658
-13.1119 6.3585 2.3610
-13.2133 6.0471 2.3562
-13.3047 5.7332 2.3509
-13.3869 5.4176 2.3453
-13.4615 5.1011 2.3397
-13.5286 4.7839 2.3341
-13.5883 4.4663 2.3285
-13.6405 4.1484 2.3229
-13.6852 3.8303 2.3173
-13.7226 3.5124 2.3116
-13.7527 3.1946 2.3060
-13.7755 2.8773 2.3004
-13.7911 2.5606 2.2948
-13.7996 2.2447 2.2892
-13.8010 1.9296 2.2837
-13.7954 1.6157 2.2781
-13.7828 1.3029 2.2726
-13.7634 0.9915 2.2671
-13.7372 0.6817 2.2616
-13.7043 0.3735 2.2562
-13.6647 0.0671 2.2508
-13.6186 -0.2373 2.2454
-13.5225 -0.5379 2.2328
-13.4631 -0.8371 2.2275
-13.3990 -1.1340 2.2224
-13.3287 -1.4286 2.2173
-13.2523 -1.7206 2.2123
-13.2095 -2.0160 2.2140
-13.1201 -2.3034 2.2089
-13.0249 -2.5879 2.2038
-12.9239 -2.8693 2.1989
-12.8173 -3.1477 2.1940
-12.7053 -3.4228 2.1891
-12.5878 -3.6947 2.1843
-12.4649 -3.9632 2.1795
-12.3369 -4.2282 2.1749
-12.2037 -4.4897 2.1702
-12.0655 -4.7475 2.1657
-11.9224 -5.0016 2.1612
-11.7745 -5.2519 2.1568
-11.6219 -5.4984 2.1524
-11.4646 -5.7409 2.1481
-11.3029 -5.9795 2.1439
-11.1367 -6.2139 2.1398
-10.9662 -6.4443 2.1357
-10.7916 -6.6705 2.1317
-10.6128 -6.8924 2.1278
-10.4300 -7.1100 2.1239
-10.2433 -7.3233 2.1202
-10.0528 -7.5322 2.1165
-9.8586 -7.7367 2.1129
-9.6608 -7.9366 2.1093
-9.4595 -8.1321 2.1059
-9.2548 -8.3229 2.1025
-9.0468 -8.5092 2.0992
-8.8355 -8.6907 2.0960
-8.6212 -8.8676 2.0929
-8.4038 -9.0398 2.0898
-8.1835 -9.2072 2.0869
-7.9604 -9.3698 2.0840
-7.7345 -9.5276 2.0812
-7.5061 -9.6806 2.0785
-7.2750 -9.8286 2.0759
-7.0415 -9.9718 2.0734
-6.8056 -10.1101 2.0709
-6.5675 -10.2434 2.0686
-6.3272 -10.3717 2.0663
-6.0847 -10.4951 2.0641
-5.8403 -10.6134 2.0620
-5.5940 -10.7268 2.0600
-5.3458 -10.8350 2.0581
-5.0960 -10.9364 2.0563
-4.8445 -11.0359 2.0546
-4.5914 -11.1294 2.0529
-4.3368 -11.2174 2.0513
-4.0809 -11.3002 2.0499
-3.8236 -11.3779 2.0485
-3.5652 -11.4505 2.0472
-3.3056 -11.5179 2.0460
-3.0450 -11.5802 2.0449
-2.7834 -11.6373 2.0439
-2.5210 -11.6893 2.0430
-2.2577 -11.7360 2.0422
-1.9937 -11.7776 2.0414
-1.7292 -11.8140 2.0408
-1.4640 -11.8452 2.0403
-1.1985 -11.8712 2.0398
-0.9325 -11.8920 2.0394
-0.6663 -11.9077 2.0391
-0.3998 -11.9181 2.0390
-0.1333 -11.9233 2.0389
0.1333 -11.9233 2.0389
0.3999 -11.9181 2.0390
0.6663 -11.9077 2.0391
0.9325 -11.8920 2.0394
1.1985 -11.8712 2.0398
1.4641 -11.8452 2.0403
1.7292 -11.8140 2.0408
1.9937 -11.7776 2.0414
2.2577 -11.7360 2.0422
2.5209 -11.6893 2.0430
2.7834 -11.6373 2.0439
3.0450 -11.5802 2.0449
3.3056 -11.5179 2.0460
3.5652 -11.4505 2.0472
3.8236 -11.3779 2.0485
4.0809 -11.3002 2.0499
4.3368 -11.2173 2.0513
4.5914 -11.1294 2.0529
4.8444 -11.0364 2.0545
4.9944 -10.7203 2.0153
5.0140 -10.1624 1.9304
5.2150 -10.0000 1.9205
5.4447 -9.8944 1.9223
5.6725 -9.7841 1.9243
5.8985 -9.6691 1.9263
6.1226 -9.5494 1.9284
6.3446 -9.4254 1.9306
6.5645 -9.2963 1.9329
6.7821 -9.1628 1.9353
6.9975 -9.0247 1.9377
7.2105 -8.8821 1.9402
7.4204 -8.7342 1.9426
7.6277 -8.5818 1.9451
7.8324 -8.4251 1.9477
8.0342 -8.2639 1.9504
8.2333 -8.0983 1.9531
8.4294 -7.9285 1.9560
8.6225 -7.7543 1.9589
8.8125 -7.5759 1.9618
8.9993 -7.3932 1.9649
9.1829 -7.2064 1.9680
9.3631 -7.0154 1.9712
9.5397 -6.8203 1.9745
9.7129 -6.6212 1.9779
9.8824 -6.4180 1.9813
10.0481 -6.2109 1.9848
10.2101 -5.9999 1.9884
10.3681 -5.7851 1.9921
10.5221 -5.5664 1.9958
10.6720 -5.3440 1.9996
10.8177 -5.1179 2.0035
10.9591 -4.8882 2.0074
11.0961 -4.6549 2.0114
11.2286 -4.4181 2.0155
11.3566 -4.1780 2.0196
11.4799 -3.9345 2.0238
11.5985 -3.6877 2.0280
11.7122 -3.4377 2.0324
11.8210 -3.1846 2.0367
11.9247 -2.9284 2.0412
12.0234 -2.6694 2.0457
12.1168 -2.4074 2.0502
12.2049 -2.1427 2.0548
12.2877 -1.8753 2.0595
12.3649 -1.6054 2.0642
12.4367 -1.3329 2.0689
7.5214 -0.6366 1.2475
7.4251 -0.4617 1.2285
12.6176 -0.5020 2.0834
12.6662 -0.2207 2.0883
12.7088 0.0624 2.0933
12.7454 0.3474 2.0983
12.7759 0.6340 2.1034
12.8001 0.9222 2.1084
12.8181 1.2117 2.1135
12.8297 1.5026 2.1187
12.8349 1.7945 2.1238
12.8336 2.0875 2.1290
12.8258 2.3814 2.1342
12.8113 2.6759 2.1394
12.7902 2.9711 2.1446
12.7624 3.2666 2.1499
12.7278 3.5624 2.1551
12.6864 3.8582 2.1604
12.6381 4.1540 2.1657
12.5829 4.4495 2.1710
12.5208 4.7447 2.1762
12.4518 5.0392 2.1815
12.3757 5.3329 2.1868
12.2926 5.6258 2.1920
12.2025 5.9175 2.1972
12.1054 6.2079 2.2025
12.0011 6.4969 2.2077
11.8899 6.7841 2.2128
11.7715 7.0695 2.2180
11.6461 7.3528 2.2231
11.5137 7.6339 2.2282
11.3731 7.9118 2.2330
11.2228 8.1848 2.2372
11.0655 8.4549 2.2414
10.9015 8.7217 2.2455
10.7307 8.9851 2.2496
10.5532 9.2450 2.2536
10.3691 9.5010 2.2576
10.1784 9.7530 2.2615
9.9812 10.0007 2.2653
9.7776 10.2442 2.2690
9.5677 10.4831 2.2727
9.3516 10.7172 2.2763
9.1294 10.9464 2.2799
8.9012 11.1704 2.2833
8.6671 11.3892 2.2867
8.4272 11.6024 2.2900
8.1817 11.8100 2.2932
7.9308 12.0117 2.2963
7.6744 12.2075 2.2993
7.4129 12.3971 2.3022
7.1462 12.5803 2.3050
6.8748 12.7572 2.3078
6.5987 12.9275 2.3104
6.3179 13.0909 2.3130
6.0328 13.2475 2.3154
5.7422 13.3940 2.3172
5.4473 13.5323 2.3187
5.1489 13.6635 2.3202
5.0016 14.2267 2.3956
4.8614 14.8812 2.4862
4.5317 14.9978 2.4875
4.1990 15.1062 2.4887
3.8635 15.2064 2.4898
3.5254 15.2982 2.4909
3.1849 15.3817 2.4918
2.8424 15.4568 2.4926
2.4966 15.5149 2.4920
2.1491 15.5617 2.4909
1.8006 15.5995 2.4896
1.4514 15.6284 2.4882
1.1017 15.6482 2.4866
0.7518 15.6590 2.4849
0.4021 15.6673 2.4841
0.0524 15.6730 2.4842
-0.2973 15.6699 2.4842
-0.6468 15.6580 2.4840
-0.9958 15.6372 2.4837
-1.3442 15.6075 2.4833
-1.6916 15.5692 2.4828
-2.0378 15.5220 2.4822
-2.3826 15.4661 2.4815
-2.7258 15.4015 2.4806
-3.0671 15.3283 2.4796
-3.4062 15.2466 2.4785
-3.7432 15.1573 2.4775
-4.0782 15.0615 2.4766
-4.4105 14.9574 2.4757
-4.7398 14.8450 2.4746
-5.0661 14.7245 2.4734
-5.3890 14.5959 2.4721
-5.7084 14.4594 2.4708
-6.0240 14.3151 2.4693
-6.3357 14.1631 2.4677
-6.6432 14.0035 2.4660
-6.9464 13.8365 2.4642
-7.2450 13.6622 2.4624
-7.5388 13.4808 2.4604
-7.8278 13.2923 2.4583
-8.1117 13.0969 2.4562
-8.3904 12.8948 2.4540
-8.6637 12.6862 2.4516
-8.9314 12.4712 2.4492
-9.1933 12.2499 2.4467
-9.4495 12.0227 2.4442
-9.6996 11.7896 2.4415
-9.9436 11.5507 2.4388
-10.1813 11.3064 2.4360
-10.4126 11.0568 2.4331
-10.6362 10.8007 2.4299
-10.8496 10.5363 2.4258
-11.0560 10.2674 2.4216
-11.2555 9.9941 2.4174
-11.4478 9.7167 2.4131
-11.6330 9.4354 2.4087
-11.8110 9.1503 2.4043
-11.9817 8.8618 2.3998
-12.1450 8.5700 2.3953
-12.3010 8.2750 2.3907
-12.4495 7.9772 2.3861
-12.5906 7.6766 2.3814
-12.7243 7.3736 2.3767
-12.8504 7.0683 2.3720
-12.9690 6.7609 2.3672
-13.0801 6.4516 2.3624
-13.1837 6.1407 2.3576
-13.2785 5.8278 2.3526
-13.3630 5.5124 2.3470
-13.4399 5.1961 2.3414
-13.5093 4.8791 2.3358
-13.5712 4.5616 2.3302
-13.6256 4.2438 2.3246
-13.6726 3.9257 2.3190
-13.7122 3.6077 2.3133
-13.7445 3.2899 2.3077
-13.7695 2.9725 2.3021
-13.7872 2.6555 2.2965
-13.7978 2.3394 2.2909
-13.8013 2.0240 2.2853
-13.7978 1.7097 2.2798
-13.7873 1.3966 2.2743
-13.7700 1.0848 2.2687
-13.7458 0.7745 2.2633
-13.7148 0.4658 2.2578
-13.6773 0.1588 2.2524
-13.6331 -0.1462 2.2470
-13.5825 -0.4492 2.2416
-13.4812 -0.7476 2.2290
-13.4189 -1.0452 2.2239
-13.3504 -1.3405 2.2188
-13.2758 -1.6333 2.2138
-13.1952 -1.9234 2.2088
-13.1475 -2.2175 2.2104
-13.0540 -2.5028 2.2053
-12.9548 -2.7852 2.2004
-12.8499 -3.0645 2.1954
-12.7395 -3.3406 2.1905
-12.6235 -3.6135 2.1857
-12.5023 -3.8830 2.1810
-12.3758 -4.1491 2.1763
-12.2442 -4.4116 2.1716
-12.1075 -4.6705 2.1670
-11.9659 -4.9257 2.1625
-11.8194 -5.1772 2.1581
-11.6681 -5.4248 2.1537
-11.5123 -5.6686 2.1494
-11.3519 -5.9083 2.1452
-11.1870 -6.1440 2.1410
-11.0178 -6.3756 2.1369
-10.8444 -6.6031 2.1329
-10.6668 -6.8263 2.1289
-10.4852 -7.0452 2.1251
-10.2997 -7.2598 2.1213
-10.1103 -7.4700 2.1176
-9.9173 -7.6758 2.1139
-9.7205 -7.8771 2.1104
-9.5203 -8.0739 2.1069
-9.3166 -8.2662 2.1035
-9.1095 -8.4538 2.1002
-8.8993 -8.6367 2.0970
-8.6858 -8.8150 2.0938
-8.4694 -8.9886 2.0907
-8.2499 -9.1575 2.0877
-8.0277 -9.3215 2.0849
-7.8026 -9.4808 2.0820
-7.5749 -9.6352 2.0793
-7.3446 -9.7848 2.0767
-7.1118 -9.9294 2.0741
-6.8766 -10.0691 2.0716
-6.6392 -10.2039 2.0693
-6.3995 -10.3338 2.0670
-6.1577 -10.4586 2.0648
-5.9139 -10.5784 2.0626
-5.6681 -10.6933 2.0606
-5.4205 -10.8031 2.0587
-5.1711 -10.9078 2.0568
-4.9201 -11.0075 2.0551
-4.6674 -11.1020 2.0534
-4.4133 -11.1915 2.0518
-4.1578 -11.2759 2.0503
-3.9010 -11.3551 2.0489
-3.6429 -11.4292 2.0476
-3.3836 -11.4982 2.0464
-3.1233 -11.5620 2.0453
-2.8620 -11.6207 2.0442
-2.5998 -11.6742 2.0433
-2.3367 -11.7225 2.0424
-2.0730 -11.7657 2.0417
-1.8086 -11.8036 2.0410
-1.5436 -11.8364 2.0404
-1.2782 -11.8640 2.0399
-1.0123 -11.8863 2.0395
-0.7462 -11.9035 2.0392
-0.4798 -11.9155 2.0390
-0.2133 -11.9223 2.0389
0.0533 -11.9238 2.0389
0.3199 -11.9202 2.0389
0.5864 -11.9113 2.0391
0.8527 -11.8973 2.0393
1.1187 -11.8780 2.0397
1.3844 -11.8536 2.0401
1.6497 -11.8239 2.0406
1.9144 -11.7891 2.0412
2.1786 -11.7490 2.0420
2.4420 -11.7038 2.0428
2.7048 -11.6534 2.0436
2.9666 -11.5979 2.0446
3.2275 -11.5371 2.0457
3.4874 -11.4712 2.0469
3.7462 -11.4002 2.0481
4.0039 -11.3240 2.0495
4.2602 -11.2428 2.0509
4.5152 -11.1563 2.0524
4.7687 -11.0648 2.0540
4.9888 -10.8984 2.0427
5.0072 -10.3225 1.9545
5.1458 -10.0308 1.9199
5.3760 -9.9266 1.9218
5.6043 -9.8177 1.9237
5.8309 -9.7041 1.9257
6.0555 -9.5858 1.9278
6.2782 -9.4629 1.9300
6.4987 -9.3354 1.9322
6.7171 -9.2033 1.9345
6.9332 -9.0666 1.9370
7.1469 -8.9254 1.9395
7.3577 -8.7790 1.9419
7.5658 -8.6280 1.9444
7.7713 -8.4726 1.9469
7.9740 -8.3127 1.9496
8.1739 -8.1485 1.9523
8.3709 -7.9799 1.9551
8.5649 -7.8070 1.9580
8.7559 -7.6298 1.9609
8.9437 -7.4484 1.9640
9.1282 -7.2629 1.9671
9.3094 -7.0731 1.9703
9.4871 -6.8793 1.9735
9.6613 -6.6813 1.9769
9.8319 -6.4794 1.9803
9.9988 -6.2735 1.9838
10.1619 -6.0636 1.9873
10.3211 -5.8499 1.9910
10.4763 -5.6324 1.9947
10.6274 -5.4111 1.9985
10.7744 -5.1861 2.0023
10.9171 -4.9575 2.0062
11.0554 -4.7253 2.0102
11.1893 -4.4895 2.0142
11.3187 -4.2504 2.0184
11.4434 -4.0079 2.0225
11.5634 -3.7620 2.0268
11.6786 -3.5130 2.0311
11.7889 -3.2608 2.0354
11.8941 -3.0056 2.0398
11.9943 -2.7474 2.0443
12.0893 -2.4863 2.0488
12.1791 -2.2224 2.0534
12.2634 -1.9558 2.0580
12.3424 -1.6866 2.0627
12.4157 -1.4150 2.0675
12.4835 -1.1409 2.0723
7.4247 -0.5116 1.2293
7.5207 -0.3497 1.2425
12.6522 -0.3053 2.0869
12.6966 -0.0227 2.0918
12.7351 0.2617 2.0968
12.7674 0.5478 2.1018
12.7935 0.8355 2.1069
12.8133 1.1247 2.1120
12.8269 1.4152 2.1171
12.8340 1.7068 2.1223
12.8347 1.9996 2.1274
12.8288 2.2932 2.1326
12.8163 2.5875 2.1378
12.7972 2.8825 2.1431
12.7714 3.1779 2.1483
12.7389 3.4736 2.1536
12.6995 3.7694 2.1588
12.6533 4.0653 2.1641
12.6002 4.3609 2.1694
12.5402 4.6562 2.1746
12.4732 4.9509 2.1799
12.3993 5.2449 2.1852
12.3183 5.5381 2.1904
12.2303 5.8301 2.1957
12.1353 6.1210 2.2009
12.0331 6.4104 2.2061
11.9240 6.6981 2.2113
11.8078 6.9841 2.2164
11.6845 7.2681 2.2216
11.5542 7.5499 2.2267
11.4168 7.8292 2.2317
11.2686 8.1033 2.2360
11.1134 8.3743 2.2402
10.9514 8.6420 2.2443
10.7826 8.9065 2.2484
10.6071 9.1674 2.2524
10.4250 9.4245 2.2564
10.2363 9.6778 2.2603
10.0410 9.9269 2.2641
9.8394 10.1716 2.2679
9.6313 10.4119 2.2716
9.4171 10.6474 2.2753
9.1967 10.8781 2.2788
8.9703 11.1038 2.2823
8.7379 11.3241 2.2857
8.4998 11.5390 2.2890
8.2560 11.7483 2.2922
8.0066 11.9518 2.2954
7.7519 12.1494 2.2984
7.4918 12.3409 2.3014
7.2267 12.5260 2.3042
6.9567 12.7049 2.3070
6.6820 12.8771 2.3096
6.4026 13.0426 2.3122
6.1188 13.2012 2.3147
5.8299 13.3511 2.3167
5.5362 13.4916 2.3183
5.2388 13.6249 2.3198
5.0086 13.9476 2.3544
4.9597 14.8447 2.4858
4.6309 14.9637 2.4871
4.2991 15.0745 2.4884
3.9644 15.1772 2.4895
3.6271 15.2716 2.4906
3.2873 15.3576 2.4915
2.9453 15.4351 2.4924
2.6006 15.4991 2.4923
2.2534 15.5486 2.4912
1.9052 15.5891 2.4900
1.5562 15.6207 2.4886
1.2066 15.6432 2.4871
0.8568 15.6567 2.4855
0.5070 15.6638 2.4841
0.1574 15.6722 2.4842
-0.1923 15.6718 2.4842
-0.5419 15.6625 2.4841
-0.8912 15.6443 2.4838
-1.2397 15.6174 2.4835
-1.5875 15.5816 2.4830
-1.9341 15.5370 2.4824
-2.2794 15.4838 2.4817
-2.6231 15.4218 2.4809
-2.9649 15.3512 2.4799
-3.3047 15.2720 2.4789
-3.6423 15.1844 2.4777
-3.9780 15.0911 2.4769
-4.3111 14.9895 2.4760
-4.6414 14.8795 2.4749
-4.9686 14.7615 2.4738
-5.2925 14.6353 2.4725
-5.6130 14.5012 2.4712
-5.9297 14.3592 2.4697
-6.2426 14.2095 2.4682
-6.5514 14.0522 2.4665
-6.8559 13.8874 2.4648
-7.1559 13.7153 2.4629
-7.4512 13.5359 2.4610
-7.7417 13.3495 2.4590
-8.0271 13.1562 2.4568
-8.3074 12.9561 2.4546
-8.5823 12.7495 2.4523
-8.8517 12.5363 2.4500
-9.1154 12.3169 2.4475
-9.3733 12.0915 2.4449
-9.6252 11.8601 2.4423
-9.8710 11.6230 2.4396
-10.1107 11.3803 2.4368
-10.3439 11.1322 2.4340
-10.5708 10.8790 2.4310
-10.7863 10.6161 2.4270
-10.9948 10.3486 2.4228
-11.1964 10.0766 2.4186
-11.3908 9.8004 2.4143
-11.5782 9.5202 2.4100
-11.7583 9.2363 2.4056
-11.9312 8.9487 2.4011
-12.0968 8.6579 2.3966
-12.2550 8.3638 2.3921
-12.4057 8.0668 2.3875
-12.5491 7.7670 2.3828
-12.6850 7.4647 2.3781
-12.8134 7.1601 2.3734
-12.9342 6.8533 2.3687
-13.0476 6.5446 2.3639
-13.1534 6.2341 2.3591
-13.2517 5.9221 2.3542
-13.3385 5.6071 2.3487
-13.4176 5.2911 2.3431
-13.4893 4.9743 2.3375
-13.5534 4.6570 2.3319
-13.6101 4.3392 2.3263
-13.6593 4.0212 2.3206
-13.7011 3.7031 2.3150
-13.7355 3.3852 2.3094
-13.7627 3.0677 2.3038
-13.7826 2.7506 2.2982
-13.7954 2.4341 2.2926
-13.8010 2.1185 2.2870
-13.7996 1.8039 2.2815
-13.7912 1.4904 2.2759
-13.7759 1.1782 2.2704
-13.7537 0.8674 2.2649
-13.7248 0.5582 2.2594
-13.6870 0.2507 2.2536
-13.6471 -0.0549 2.2486
-13.5984 -0.3585 2.2432
-13.4986 -0.6579 2.2305
-13.4382 -0.9562 2.2254
-13.3716 -1.2522 2.2203
-13.2988 -1.5457 2.2153
-13.2200 -1.8366 2.2103
-13.1744 -2.1313 2.2119
-13.0827 -2.4175 2.2069
-12.9851 -2.7008 2.2019
-12.8819 -2.9810 2.1969
-12.7732 -3.2581 2.1920
-12.6589 -3.5320 2.1872
-12.5392 -3.8025 2.1824
-12.4143 -4.0696 2.1777
-12.2842 -4.3332 2.1730
-12.1490 -4.5932 2.1684
-12.0089 -4.8496 2.1639
-11.8638 -5.1022 2.1594
-11.7140 -5.3510 2.1550
-11.5595 -5.5959 2.1507
-11.4004 -5.8368 2.1464
-11.2369 -6.0738 2.1422
-11.0690 -6.3066 2.1381
-10.8969 -6.5352 2.1341
-10.7205 -6.7597 2.1301
-10.5401 -6.9800 2.1262
-10.3558 -7.1959 2.1224
-10.1676 -7.4074 2.1187
-9.9756 -7.6145 2.1150
-9.7799 -7.8172 2.1114
-9.5807 -8.0154 2.1079
-9.3780 -8.2090 2.1045
-9.1720 -8.3980 2.1012
-8.9627 -8.5824 2.0979
-8.7502 -8.7621 2.0947
-8.5346 -8.9371 2.0916
-8.3161 -9.1073 2.0886
-8.0946 -9.2728 2.0857
-7.8704 -9.4335 2.0829
-7.6434 -9.5894 2.0801
-7.4139 -9.7404 2.0774
-7.1819 -9.8865 2.0749
-6.9474 -10.0277 2.0724
-6.7106 -10.1640 2.0700
-6.4716 -10.2953 2.0676
-6.2305 -10.4217 2.0654
-5.9872 -10.5430 2.0633
-5.7420 -10.6594 2.0612
-5.4950 -10.7706 2.0592
-5.2461 -10.8769 2.0574
-4.9956 -10.9781 2.0556
-4.7434 -11.0742 2.0539
-4.4897 -11.1652 2.0523
-4.2346 -11.2511 2.0508
-3.9781 -11.3319 2.0493
-3.7204 -11.4076 2.0480
-3.4615 -11.4781 2.0467
-3.2015 -11.5435 2.0456
-2.9404 -11.6037 2.0445
-2.6785 -11.6587 2.0435
-2.4157 -11.7086 2.0427
-2.1522 -11.7533 2.0419
-1.8880 -11.7928 2.0412
-1.6232 -11.8271 2.0406
-1.3579 -11.8562 2.0401
-1.0922 -11.8802 2.0396
-0.8261 -11.8989 2.0393
-0.5598 -11.9124 2.0391
-0.2932 -11.9208 2.0389
-0.0267 -11.9239 2.0389
0.2399 -11.9218 2.0389
0.5065 -11.9145 2.0390
0.7728 -11.9020 2.0392
1.0390 -11.8843 2.0396
1.3048 -11.8614 2.0400
1.5702 -11.8334 2.0405
1.8351 -11.8001 2.0410
2.0994 -11.7616 2.0417
2.3631 -11.7179 2.0425
2.6261 -11.6691 2.0434
2.8882 -11.6151 2.0443
3.1493 -11.5559 2.0454
3.4096 -11.4916 2.0465
3.6687 -11.4221 2.0477
3.9267 -11.3474 2.0490
4.1834 -11.2677 2.0505
4.4388 -11.1828 2.0520
4.6928 -11.0928 2.0535
4.9453 -10.9977 2.0552
5.0018 -10.4900 1.9801
5.0764 -10.0612 1.9194
5.3071 -9.9583 1.9212
5.5361 -9.8508 1.9231
5.7632 -9.7386 1.9251
5.9884 -9.6218 1.9271
6.2116 -9.5003 1.9293
6.4328 -9.3742 1.9315
6.6518 -9.2434 1.9338
6.8686 -9.1081 1.9362
7.0831 -8.9682 1.9387
7.2947 -8.8235 1.9412
7.5036 -8.6738 1.9436
7.7099 -8.5197 1.9462
7.9134 -8.3611 1.9488
8.1142 -8.1982 1.9515
8.3121 -8.0309 1.9542
8.5070 -7.8593 1.9571
8.6989 -7.6834 1.9600
8.8877 -7.5033 1.9631
9.0732 -7.3190 1.9661
9.2554 -7.1305 1.9693
9.4341 -6.9378 1.9726
9.6094 -6.7411 1.9759
9.7811 -6.5404 1.9793
9.9491 -6.3357 1.9827
10.1134 -6.1270 1.9863
10.2737 -5.9144 1.9899
10.4302 -5.6980 1.9936
10.5825 -5.4779 1.9973
10.7308 -5.2540 2.0011
10.8747 -5.0265 2.0050
11.0144 -4.7953 2.0090
11.1496 -4.5606 2.0130
11.2804 -4.3225 2.0171
11.4065 -4.0810 2.0213
11.5279 -3.8361 2.0255
11.6446 -3.5881 2.0298
11.7563 -3.3368 2.0341
11.8631 -3.0825 2.0385
11.9648 -2.8251 2.0430
12.0614 -2.5649 2.0475
12.1527 -2.3018 2.0520
12.2387 -2.0361 2.0567
12.3192 -1.7676 2.0613
12.3943 -1.4967 2.0660
12.4638 -1.2233 2.0708
7.4462 -0.5633 1.2337
7.4519 -0.3965 1.2319
12.6377 -0.3897 2.0854
12.6839 -0.1077 2.0903
12.7242 0.1762 2.0953
12.7583 0.4618 2.1003
12.7863 0.7490 2.1054
12.8080 1.0378 2.1105
12.8235 1.3279 2.1156
12.8325 1.6192 2.1207
12.8352 1.9116 2.1259
12.8313 2.2050 2.1311
12.8208 2.4991 2.1363
12.8037 2.7939 2.1415
12.7799 3.0892 2.1467
12.7494 3.3849 2.1520
12.7120 3.6807 2.1573
12.6679 3.9766 2.1625
12.6169 4.2723 2.1678
12.5589 4.5677 2.1731
12.4941 4.8626 2.1783
12.4222 5.1568 2.1836
12.3433 5.4502 2.1889
12.2574 5.7426 2.1941
12.1645 6.0338 2.1993
12.0645 6.3237 2.2045
11.9575 6.6120 2.2097
11.8434 6.8985 2.2149
11.7222 7.1831 2.2200
11.5940 7.4655 2.2251
11.4588 7.7457 2.2302
11.3138 8.0214 2.2347
11.1607 8.2933 2.2389
11.0007 8.5620 2.2431
10.8340 8.8275 2.2472
10.6605 9.0895 2.2512
10.4803 9.3478 2.2552
10.2935 9.6023 2.2591
10.1003 9.8526 2.2630
9.9005 10.0987 2.2668
9.6944 10.3403 2.2705
9.4821 10.5773 2.2742
9.2635 10.8094 2.2778
9.0389 11.0366 2.2813
8.8083 11.2586 2.2847
8.5719 11.4751 2.2880
8.3297 11.6861 2.2913
8.0820 11.8914 2.2944
7.8289 12.0908 2.2975
7.5704 12.2841 2.3005
7.3068 12.4711 2.3034
7.0383 12.6519 2.3061
6.7649 12.8261 2.3089
6.4869 12.9937 2.3114
6.2044 13.1544 2.3139
5.9173 13.3076 2.3162
5.6247 13.4502 2.3178
5.3284 13.5857 2.3193
5.0286 13.7139 2.3208
4.9917 14.6145 2.4530
4.7299 14.9288 2.4867
4.3990 15.0421 2.4880
4.0651 15.1472 2.4892
3.7286 15.2441 2.4902
3.3895 15.3327 2.4912
3.0482 15.4128 2.4921
2.7045 15.4825 2.4926
2.3577 15.5347 2.4916
2.0098 15.5779 2.4904
1.6610 15.6121 2.4891
1.3115 15.6374 2.4876
0.9617 15.6536 2.4860
0.6118 15.6608 2.4842
0.2622 15.6706 2.4842
-0.0875 15.6728 2.4842
-0.4371 15.6662 2.4841
-0.7865 15.6507 2.4839
-1.1353 15.6264 2.4836
-1.4833 15.5932 2.4832
-1.8303 15.5513 2.4826
-2.1759 15.5007 2.4819
-2.5201 15.4413 2.4811
-2.8625 15.3733 2.4802
-3.2030 15.2966 2.4792
-3.5412 15.2115 2.4781
-3.8775 15.1200 2.4771
-4.2114 15.0208 2.4762
-4.5426 14.9134 2.4752
-4.8707 14.7978 2.4741
-5.1957 14.6740 2.4729
-5.5172 14.5423 2.4716
-5.8351 14.4026 2.4702
-6.1492 14.2553 2.4687
-6.4592 14.1002 2.4670
-6.7650 13.9376 2.4653
-7.0664 13.7677 2.4635
-7.3631 13.5905 2.4616
-7.6551 13.4062 2.4596
-7.9421 13.2149 2.4575
-8.2238 13.0169 2.4553
-8.5004 12.8122 2.4530
-8.7714 12.6010 2.4507
-9.0368 12.3834 2.4482
-9.2965 12.1598 2.4457
-9.5502 11.9301 2.4431
-9.7979 11.6947 2.4404
-10.0394 11.4537 2.4377
-10.2746 11.2072 2.4348
-10.5034 10.9555 2.4319
-10.7224 10.6955 2.4282
-10.9330 10.4293 2.4241
-11.1367 10.1586 2.4199
-11.3333 9.8836 2.4156
-11.5228 9.6046 2.4113
-11.7051 9.3218 2.4069
-11.8801 9.0353 2.4025
-12.0479 8.7454 2.3980
-12.2083 8.4523 2.3935
-12.3613 8.1562 2.3889
-12.5069 7.8573 2.3842
-12.6450 7.5557 2.3796
-12.7756 7.2517 2.3748
-12.8987 6.9456 2.3701
-13.0143 6.6374 2.3653
-13.1224 6.3275 2.3605
-13.2230 6.0159 2.3557
-13.3132 5.7017 2.3503
-13.3947 5.3860 2.3448
-13.4686 5.0694 2.3392
-13.5349 4.7522 2.3336
-13.5938 4.4345 2.3279
-13.6453 4.1165 2.3223
-13.6893 3.7985 2.3167
-13.7260 3.4806 2.3111
-13.7553 3.1629 2.3055
-13.7774 2.8456 2.2999
-13.7923 2.5290 2.2943
-13.8001 2.2131 2.2887
-13.8008 1.8982 2.2831
-13.7944 1.5843 2.2776
-13.7812 1.2717 2.2721
-13.7611 0.9605 2.2666
-13.7342 0.6508 2.2611
-13.6525 0.3416 2.2477
-13.6604 0.0366 2.2502
-13.6137 -0.2677 2.2448
-13.5155 -0.5679 2.2321
-13.4570 -0.8669 2.2269
-13.3922 -1.1636 2.2218
-13.3213 -1.4579 2.2168
-13.2443 -1.7497 2.2118
-13.2008 -2.0449 2.2134
-13.1108 -2.3320 2.2084
-13.0150 -2.6161 2.2033
-12.9135 -2.8973 2.1984
-12.8064 -3.1754 2.1935
-12.6937 -3.4502 2.1886
-12.5757 -3.7217 2.1838
-12.4523 -3.9898 2.1791
-12.3238 -4.2545 2.1744
-12.1901 -4.5156 2.1698
-12.0514 -4.7730 2.1652
-11.9078 -5.0268 2.1607
-11.7594 -5.2767 2.1563
-11.6063 -5.5228 2.1520
-11.4486 -5.7650 2.1477
-11.2864 -6.0031 2.1435
-11.1198 -6.2372 2.1394
-10.9489 -6.4671 2.1353
-10.7739 -6.6929 2.1313
-10.5947 -6.9144 2.1274
-10.4115 -7.1316 2.1236
-10.2244 -7.3444 2.1198
-10.0335 -7.5529 2.1161
-9.8390 -7.7569 2.1125
-9.6408 -7.9564 2.1090
-9.4392 -8.1514 2.1055
-9.2342 -8.3418 2.1022
-9.0258 -8.5275 2.0989
-8.8143 -8.7086 2.0957
-8.5996 -8.8851 2.0926
-8.3819 -9.0567 2.0895
-8.1614 -9.2237 2.0866
-7.9379 -9.3858 2.0837
-7.7118 -9.5431 2.0809
-7.4830 -9.6956 2.0782
-7.2517 -9.8432 2.0756
-7.0180 -9.9859 2.0731
-6.7819 -10.1237 2.0707
-6.5435 -10.2565 2.0683
-6.3030 -10.3843 2.0661
-6.0604 -10.5072 2.0639
-5.8158 -10.6250 2.0618
-5.5692 -10.7378 2.0598
-5.3209 -10.8456 2.0579
-5.0709 -10.9483 2.0561
-4.8192 -11.0459 2.0544
-4.5660 -11.1384 2.0527
-4.3113 -11.2259 2.0512
-4.0552 -11.3082 2.0497
-3.7978 -11.3854 2.0484
-3.5393 -11.4574 2.0471
-3.2796 -11.5244 2.0459
-3.0189 -11.5861 2.0448
-2.7572 -11.6427 2.0438
-2.4946 -11.6942 2.0429
-2.2313 -11.7404 2.0421
-1.9673 -11.7815 2.0414
-1.7027 -11.8174 2.0407
-1.4375 -11.8481 2.0402
-1.1719 -11.8736 2.0398
-0.9059 -11.8939 2.0394
-0.6396 -11.9089 2.0391
-0.3732 -11.9188 2.0390
-0.1066 -11.9235 2.0389
0.1599 -11.9230 2.0389
0.4265 -11.9172 2.0390
0.6929 -11.9063 2.0392
0.9591 -11.8902 2.0395
1.2250 -11.8689 2.0398
1.4906 -11.8423 2.0403
1.7556 -11.8106 2.0409
2.0202 -11.7737 2.0415
2.2841 -11.7316 2.0423
2.5472 -11.6843 2.0431
2.8096 -11.6318 2.0440
3.0711 -11.5742 2.0450
3.3316 -11.5114 2.0462
3.5911 -11.4434 2.0474
3.8494 -11.3704 2.0486
4.1065 -11.2921 2.0500
4.3624 -11.2088 2.0515
4.6168 -11.1203 2.0531
4.8697 -11.0268 2.0547
4.9963 -10.6618 2.0064
5.0209 -10.1193 1.9242
5.2381 -9.9897 1.9206
5.4675 -9.8836 1.9225
5.6952 -9.7728 1.9245
5.9210 -9.6573 1.9265
6.1449 -9.5372 1.9286
6.3667 -9.4127 1.9308
6.5863 -9.2831 1.9331
6.8038 -9.1492 1.9355
7.0190 -9.0107 1.9379
7.2316 -8.8675 1.9404
7.4413 -8.7192 1.9429
7.6483 -8.5663 1.9454
7.8527 -8.4091 1.9480
8.0543 -8.2475 1.9507
8.2531 -8.0815 1.9534
8.4489 -7.9112 1.9562
8.6417 -7.7366 1.9592
8.8314 -7.5578 1.9621
9.0179 -7.3747 1.9652
9.2010 -7.1875 1.9684
9.3809 -6.9961 1.9716
9.5572 -6.8006 1.9749
9.7300 -6.6011 1.9782
9.8991 -6.3975 1.9817
10.0645 -6.1900 1.9852
10.2260 -5.9786 1.9888
10.3837 -5.7634 1.9925
10.5373 -5.5443 1.9962
10.6867 -5.3215 2.0000
10.8320 -5.0951 2.0039
10.9730 -4.8650 2.0078
11.1095 -4.6314 2.0118
11.2416 -4.3943 2.0159
11.3692 -4.1538 2.0200
11.4920 -3.9099 2.0242
11.6101 -3.6628 2.0285
11.7233 -3.4125 2.0328
11.8316 -3.1591 2.0372
11.9348 -2.9027 2.0416
12.0329 -2.6433 2.0461
12.1258 -2.3811 2.0507
12.2135 -2.1161 2.0553
12.2957 -1.8485 2.0599
12.3724 -1.5783 2.0646
12.4435 -1.3056 2.0694
7.5068 -0.6185 1.2447
7.4318 -0.4454 1.2293
12.6227 -0.4739 2.0839
12.6707 -0.1925 2.0888
12.7128 0.0909 2.0938
12.7487 0.3760 2.0988
12.7786 0.6627 2.1039
12.8022 0.9510 2.1089
12.8195 1.2408 2.1140
12.8305 1.5317 2.1192
12.8350 1.8238 2.1243
12.8331 2.1169 2.1295
12.8246 2.4108 2.1347
12.8095 2.7054 2.1399
12.7877 3.0006 2.1452
12.7592 3.2962 2.1504
12.7240 3.5920 2.1557
12.6819 3.8878 2.1609
12.6329 4.1836 2.1662
12.5771 4.4791 2.1715
12.5142 4.7741 2.1768
12.4445 5.0686 2.1820
12.3677 5.3623 2.1873
12.2839 5.6550 2.1925
12.1931 5.9466 2.1978
12.0953 6.2369 2.2030
11.9903 6.5257 2.2082
11.8783 6.8128 2.2134
11.7593 7.0980 2.2185
11.6332 7.3811 2.2236
11.5001 7.6619 2.2287
11.3584 7.9392 2.2334
11.2074 8.2120 2.2377
11.0494 8.4817 2.2418
10.8847 8.7482 2.2459
10.7132 9.0113 2.2500
10.5351 9.2707 2.2540
10.3503 9.5263 2.2580
10.1589 9.7779 2.2618
9.9611 10.0253 2.2657
9.7569 10.2683 2.2694
9.5464 10.5067 2.2731
9.3297 10.7403 2.2767
9.1069 10.9690 2.2802
8.8780 11.1925 2.2837
8.6434 11.4107 2.2870
8.4029 11.6234 2.2903
8.1569 11.8304 2.2935
7.9053 12.0316 2.2966
7.6485 12.2268 2.2996
7.3865 12.4157 2.3025
7.1193 12.5982 2.3053
6.8474 12.7746 2.3081
6.5708 12.9441 2.3107
6.2896 13.1069 2.3132
6.0040 13.2627 2.3156
5.7129 13.4082 2.3174
5.4177 13.5458 2.3189
5.1189 13.6762 2.3203
4.9992 14.3219 2.4097
4.8286 14.8932 2.4863
4.4985 15.0090 2.4876
4.1655 15.1166 2.4888
3.8298 15.2159 2.4899
3.4914 15.3070 2.4909
3.1508 15.3896 2.4919
2.8080 15.4638 2.4927
2.4618 15.5200 2.4919
2.1142 15.5659 2.4908
1.7657 15.6028 2.4895
1.4165 15.6307 2.4881
1.0667 15.6497 2.4865
0.7168 15.6596 2.4848
0.3672 15.6682 2.4842
0.0175 15.6731 2.4842
-0.3322 15.6691 2.4842
-0.6817 15.6563 2.4840
-1.0307 15.6346 2.4837
-1.3790 15.6041 2.4833
-1.7263 15.5648 2.4828
-2.0724 15.5167 2.4821
-2.4171 15.4600 2.4814
-2.7600 15.3946 2.4805
-3.1011 15.3205 2.4795
-3.4400 15.2380 2.4784
-3.7769 15.1481 2.4774
-4.1116 15.0514 2.4765
-4.4436 14.9465 2.4756
-4.7727 14.8333 2.4745
-5.0985 14.7120 2.4733
-5.4211 14.5826 2.4720
-5.7401 14.4454 2.4706
-6.0554 14.3003 2.4691
-6.3666 14.1475 2.4675
-6.6737 13.9872 2.4658
-6.9764 13.8194 2.4641
-7.2746 13.6444 2.4622
-7.5680 13.4622 2.4602
-7.8565 13.2730 2.4581
-8.1399 13.0770 2.4560
-8.4180 12.8742 2.4537
-8.6907 12.6649 2.4514
-8.9578 12.4493 2.4490
-9.2192 12.2275 2.4465
-9.4748 11.9996 2.4439
-9.7243 11.7659 2.4412
-9.9676 11.5265 2.4385
-10.2048 11.2817 2.4357
-10.4354 11.0316 2.4328
-10.6578 10.7745 2.4294
-10.8705 10.5096 2.4253
-11.0763 10.2403 2.4212
-11.2750 9.9666 2.4169
-11.4667 9.6888 2.4126
-11.6511 9.4071 2.4083
-11.8284 9.1216 2.4038
-11.9983 8.8328 2.3993
-12.1609 8.5406 2.3948
-12.3162 8.2453 2.3902
-12.4640 7.9472 2.3856
-12.6043 7.6464 2.3810
-12.7372 7.3431 2.3763
-12.8626 7.0376 2.3715
-12.9804 6.7300 2.3668
-13.0908 6.4206 2.3620
-13.1936 6.1095 2.3571
-13.2873 5.7962 2.3520
-13.3710 5.4808 2.3464
-13.4472 5.1645 2.3408
-13.5158 4.8474 2.3352
-13.5770 4.5299 2.3296
-13.6306 4.2120 2.3240
-13.6769 3.8939 2.3184
-13.7157 3.5759 2.3128
-13.7473 3.2582 2.3072
-13.7716 2.9408 2.3015
-13.7886 2.6239 2.2959
-13.7985 2.3078 2.2904
-13.8013 1.9925 2.2848
-13.7971 1.6783 2.2792
-13.7859 1.3653 2.2737
-13.7678 1.0537 2.2682
-13.7430 0.7435 2.2627
-13.7114 0.4350 2.2573
-13.6731 0.1282 2.2518
-13.6283 -0.1766 2.2465
-13.5771 -0.4794 2.2411
-13.4752 -0.7774 2.2285
-13.4123 -1.0748 2.2234
-13.3432 -1.3699 2.2183
-13.2680 -1.6624 2.2133
-13.1868 -1.9523 2.2083
-13.1384 -2.2461 2.2099
-13.0444 -2.5312 2.2048
-12.9446 -2.8132 2.1999
-12.8391 -3.0922 2.1949
-12.7281 -3.3680 2.1901
-12.6117 -3.6406 2.1852
-12.4899 -3.9097 2.1805
-12.3629 -4.1755 2.1758
-12.2307 -4.4376 2.1712
-12.0935 -4.6962 2.1666
-11.9514 -4.9511 2.1621
-11.8044 -5.2022 2.1576
-11.6527 -5.4494 2.1533
-11.4964 -5.6928 2.1490
-11.3356 -5.9321 2.1447
-11.1703 -6.1674 2.1406
-11.0007 -6.3986 2.1365
-10.8268 -6.6256 2.1325
-10.6489 -6.8484 2.1286
-10.4669 -7.0669 2.1247
-10.2809 -7.2810 2.1209
-10.0912 -7.4908 2.1172
-9.8978 -7.6962 2.1136
-9.7007 -7.8970 2.1100
-9.5001 -8.0934 2.1066
-9.2960 -8.2851 2.1032
-9.0886 -8.4723 2.0999
-8.8780 -8.6548 2.0966
-8.6643 -8.8326 2.0935
-8.4475 -9.0058 2.0904
-8.2278 -9.1741 2.0875
-8.0052 -9.3377 2.0846
-7.7799 -9.4965 2.0818
-7.5519 -9.6504 2.0790
-7.3214 -9.7994 2.0764
-7.0884 -9.9436 2.0739
-6.8530 -10.0828 2.0714
-6.6153 -10.2171 2.0690
-6.3754 -10.3465 2.0667
-6.1334 -10.4708 2.0645
-5.8894 -10.5902 2.0624
-5.6434 -10.7045 2.0604
-5.3956 -10.8138 2.0585
-5.1461 -10.9180 2.0566
-4.8949 -11.0171 2.0549
-4.6421 -11.1112 2.0532
-4.3878 -11.2002 2.0517
-4.1322 -11.2841 2.0502
-3.8752 -11.3628 2.0488
-3.6169 -11.4364 2.0475
-3.3576 -11.5049 2.0463
-3.0972 -11.5682 2.0451
-2.8357 -11.6263 2.0441
-2.5735 -11.6793 2.0432
-2.3104 -11.7271 2.0423
-2.0466 -11.7697 2.0416
-1.7821 -11.8071 2.0409
-1.5171 -11.8394 2.0404
-1.2516 -11.8665 2.0399
-0.9858 -11.8883 2.0395
-0.7196 -11.9050 2.0392
-0.4532 -11.9164 2.0390
-0.1866 -11.9227 2.0389
0.0800 -11.9237 2.0389
0.3466 -11.9195 2.0389
0.6131 -11.9101 2.0391
0.8793 -11.8956 2.0394
1.1453 -11.8758 2.0397
1.4110 -11.8508 2.0402
1.6762 -11.8207 2.0407
1.9409 -11.7853 2.0413
2.2050 -11.7447 2.0420
2.4683 -11.6990 2.0428
2.7310 -11.6481 2.0437
2.9927 -11.5920 2.0447
3.2536 -11.5308 2.0458
3.5134 -11.4644 2.0470
3.7720 -11.3928 2.0482
4.0295 -11.3161 2.0496
4.2857 -11.2343 2.0510
4.5406 -11.1474 2.0526
4.7940 -11.0554 2.0542
4.9907 -10.8385 2.0335
5.0089 -10.2676 1.9462
5.1762 -10.0348 1.9228
5.3989 -9.9159 1.9219
5.6271 -9.8065 1.9239
5.8535 -9.6924 1.9259
6.0779 -9.5737 1.9280
6.3004 -9.4504 1.9302
6.5207 -9.3224 1.9324
6.7388 -9.1898 1.9348
6.9546 -9.0527 1.9372
7.1681 -8.9110 1.9397
7.3786 -8.7642 1.9421
7.5865 -8.6127 1.9446
7.7916 -8.4568 1.9472
7.9941 -8.2965 1.9498
8.1937 -8.1318 1.9526
8.3904 -7.9628 1.9554
8.5842 -7.7895 1.9583
8.7748 -7.6119 1.9612
8.9623 -7.4301 1.9643
9.1465 -7.2441 1.9674
9.3273 -7.0539 1.9706
9.5047 -6.8596 1.9739
9.6785 -6.6613 1.9772
9.8488 -6.4590 1.9806
10.0153 -6.2527 1.9841
10.1780 -6.0424 1.9877
10.3368 -5.8283 1.9913
10.4916 -5.6104 1.9951
10.6423 -5.3888 1.9988
10.7889 -5.1634 2.0027
10.9311 -4.9344 2.0066
11.0690 -4.7019 2.0106
11.2025 -4.4658 2.0146
11.3314 -4.2263 2.0188
11.4556 -3.9834 2.0229
11.5752 -3.7373 2.0272
11.6899 -3.4879 2.0315
11.7996 -3.2354 2.0359
11.9044 -2.9799 2.0403
12.0041 -2.7214 2.0448
12.0986 -2.4600 2.0493
12.1877 -2.1958 2.0539
12.2716 -1.9290 2.0585
12.3499 -1.6596 2.0632
12.4228 -1.3876 2.0679
12.4900 -1.1133 2.0727
7.4176 -0.4945 1.2278
7.5523 -0.3343 1.2475
12.6569 -0.2771 2.0874
12.7008 0.0056 2.0923
12.7386 0.2902 2.0973
12.7702 0.5765 2.1023
12.7957 0.8644 2.1074
12.8150 1.1537 2.1125
12.8279 1.4443 2.1176
12.8343 1.7361 2.1228
12.8344 2.0289 2.1280
12.8278 2.3226 2.1331
12.8147 2.6170 2.1384
12.7950 2.9120 2.1436
12.7685 3.2075 2.1488
12.7353 3.5032 2.1541
12.6952 3.7991 2.1594
12.6483 4.0949 2.1646
12.5945 4.3905 2.1699
12.5338 4.6857 2.1752
12.4661 4.9803 2.1804
12.3915 5.2743 2.1857
12.3098 5.5673 2.1910
12.2211 5.8593 2.1962
12.1253 6.1500 2.2014
12.0225 6.4392 2.2066
11.9127 6.7268 2.2118
11.7958 7.0126 2.2170
11.6718 7.2963 2.2221
11.5407 7.5779 2.2272
11.4024 7.8568 2.2322
11.2534 8.1305 2.2364
11.0975 8.4012 2.2406
10.9348 8.6686 2.2447
10.7654 8.9328 2.2488
10.5892 9.1933 2.2528
10.4064 9.4501 2.2568
10.2170 9.7029 2.2607
10.0211 9.9516 2.2645
9.8188 10.1958 2.2683
9.6102 10.4356 2.2720
9.3953 10.6707 2.2756
9.1743 10.9009 2.2792
8.9473 11.1260 2.2826
8.7144 11.3458 2.2860
8.4757 11.5602 2.2893
8.2313 11.7689 2.2925
7.9814 11.9719 2.2957
7.7261 12.1688 2.2987
7.4656 12.3597 2.3016
7.2000 12.5442 2.3045
6.9295 12.7224 2.3072
6.6542 12.8940 2.3099
6.3744 13.0588 2.3125
6.0901 13.2167 2.3149
5.8007 13.3655 2.3169
5.5066 13.5053 2.3184
5.2089 13.6379 2.3199
5.0063 14.0395 2.3679
4.9270 14.8569 2.4859
4.5979 14.9751 2.4872
4.2658 15.0851 2.4885
3.9308 15.1870 2.4896
3.5932 15.2806 2.4907
3.2532 15.3657 2.4916
2.9111 15.4424 2.4925
2.5659 15.5044 2.4922
2.2186 15.5531 2.4911
1.8703 15.5927 2.4899
1.5213 15.6233 2.4885
1.1717 15.6449 2.4870
0.8218 15.6575 2.4853
0.4720 15.6650 2.4841
0.1224 15.6726 2.4842
-0.2274 15.6712 2.4842
-0.5769 15.6610 2.4841
-0.9261 15.6420 2.4838
-1.2745 15.6142 2.4834
-1.6222 15.5775 2.4829
-1.9687 15.5321 2.4823
-2.3138 15.4779 2.4816
-2.6573 15.4151 2.4808
-2.9990 15.3436 2.4798
-3.3386 15.2636 2.4788
-3.6759 15.1755 2.4776
-4.0114 15.0813 2.4768
-4.3443 14.9789 2.4759
-4.6742 14.8681 2.4748
-5.0011 14.7492 2.4737
-5.3248 14.6223 2.4724
-5.6448 14.4873 2.4710
-5.9612 14.3446 2.4696
-6.2737 14.1941 2.4680
-6.5821 14.0361 2.4664
-6.8861 13.8705 2.4646
-7.1857 13.6977 2.4627
-7.4805 13.5176 2.4608
-7.7704 13.3305 2.4588
-8.0554 13.1365 2.4566
-8.3351 12.9358 2.4544
-8.6095 12.7284 2.4521
-8.8783 12.5147 2.4497
-9.1414 12.2947 2.4472
-9.3987 12.0686 2.4447
-9.6501 11.8366 2.4420
-9.8953 11.5990 2.4393
-10.1343 11.3557 2.4365
-10.3669 11.1071 2.4337
-10.5927 10.8530 2.4307
-10.8075 10.5895 2.4266
-11.0153 10.3215 2.4224
-11.2161 10.0491 2.4182
-11.4099 9.7725 2.4139
-11.5966 9.4919 2.4096
-11.7760 9.2076 2.4052
-11.9481 8.9198 2.4007
-12.1129 8.6286 2.3962
-12.2704 8.3342 2.3916
-12.4204 8.0370 2.3870
-12.5630 7.7369 2.3824
-12.6981 7.4344 2.3777
-12.8257 7.1295 2.3729
-12.9459 6.8225 2.3682
-13.0585 6.5136 2.3634
-13.1635 6.2030 2.3586
-13.2607 5.8907 2.3537
-13.3467 5.5755 2.3481
-13.4251 5.2594 2.3425
-13.4960 4.9426 2.3369
-13.5594 4.6251 2.3313
-13.6153 4.3073 2.3257
-13.6638 3.9893 2.3201
-13.7049 3.6713 2.3145
-13.7386 3.3534 2.3088
-13.7650 3.0359 2.3032
-13.7842 2.7189 2.2976
-13.7963 2.4026 2.2920
-13.8012 2.0870 2.2865
-13.7991 1.7725 2.2809
-13.7900 1.4591 2.2754
-13.7740 1.1470 2.2698
-13.7511 0.8364 2.2644
-13.7216 0.5274 2.2589
-13.6853 0.2201 2.2535
-13.6425 -0.0854 2.2481
-13.5931 -0.3888 2.2427
-13.4929 -0.6878 2.2300
-13.4318 -0.9859 2.2249
-13.3646 -1.2816 2.2198
-13.2912 -1.5749 2.2148
-13.2118 -1.8656 2.2098
-13.1655 -2.1601 2.2114
-13.0732 -2.4460 2.2064
-12.9751 -2.7290 2.2014
-12.8713 -3.0089 2.1964
-12.7620 -3.2856 2.1915
-12.6472 -3.5592 2.1867
-12.5270 -3.8293 2.1819
-12.4015 -4.0961 2.1772
-12.2709 -4.3594 2.1725
-12.1352 -4.6190 2.1680
-11.9946 -4.8750 2.1634
-11.8490 -5.1272 2.1590
-11.6988 -5.3756 2.1546
-11.5438 -5.6202 2.1503
-11.3843 -5.8607 2.1460
-11.2203 -6.0972 2.1418
-11.0520 -6.3296 2.1377
-10.8794 -6.5579 2.1337
-10.7026 -6.7820 2.1297
-10.5219 -7.0018 2.1258
-10.3371 -7.2173 2.1220
-10.1485 -7.4284 2.1183
-9.9561 -7.6350 2.1147
-9.7602 -7.8372 2.1111
-9.5606 -8.0349 2.1076
-9.3576 -8.2281 2.1042
-9.1512 -8.4166 2.1008
-8.9416 -8.6005 2.0976
-8.7288 -8.7798 2.0944
-8.5129 -8.9542 2.0913
-8.2940 -9.1241 2.0883
-8.0723 -9.2891 2.0854
-7.8478 -9.4493 2.0826
-7.6206 -9.6047 2.0798
-7.3908 -9.7552 2.0772
-7.1585 -9.9009 2.0746
-6.9238 -10.0416 2.0721
-6.6868 -10.1774 2.0697
-6.4476 -10.3082 2.0674
-6.2062 -10.4341 2.0652
-5.9628 -10.5549 2.0631
-5.7174 -10.6707 2.0610
-5.4702 -10.7815 2.0590
-5.2211 -10.8873 2.0572
-4.9704 -10.9882 2.0554
-4.7181 -11.0835 2.0537
-4.4643 -11.1740 2.0521
-4.2090 -11.2594 2.0506
-3.9524 -11.3397 2.0492
-3.6946 -11.4148 2.0479
-3.4355 -11.4848 2.0466
-3.1754 -11.5497 2.0455
-2.9143 -11.6094 2.0444
-2.6523 -11.6639 2.0435
-2.3894 -11.7133 2.0426
-2.1258 -11.7575 2.0418
-1.8615 -11.7965 2.0411
-1.5966 -11.8303 2.0405
-1.3313 -11.8589 2.0400
-1.0655 -11.8823 2.0396
-0.7994 -11.9005 2.0393
-0.5331 -11.9135 2.0390
-0.2666 -11.9213 2.0389
-0.0000 -10.6146 2.0620
0.2373 -10.6122 2.0620
0.4746 -10.6051 2.0622
0.7117 -10.5934 2.0624
0.9486 -10.5769 2.0627
1.1852 -10.5557 2.0630
1.4214 -10.5299 2.0635
1.6571 -10.4993 2.0640
1.8922 -10.4640 2.0647
2.1267 -10.4241 2.0654
2.3605 -10.3795 2.0662
2.5936 -10.3302 2.0670
2.8257 -10.2763 2.0680
3.0569 -10.2177 2.0690
3.2871 -10.1545 2.0701
3.5162 -10.0866 2.0713
3.7440 -10.0141 2.0726
3.9707 -9.9370 2.0740
4.1959 -9.8554 2.0754
4.4197 -9.7691 2.0769
4.6421 -9.6783 2.0785
4.8628 -9.5829 2.0802
4.9934 -9.3179 2.0458
5.0091 -8.8654 1.9698
5.1410 -8.6417 1.9445
5.3401 -8.5361 1.9463
5.5373 -8.4263 1.9483
5.7325 -8.3123 1.9503
5.9257 -8.1943 1.9524
6.1168 -8.0722 1.9545
6.3057 -7.9461 1.9568
6.4924 -7.8159 1.9591
6.6767 -7.6817 1.9614
6.8586 -7.5436 1.9639
7.0380 -7.4015 1.9664
7.2147 -7.2555 1.9689
7.3884 -7.1051 1.9714
7.5592 -6.9510 1.9740
7.7272 -6.7930 1.9766
7.8923 -6.6314 1.9794
8.0543 -6.4660 1.9821
8.2133 -6.2970 1.9850
8.3692 -6.1245 1.9879
8.5218 -5.9483 1.9909
8.6711 -5.7687 1.9939
8.8170 -5.5856 1.9970
8.9594 -5.3991 2.0002
9.0982 -5.2092 2.0034
9.2334 -5.0160 2.0067
9.3649 -4.8196 2.0100
9.4926 -4.6200 2.0135
9.6164 -4.4173 2.0169
9.7363 -4.2115 2.0205
9.8521 -4.0027 2.0240
9.9638 -3.7910 2.0277
10.0713 -3.5764 2.0314
10.1746 -3.3590 2.0351
10.2735 -3.1390 2.0389
10.3679 -2.9162 2.0428
10.4579 -2.6909 2.0467
10.5433 -2.4631 2.0506
10.6240 -2.2329 2.0546
10.7001 -2.0004 2.0587
10.7713 -1.7657 2.0628
10.8376 -1.5288 2.0669
10.8990 -1.2899 2.0710
10.9554 -1.0490 2.0753
7.3572 -0.5390 1.3900
7.3571 -0.3740 1.3870
11.0939 -0.3157 2.0881
11.1296 -0.0681 2.0924
11.1599 0.1810 2.0968
11.1849 0.4314 2.1012
11.2044 0.6831 2.1056
11.2184 0.9358 2.1101
11.2268 1.1895 2.1146
11.2296 1.4440 2.1191
11.2268 1.6993 2.1236
11.2182 1.9552 2.1281
11.2039 2.2116 2.1326
11.1838 2.4682 2.1372
11.1578 2.7251 2.1418
11.1259 2.9821 2.1463
11.0882 3.2390 2.1509
11.0445 3.4957 2.1555
10.9949 3.7520 2.1601
10.9392 4.0079 2.1646
10.8776 4.2631 2.1692
10.8100 4.5175 2.1738
10.7363 4.7709 2.1783
10.6565 5.0233 2.1828
10.5707 5.2744 2.1873
10.4789 5.5241 2.1918
10.3811 5.7723 2.1963
10.2772 6.0187 2.2008
10.1672 6.2632 2.2052
10.0513 6.5057 2.2096
9.9294 6.7459 2.2139
9.8016 6.9838 2.2182
9.6661 7.2179 2.2221
9.5236 7.4482 2.2257
9.3753 7.6756 2.2292
9.2214 7.8998 2.2327
9.0618 8.1206 2.2361
8.8966 8.3380 2.2394
8.7260 8.5518 2.2427
8.5499 8.7618 2.2460
8.3685 8.9678 2.2491
8.1818 9.1697 2.2523
7.9900 9.3674 2.2553
7.7930 9.5606 2.2583
7.5911 9.7493 2.2612
7.3844 9.9333 2.2640
7.1728 10.1125 2.2668
6.9567 10.2868 2.2695
6.7361 10.4559 2.2721
6.5110 10.6198 2.2747
6.2817 10.7783 2.2771
6.0482 10.9313 2.2795
5.8108 11.0787 2.2818
5.5694 11.2203 2.2840
5.3244 11.3560 2.2861
5.0758 11.4857 2.2881
5.0001 12.0337 2.3737
4.8984 12.5737 2.4573
4.6214 12.6929 2.4592
4.3391 12.7989 2.4597
4.0535 12.8955 2.4597
3.7653 12.9848 2.4596
3.4750 13.0668 2.4593
3.1828 13.1415 2.4589
2.8886 13.2087 2.4584
2.5930 13.2684 2.4577
2.2959 13.3206 2.4569
1.9977 13.3653 2.4560
1.6985 13.4023 2.4550
1.3988 13.4346 2.4544
1.0990 13.4657 2.4548
0.7985 13.4893 2.4551
0.4974 13.5055 2.4553
0.1960 13.5141 2.4554
-0.1055 13.5152 2.4554
-0.4070 13.5088 2.4554
-0.7082 13.4949 2.4552
-1.0089 13.4736 2.4549
-1.3090 13.4447 2.4545
-1.6081 13.4084 2.4540
-1.9062 13.3646 2.4534
-2.2033 13.3149 2.4530
-2.4990 13.2584 2.4526
-2.7932 13.1947 2.4521
-3.0856 13.1237 2.4515
-3.3761 13.0456 2.4508
-3.6644 12.9603 2.4500
-3.9504 12.8680 2.4492
-4.2338 12.7687 2.4482
-4.5146 12.6625 2.4472
-4.7925 12.5494 2.4461
-5.0673 12.4297 2.4448
-5.3389 12.3033 2.4435
-5.6072 12.1704 2.4422
-5.8718 12.0310 2.4407
-6.1328 11.8853 2.4391
-6.3899 11.7335 2.4375
-6.6429 11.5755 2.4358
-6.8918 11.4115 2.4340
-7.1363 11.2417 2.4321
-7.3764 11.0662 2.4302
-7.6118 10.8851 2.4282
-7.8425 10.6985 2.4261
-8.0684 10.5066 2.4239
-8.2893 10.3096 2.4217
-8.5040 10.1063 2.4191
-8.7113 9.8957 2.4158
-8.9131 9.6805 2.4125
-9.1092 9.4608 2.4091
-9.2997 9.2369 2.4056
-9.4843 9.0089 2.4021
-9.6631 8.7769 2.3985
-9.8359 8.5411 2.3948
-10.0027 8.3017 2.3911
-10.1635 8.0589 2.3874
-10.3181 7.8129 2.3835
-10.4665 7.5637 2.3797
-10.6086 7.3116 2.3758
-10.7444 7.0568 2.3718
-10.8740 6.7994 2.3678
-10.9972 6.5396 2.3638
-11.1139 6.2776 2.3597
-11.2243 6.0135 2.3556
-11.3264 5.7465 2.3511
-11.4209 5.4774 2.3464
-11.5089 5.2069 2.3416
-11.5904 4.9351 2.3368
-11.6654 4.6622 2.3320
-11.7338 4.3884 2.3271
-11.7958 4.1138 2.3223
-11.8514 3.8386 2.3174
-11.9004 3.5630 2.3125
-11.9431 3.2870 2.3077
-11.9794 3.0110 2.3028
-12.0093 2.7349 2.2979
-12.0329 2.4591 2.2930
-12.0503 2.1835 2.2882
-12.0614 1.9084 2.2833
-12.0663 1.6339 2.2785
-12.0651 1.3601 2.2736
-12.0578 1.0872 2.2688
-12.0445 0.8154 2.2640
-12.0252 0.5446 2.2592
-12.0000 0.2751 2.2544
-11.9690 0.0070 2.2497
-11.9322 -0.2596 2.2450
-11.8897 -0.5245 2.2403
-11.8415 -0.7877 2.2357
-11.7878 -1.0491 2.2310
-11.7285 -1.3084 2.2265
-11.6639 -1.5657 2.2219
-11.5938 -1.8208 2.2174
-11.5185 -2.0737 2.2129
-11.4381 -2.3241 2.2085
-11.3525 -2.5720 2.2041
-11.2618 -2.8174 2.1998
-11.1662 -3.0601 2.1955
-11.0657 -3.3001 2.1913
-10.9605 -3.5372 2.1871
-10.8505 -3.7714 2.1829
-10.7359 -4.0026 2.1788
-10.6168 -4.2307 2.1748
-10.4932 -4.4556 2.1708
-10.3652 -4.6774 2.1669
-10.2330 -4.8958 2.1631
-10.0966 -5.1108 2.1593
-9.9561 -5.3225 2.1555
-9.8115 -5.5306 2.1518
-9.6630 -5.7351 2.1482
-9.5107 -5.9361 2.1447
-9.3546 -6.1334 2.1412
-9.1949 -6.3269 2.1378
-9.0316 -6.5167 2.1344
-8.8648 -6.7026 2.1311
-8.6946 -6.8846 2.1279
-8.5210 -7.0628 2.1248
-8.3443 -7.2369 2.1217
-8.1644 -7.4070 2.1187
-7.9814 -7.5730 2.1157
-7.7955 -7.7350 2.1129
-7.6067 -7.8928 2.1101
-7.4151 -8.0465 2.1074
-7.2207 -8.1959 2.1047
-7.0238 -8.3411 2.1022
-6.8243 -8.4820 2.0997
-6.6224 -8.6187 2.0973
-6.4181 -8.7510 2.0949
-6.2115 -8.8789 2.0927
-6.0027 -9.0024 2.0905
-5.7918 -9.1215 2.0884
-5.5789 -9.2362 2.0864
-5.3640 -9.3464 2.0844
-5.1472 -9.4522 2.0825
-4.9287 -9.5534 2.0808
-4.7085 -9.6502 2.0790
-4.4866 -9.7423 2.0774
-4.2632 -9.8299 2.0759
-4.0384 -9.9130 2.0744
-3.8122 -9.9915 2.0730
-3.5847 -10.0653 2.0717
-3.3560 -10.1346 2.0705
-3.1261 -10.1992 2.0693
-2.8952 -10.2592 2.0683
-2.6633 -10.3145 2.0673
-2.4305 -10.3652 2.0664
-2.1970 -10.4112 2.0656
-1.9626 -10.4526 2.0649
-1.7277 -10.4892 2.0642
-1.4921 -10.5212 2.0636
-1.2561 -10.5485 2.0632
-1.0196 -10.5711 2.0628
-0.7828 -10.5889 2.0625
-0.5458 -10.6021 2.0622
-0.3086 -10.6106 2.0621
-0.0712 -10.6143 2.0620
0.1661 -10.6134 2.0620
0.4035 -10.6077 2.0621
0.6406 -10.5974 2.0623
0.8776 -10.5823 2.0626
1.1143 -10.5626 2.0629
1.3506 -10.5381 2.0634
1.5864 -10.5090 2.0639
1.8217 -10.4751 2.0645
2.0564 -10.4366 2.0651
2.2905 -10.3934 2.0659
2.5237 -10.3455 2.0668
2.7562 -10.2929 2.0677
2.9877 -10.2358 2.0687
3.2182 -10.1739 2.0698
3.4476 -10.1074 2.0710
3.6758 -10.0363 2.0722
3.9028 -9.9606 2.0736
4.1285 -9.8803 2.0750
4.3528 -9.7955 2.0765
4.5755 -9.7060 2.0781
4.7968 -9.6120 2.0797
4.9884 -9.4606 2.0699
