ply
format ascii 1.0
element vertex 2031
property float32 x
property float32 y
property float32 z
end_header
-27.7125 -1.9435 2.0312
-21.2460 -1.9677 1.5587
-27.7350 -3.1948 2.0376
-27.7463 -3.8258 2.0424
-27.7577 -4.4612 2.0482
-27.7425 -5.0968 2.0532
-27.7808 -5.7481 2.0632
-27.7926 -6.4010 2.0723
-27.8044 -7.0611 2.0826
-27.8164 -7.7294 2.0941
-27.8286 -8.4066 2.1068
-27.8410 -9.0936 2.1207
-27.6833 -9.7315 2.1229
-27.4827 -10.3562 2.1229
-27.2676 -10.9767 2.1229
-27.0384 -11.5926 2.1229
-26.7951 -12.2038 2.1229
-26.5378 -12.8097 2.1229
-26.2667 -13.4102 2.1229
-25.9816 -14.0047 2.1229
-25.6830 -14.5931 2.1229
-25.3708 -15.1750 2.1229
-25.0451 -15.7501 2.1229
-24.7061 -16.3181 2.1229
-18.7392 -12.9872 1.6335
-23.9890 -17.4313 2.1229
-23.6112 -17.9759 2.1229
-23.2207 -18.5121 2.1229
-22.8178 -19.0397 2.1229
-22.4027 -19.5581 2.1229
-21.9755 -20.0673 2.1229
-21.5364 -20.5669 2.1229
-21.0856 -21.0566 2.1229
-20.6234 -21.5361 2.1229
-20.1501 -22.0052 2.1229
-19.6658 -22.4636 2.1229
-19.1708 -22.9109 2.1229
-18.7258 -23.4226 2.1298
-18.7082 -24.5030 2.1882
-18.6964 -25.6556 2.2521
-18.3157 -26.3499 2.2753
-17.7319 -26.7663 2.2753
-17.1384 -27.1693 2.2753
-16.5289 -27.5477 2.2744
-15.9098 -27.9102 2.2733
-15.2825 -28.2584 2.2723
-14.6475 -28.5922 2.2713
-14.0050 -28.9114 2.2703
-13.3553 -29.2157 2.2693
-12.6991 -29.5053 2.2683
-12.0363 -29.7797 2.2674
-11.3676 -30.0389 2.2665
-10.6931 -30.2828 2.2655
-10.0133 -30.5111 2.2647
-9.3285 -30.7239 2.2638
-8.6391 -30.9211 2.2629
-7.9455 -31.1024 2.2621
-7.2480 -31.2677 2.2613
-6.5471 -31.4172 2.2605
-5.8430 -31.5505 2.2597
-5.1361 -31.6678 2.2590
-4.4269 -31.7689 2.2583
-3.7157 -31.8538 2.2576
-3.0029 -31.9225 2.2569
-2.2889 -31.9749 2.2563
-1.5739 -32.0109 2.2556
-0.8585 -32.0307 2.2550
-0.1430 -32.0342 2.2545
0.5721 -32.0215 2.2539
1.2867 -31.9924 2.2534
2.0002 -31.9471 2.2529
2.7123 -31.8857 2.2524
3.4227 -31.8080 2.2520
4.1309 -31.7143 2.2516
4.8365 -31.6044 2.2512
5.5468 -31.5210 2.2538
6.2685 -31.4859 2.2612
6.9876 -31.4172 2.2673
7.7013 -31.3101 2.2719
8.4109 -31.1760 2.2758
9.1267 -31.0546 2.2818
9.8335 -30.8921 2.2861
10.5341 -30.7033 2.2896
11.2254 -30.4830 2.2920
11.8980 -30.2115 2.2918
12.5505 -29.8926 2.2891
13.1762 -29.5181 2.2832
13.8039 -29.1573 2.2795
14.4265 -28.7916 2.2764
15.0579 -28.4474 2.2762
15.6807 -28.0885 2.2760
16.2949 -27.7157 2.2757
16.8998 -27.3289 2.2755
17.4957 -26.9291 2.2753
18.0834 -26.5181 2.2753
7.2145 -10.0880 0.8796
19.2286 -25.6565 2.2753
19.7855 -25.2065 2.2753
20.3317 -24.7441 2.2753
20.8668 -24.2694 2.2753
21.3904 -23.7828 2.2753
21.9025 -23.2847 2.2753
22.4027 -22.7752 2.2753
20.8843 -20.3040 2.0759
21.8164 -20.2825 2.1244
22.2629 -19.7892 2.1257
22.6981 -19.2862 2.1271
23.1218 -18.7735 2.1285
23.5340 -18.2515 2.1299
15.1176 -11.1927 1.3462
15.5238 -10.9653 1.3613
24.6990 -16.6322 2.1343
25.0628 -16.0755 2.1358
25.4140 -15.5108 2.1374
25.7523 -14.9384 2.1389
26.0549 -14.3460 2.1386
26.3435 -13.7474 2.1383
26.6182 -13.1430 2.1379
26.8788 -12.5330 2.1376
27.1252 -11.9178 2.1373
27.3574 -11.2979 2.1369
27.5752 -10.6734 2.1366
27.7787 -10.0447 2.1363
27.9676 -9.4123 2.1359
16.5172 -5.1511 1.2534
16.3138 -4.6906 1.2308
16.3233 -4.3010 1.2250
16.3326 -3.9156 1.2199
16.3419 -3.5339 1.2155
16.3511 -3.1553 1.2117
16.3603 -2.7796 1.2086
16.3693 -2.4064 1.2060
16.3784 -2.0351 1.2041
16.3874 -1.6655 1.2028
16.5652 -1.3106 1.2145
17.0649 -0.9672 1.2504
23.8360 -0.8174 1.7463
23.8490 -0.2849 1.7480
23.8619 0.2480 1.7504
23.9083 0.7828 1.7563
28.9434 1.5955 2.1301
23.3106 1.8079 1.7197
28.7828 2.8804 2.1295
17.1396 2.1028 1.2723
28.5659 4.1543 2.1288
28.4365 4.7863 2.1285
28.2933 5.4146 2.1281
28.1364 6.0390 2.1278
27.9661 6.6592 2.1275
27.7822 7.2748 2.1272
27.5850 7.8856 2.1269
27.3747 8.4913 2.1265
27.1513 9.0916 2.1262
26.9150 9.6862 2.1259
26.6660 10.2750 2.1256
26.4043 10.8575 2.1253
26.1303 11.4337 2.1250
25.8440 12.0031 2.1247
25.5456 12.5657 2.1244
25.2353 13.1210 2.1241
24.9131 13.6690 2.1239
24.5795 14.2093 2.1236
24.2345 14.7417 2.1233
23.8783 15.2660 2.1230
23.5125 15.7830 2.1229
21.9122 15.4295 2.0105
20.8066 15.3575 1.9414
20.0014 15.4651 1.8994
19.1154 15.4746 1.8489
18.2761 15.4835 1.8019
17.4790 15.4920 1.7582
16.7203 15.5000 1.7174
15.9110 15.4249 1.6703
15.3058 15.5162 1.6438
14.6432 15.5232 1.6104
14.0074 15.5300 1.5792
13.3961 15.5365 1.5500
12.8075 15.5428 1.5225
12.2397 15.5488 1.4967
11.6911 15.5547 1.4726
11.1602 15.5603 1.4499
10.5888 15.4826 1.4210
10.3118 15.8249 1.4316
15.8160 25.4999 2.2753
15.2357 25.8352 2.2753
14.6484 26.1578 2.2753
7.7573 14.6085 1.2558
13.4544 26.7642 2.2753
12.8483 27.0478 2.2753
12.2365 27.3182 2.2753
11.6191 27.5752 2.2753
10.9966 27.8187 2.2753
10.3692 28.0487 2.2753
9.7372 28.2652 2.2753
9.1009 28.4678 2.2753
8.4606 28.6568 2.2753
7.8164 28.8318 2.2753
7.1688 28.9930 2.2753
6.5181 29.1401 2.2753
5.8645 29.2732 2.2753
5.2082 29.3922 2.2753
4.5496 29.4970 2.2753
3.8891 29.5877 2.2753
3.2269 29.6641 2.2753
2.5632 29.7264 2.2753
1.8983 29.7742 2.2753
1.2327 29.8079 2.2753
0.5665 29.8272 2.2753
-0.1000 29.8322 2.2753
-0.7664 29.8229 2.2753
-1.4325 29.7993 2.2753
-2.0980 29.7614 2.2753
-2.7625 29.7092 2.2753
-3.4257 29.6427 2.2753
-4.0875 29.5620 2.2753
-4.7475 29.4671 2.2753
-5.4054 29.3580 2.2753
-6.0609 29.2347 2.2753
-6.7137 29.0974 2.2753
-7.3636 28.9461 2.2753
-8.0101 28.7808 2.2753
-8.6531 28.6015 2.2753
-9.2923 28.4085 2.2753
-9.9273 28.2016 2.2753
-10.5580 27.9812 2.2753
-11.1840 27.7470 2.2753
-11.8050 27.4995 2.2753
-12.4206 27.2384 2.2753
-13.0308 26.9640 2.2753
-13.6352 26.6766 2.2753
-14.2335 26.3759 2.2753
-14.8253 26.0623 2.2753
-15.4105 25.7359 2.2753
-15.9888 25.3968 2.2753
-16.5600 25.0451 2.2753
-17.1237 24.6809 2.2753
-17.6796 24.3045 2.2753
-18.2276 23.9159 2.2753
-18.6937 23.4231 2.2664
-18.7050 22.3924 2.2053
-18.7156 21.4140 2.1484
-18.9726 20.7536 2.1229
-19.4429 20.3367 2.1229
-19.9046 19.9095 2.1229
-20.3570 19.4720 2.1229
-20.8001 19.0246 2.1229
-21.2337 18.5673 2.1229
-21.6576 18.1004 2.1229
-22.0715 17.6240 2.1229
-22.4752 17.1385 2.1229
-22.8685 16.6439 2.1229
-23.2511 16.1405 2.1229
-23.6230 15.6284 2.1229
-23.9839 15.1080 2.1229
-24.3337 14.5794 2.1229
-24.6720 14.0429 2.1229
-24.9987 13.4987 2.1229
-25.3137 12.9470 2.1229
-25.6168 12.3882 2.1229
-25.9079 11.8223 2.1229
-26.1866 11.2498 2.1229
-26.4529 10.6708 2.1229
-26.7067 10.0856 2.1229
-26.9477 9.4944 2.1229
-27.1759 8.8976 2.1229
-27.3909 8.2954 2.1229
-27.5396 7.6733 2.1188
-27.5514 7.0174 2.1053
-27.5631 6.3683 2.0930
-27.5746 5.7254 2.0818
-27.5017 5.0723 2.0654
-27.5974 4.4551 2.0628
-27.6087 3.8263 2.0550
-27.6200 3.2009 2.0482
-27.6311 2.5782 2.0424
-27.6423 1.9576 2.0376
-27.6534 1.3385 2.0339
-27.6646 0.7202 2.0312
-27.6490 0.1021 2.0276
-27.6868 -0.5162 2.0289
-27.6979 -1.1356 2.0292
-27.7091 -1.7567 2.0306
-21.2426 -1.8239 1.5579
-27.7316 -3.0063 2.0364
-27.7429 -3.6361 2.0409
-27.7543 -4.2701 2.0464
-27.7658 -4.9090 2.0530
-27.7506 -5.5482 2.0587
-27.7890 -6.2044 2.0694
-27.8009 -6.8623 2.0794
-27.8128 -7.5280 2.0905
-27.8249 -8.2024 2.1028
-27.8372 -8.8864 2.1164
-27.7407 -9.5434 2.1229
-27.5443 -10.1692 2.1229
-27.3336 -10.7910 2.1229
-27.1087 -11.4084 2.1229
-26.8696 -12.0210 2.1229
-26.6165 -12.6285 2.1229
-26.3494 -13.2306 2.1229
-26.0686 -13.8270 2.1229
-25.7740 -14.4173 2.1229
-25.4658 -15.0011 2.1229
-25.1442 -15.5783 2.1229
-24.8092 -16.1485 2.1229
-18.8293 -12.8638 1.6341
-24.0999 -17.2663 2.1229
-23.7259 -17.8134 2.1229
-23.3392 -18.3522 2.1229
-22.9400 -18.8823 2.1229
-22.5285 -19.4035 2.1229
-22.1048 -19.9156 2.1229
-21.6693 -20.4181 2.1229
-21.2220 -20.9108 2.1229
-20.7633 -21.3934 2.1229
-20.2933 -21.8656 2.1229
-19.8122 -22.3272 2.1229
-19.3204 -22.7779 2.1229
-18.8181 -23.2174 2.1229
-18.7116 -24.1699 2.1700
-18.7000 -25.3027 2.2324
-18.4889 -26.2225 2.2753
-17.9082 -26.6428 2.2753
-17.3175 -27.0498 2.2753
-16.7131 -27.4363 2.2747
-16.0964 -27.8029 2.2737
-15.4716 -28.1555 2.2726
-14.8388 -28.4936 2.2716
-14.1985 -28.8172 2.2706
-13.5511 -29.1260 2.2696
-12.8967 -29.4200 2.2686
-12.2358 -29.6989 2.2677
-11.5688 -29.9628 2.2667
-10.8960 -30.2112 2.2658
-10.2177 -30.4443 2.2649
-9.5344 -30.6618 2.2640
-8.8464 -30.8636 2.2632
-8.1540 -31.0496 2.2623
-7.4577 -31.2198 2.2615
-6.7577 -31.3740 2.2607
-6.0545 -31.5122 2.2600
-5.3484 -31.6343 2.2592
-4.6399 -31.7403 2.2585
-3.9292 -31.8300 2.2578
-3.2169 -31.9035 2.2571
-2.5031 -31.9608 2.2565
-1.7884 -32.0018 2.2558
-1.0731 -32.0265 2.2552
-0.3577 -32.0349 2.2546
0.3576 -32.0270 2.2541
1.0724 -32.0028 2.2536
1.7863 -31.9624 2.2530
2.4988 -31.9058 2.2526
3.2098 -31.8329 2.2521
3.9187 -31.7441 2.2517
4.6251 -31.6391 2.2513
5.3288 -31.5181 2.2509
6.0536 -31.5072 2.2596
6.7699 -31.4308 2.2648
7.4899 -31.3548 2.2713
8.1992 -31.2218 2.2749
8.9157 -31.1054 2.2809
9.6214 -30.9413 2.2847
10.3301 -30.7789 2.2898
11.0231 -30.5635 2.2922
11.6980 -30.2972 2.2920
12.3527 -29.9827 2.2893
12.9927 -29.6393 2.2855
13.6137 -29.2608 2.2801
14.2352 -28.8915 2.2764
14.8694 -28.5522 2.2763
15.4948 -28.1977 2.2760
16.1115 -27.8290 2.2758
16.7193 -27.4463 2.2756
17.3177 -27.0500 2.2753
17.9082 -26.6428 2.2753
7.1332 -10.1170 0.8778
19.0594 -25.7891 2.2753
19.6196 -25.3429 2.2753
20.1690 -24.8841 2.2753
20.7074 -24.4130 2.2753
21.2346 -23.9300 2.2753
21.7501 -23.4353 2.2753
22.2537 -22.9291 2.2753
20.5993 -20.2971 2.0606
21.6803 -20.4284 2.1240
22.1301 -19.9382 2.1253
22.5686 -19.4381 2.1267
22.9959 -18.9283 2.1281
23.4117 -18.4091 2.1295
23.8156 -17.8807 2.1309
15.4010 -11.0340 1.3566
24.5875 -16.7976 2.1339
24.9550 -16.2433 2.1354
25.3100 -15.6810 2.1369
25.6523 -15.1109 2.1384
25.9655 -14.5244 2.1387
26.2584 -13.9277 2.1384
26.5373 -13.3249 2.1380
26.8021 -12.7166 2.1377
27.0528 -12.1029 2.1374
27.2893 -11.4844 2.1370
27.5114 -10.8612 2.1367
27.7191 -10.2337 2.1364
27.9124 -9.6024 2.1360
28.0267 -8.9468 2.1308
16.3109 -4.8083 1.2327
16.3204 -4.4174 1.2267
16.3298 -4.0308 1.2214
16.3391 -3.6480 1.2168
16.3484 -3.2686 1.2128
16.3575 -2.8921 1.2095
16.3666 -2.5181 1.2067
16.3757 -2.1463 1.2046
16.3847 -1.7763 1.2032
16.4576 -1.4131 1.2070
17.0621 -1.0818 1.2504
23.8321 -0.9772 1.7460
23.8451 -0.4446 1.7474
23.8580 0.0881 1.7496
23.8710 0.6215 1.7527
28.9626 1.4019 2.1302
28.8937 2.0463 2.1299
28.8105 2.6883 2.1296
17.1367 1.9860 1.2708
28.6020 3.9640 2.1289
28.4768 4.5970 2.1286
28.3378 5.2265 2.1282
28.1850 5.8522 2.1279
28.0186 6.4736 2.1276
27.8388 7.0906 2.1273
27.6456 7.7029 2.1270
27.4391 8.3101 2.1266
27.2196 8.9121 2.1263
26.9872 9.5084 2.1260
26.7420 10.0989 2.1257
26.4841 10.6834 2.1254
26.2138 11.2615 2.1251
25.9311 11.8330 2.1248
25.6363 12.3977 2.1245
25.3296 12.9552 2.1242
25.0110 13.5054 2.1239
24.6809 14.0480 2.1237
24.3392 14.5828 2.1234
23.9863 15.1096 2.1231
23.6224 15.6280 2.1228
22.2224 15.4262 2.0290
21.0968 15.3544 1.9584
20.2770 15.4622 1.9153
19.3761 15.4718 1.8637
18.5233 15.4809 1.8157
17.7139 15.4895 1.7710
16.9441 15.4977 1.7293
16.1246 15.4237 1.6815
15.5102 15.5140 1.6542
14.8391 15.5212 1.6202
14.1954 15.5280 1.5884
13.5770 15.5346 1.5585
12.9818 15.5409 1.5306
12.4079 15.5470 1.5043
11.8537 15.5529 1.4797
11.3177 15.5586 1.4565
10.7407 15.4810 1.4272
10.3093 15.5917 1.4165
15.9888 25.3968 2.2753
15.4105 25.7359 2.2753
14.8253 26.0624 2.2753
7.8841 14.6100 1.2603
13.6351 26.6766 2.2753
13.0307 26.9641 2.2753
12.4206 27.2384 2.2753
11.8049 27.4995 2.2753
11.1839 27.7471 2.2753
10.5579 27.9812 2.2753
9.9273 28.2016 2.2753
9.2923 28.4085 2.2753
8.6531 28.6017 2.2753
8.0100 28.7808 2.2753
7.3635 28.9461 2.2753
6.7136 29.0974 2.2753
6.0608 29.2347 2.2753
5.4053 29.3579 2.2753
4.7474 29.4671 2.2753
4.0875 29.5620 2.2753
3.4257 29.6427 2.2753
2.7624 29.7092 2.2753
2.0979 29.7614 2.2753
1.4324 29.7993 2.2753
0.7663 29.8229 2.2753
0.0999 29.8322 2.2753
-0.5665 29.8272 2.2753
-1.2327 29.8079 2.2753
-1.8984 29.7742 2.2753
-2.5632 29.7264 2.2753
-3.2269 29.6641 2.2753
-3.8892 29.5877 2.2753
-4.5498 29.4970 2.2753
-5.2083 29.3921 2.2753
-5.8645 29.2732 2.2753
-6.5182 29.1401 2.2753
-7.1690 28.9929 2.2753
-7.8165 28.8318 2.2753
-8.4607 28.6568 2.2753
-9.1010 28.4678 2.2753
-9.7373 28.2651 2.2753
-10.3693 28.0487 2.2753
-10.9967 27.8187 2.2753
-11.6192 27.5751 2.2753
-12.2365 27.3181 2.2753
-12.8484 27.0477 2.2753
-13.4545 26.7642 2.2753
-14.0546 26.4674 2.2753
-14.6484 26.1578 2.2753
-15.2357 25.8352 2.2753
-15.8161 25.4999 2.2753
-16.3894 25.1519 2.2753
-16.9554 24.7915 2.2753
-17.5137 24.4187 2.2753
-18.0641 24.0337 2.2753
-18.6064 23.6367 2.2753
-18.7017 22.6958 2.2232
-18.7125 21.7023 2.1651
-18.8297 20.8766 2.1229
-19.3027 20.4629 2.1229
-19.7670 20.0387 2.1229
-20.2222 19.6043 2.1229
-20.6682 19.1598 2.1229
-21.1047 18.7055 2.1229
-21.5315 18.2415 2.1229
-21.9484 17.7679 2.1229
-22.3551 17.2851 2.1229
-22.7516 16.7931 2.1229
-23.1374 16.2924 2.1229
-23.5126 15.7829 2.1229
-23.8768 15.2650 2.1229
-24.2299 14.7388 2.1229
-24.5717 14.2047 2.1229
-24.9019 13.6627 2.1229
-25.2205 13.1133 2.1229
-25.5272 12.5566 2.1229
-25.8218 11.9928 2.1229
-26.1043 11.4223 2.1229
-26.3743 10.8451 2.1229
-26.6319 10.2618 2.1229
-26.8767 9.6724 2.1229
-27.1087 9.0772 2.1229
-27.3278 8.4767 2.1229
-27.5337 7.8708 2.1229
-27.5479 7.2134 2.1092
-27.5596 6.5623 2.0966
-27.5712 5.9176 2.0851
-27.4984 5.2624 2.0683
-27.5940 4.6444 2.0654
-27.6053 4.0145 2.0572
-27.6166 3.3881 2.0501
-27.6278 2.7647 2.0440
-27.6390 2.1437 2.0390
-27.6501 1.5242 2.0349
-27.6612 0.9057 2.0319
-27.6723 0.2877 2.0300
-27.6568 -0.3303 2.0270
-27.6946 -0.9497 2.0290
-27.7058 -1.5702 2.0301
-21.2603 -1.6820 1.5588
-27.7282 -2.8181 2.0353
-27.7395 -3.4468 2.0394
-27.7509 -4.0795 2.0446
-27.7623 -4.7168 2.0509
-27.7471 -5.3544 2.0562
-27.7855 -6.0084 2.0667
-27.7973 -6.6641 2.0763
-27.8092 -7.3275 2.0870
-27.8213 -7.9992 2.0990
-27.8335 -8.6803 2.1122
-27.7969 -9.3549 2.1229
-27.6048 -9.9818 2.1229
-27.3983 -10.6049 2.1229
-27.1776 -11.2236 2.1229
-26.9428 -11.8376 2.1229
-26.6939 -12.4467 2.1229
-26.4310 -13.0505 2.1229
-26.1542 -13.6487 2.1229
-25.8638 -14.2408 2.1229
-25.5597 -14.8267 2.1229
-25.2420 -15.4059 2.1229
-24.9111 -15.9782 2.1229
-24.5669 -16.5432 2.1229
-24.2096 -17.1006 2.1229
-23.8394 -17.6501 2.1229
-23.4565 -18.1914 2.1229
-23.0610 -18.7242 2.1229
-22.6532 -19.2482 2.1229
-22.2331 -19.7630 2.1229
-21.8012 -20.2684 2.1229
-21.3575 -20.7640 2.1229
-20.9022 -21.2497 2.1229
-20.4355 -21.7250 2.1229
-19.9577 -22.1899 2.1229
-19.4691 -22.6438 2.1229
-18.9699 -23.0867 2.1229
-18.7149 -23.8425 2.1522
-18.7036 -24.9560 2.2132
-18.6611 -26.0938 2.2753
-18.0834 -26.5181 2.2753
-17.4957 -26.9292 2.2753
-16.8964 -27.3236 2.2750
-16.2823 -27.6944 2.2740
-15.6598 -28.0512 2.2729
-15.0294 -28.3937 2.2719
-14.3913 -28.7216 2.2709
-13.7460 -29.0349 2.2699
-13.0936 -29.3334 2.2689
-12.4347 -29.6169 2.2680
-11.7695 -29.8852 2.2670
-11.0985 -30.1383 2.2661
-10.4218 -30.3759 2.2652
-9.7400 -30.5981 2.2643
-9.0533 -30.8047 2.2634
-8.3622 -30.9954 2.2626
-7.6670 -31.1704 2.2618
-6.9680 -31.3294 2.2610
-6.2658 -31.4724 2.2602
-5.5605 -31.5993 2.2594
-4.8527 -31.7101 2.2587
-4.1426 -31.8048 2.2580
-3.4307 -31.8832 2.2573
-2.7173 -31.9454 2.2566
-2.0029 -31.9912 2.2560
-1.2877 -32.0208 2.2554
-0.5723 -32.0341 2.2548
0.1431 -32.0310 2.2542
0.8581 -32.0118 2.2537
1.5723 -31.9762 2.2532
2.2852 -31.9245 2.2527
2.9967 -31.8565 2.2522
3.7062 -31.7724 2.2518
4.4134 -31.6723 2.2514
5.1180 -31.5561 2.2510
5.8355 -31.5102 2.2569
6.5557 -31.4585 2.2635
7.2724 -31.3729 2.2689
7.9905 -31.2782 2.2749
8.6995 -31.1371 2.2787
9.4109 -30.9955 2.2838
10.1204 -30.8375 2.2889
10.8129 -30.6221 2.2909
11.4961 -30.3786 2.2921
12.1589 -30.0828 2.2905
12.8075 -29.7571 2.2877
13.4195 -29.3558 2.2802
14.0458 -28.9953 2.2769
14.6802 -28.6558 2.2763
15.3080 -28.3056 2.2761
15.9274 -27.9411 2.2759
16.5379 -27.5626 2.2756
17.1391 -27.1703 2.2754
17.7319 -26.7663 2.2753
7.0767 -10.1809 0.8791
18.8894 -25.9205 2.2753
19.4526 -25.4780 2.2753
20.0054 -25.0230 2.2753
20.5471 -24.5556 2.2753
21.0777 -24.0762 2.2753
21.5967 -23.5849 2.2753
22.1038 -23.0821 2.2753
20.5449 -20.5166 2.0685
21.5433 -20.5735 2.1236
21.9963 -20.0863 2.1249
22.4383 -19.5891 2.1263
22.8690 -19.0822 2.1277
23.2882 -18.5658 2.1291
23.6957 -18.0401 2.1305
15.2790 -11.1023 1.3521
24.4747 -16.9623 2.1334
24.8460 -16.4105 2.1349
25.2048 -15.8506 2.1364
25.5509 -15.2828 2.1380
25.8750 -14.7022 2.1388
26.1719 -14.1073 2.1385
26.4551 -13.5063 2.1381
26.7241 -12.8996 2.1378
26.9791 -12.2875 2.1375
27.2198 -11.6704 2.1371
27.4463 -11.0486 2.1368
27.6584 -10.4224 2.1365
27.8559 -9.7922 2.1361
28.0219 -9.1526 2.1345
16.3080 -4.9264 1.2346
16.3176 -4.5342 1.2284
16.3270 -4.1464 1.2229
16.3364 -3.7624 1.2181
16.3456 -3.3821 1.2139
16.3548 -3.0048 1.2104
16.3639 -2.6301 1.2075
16.3730 -2.2577 1.2052
16.3820 -1.8871 1.2035
16.3909 -1.5181 1.2025
16.7107 -1.1720 1.2248
23.2396 -1.1089 1.7027
23.8412 -0.6044 1.7469
23.8541 -0.0718 1.7488
23.8671 0.4614 1.7517
24.1431 1.0065 1.7747
28.9159 1.8533 2.1300
28.8369 2.4960 2.1297
17.1393 1.8700 1.2697
28.6369 3.7735 2.1290
28.5158 4.4075 2.1287
28.3809 5.0382 2.1283
28.2322 5.6649 2.1280
28.0699 6.2876 2.1277
27.8941 6.9059 2.1274
27.7049 7.5197 2.1270
27.5025 8.1284 2.1267
27.2869 8.7320 2.1264
27.0583 9.3301 2.1261
26.8169 9.9224 2.1258
26.5628 10.5087 2.1255
26.2962 11.0888 2.1252
26.0172 11.6623 2.1249
25.7260 12.2290 2.1246
25.4228 12.7887 2.1243
25.1078 13.3412 2.1240
24.7810 13.8861 2.1237
24.4428 14.4232 2.1235
24.0933 14.9524 2.1232
23.7326 15.4734 2.1229
22.5383 15.4229 2.0479
21.4132 15.3663 1.9778
20.5572 15.4592 1.9315
19.6412 15.4690 1.8787
18.7744 15.4782 1.8297
17.9525 15.4869 1.7841
17.1711 15.4953 1.7415
16.4268 15.5032 1.7018
15.6322 15.4278 1.6559
15.0374 15.5190 1.6302
14.3857 15.5260 1.5977
13.7600 15.5326 1.5673
13.1580 15.5390 1.5388
12.5779 15.5452 1.5120
12.0180 15.5512 1.4869
11.4767 15.5569 1.4633
10.9525 15.5625 1.4412
10.3884 15.4847 1.4129
16.1609 25.2926 2.2753
15.5847 25.6356 2.2753
15.0015 25.9658 2.2753
14.4115 26.2832 2.2753
7.6737 14.7681 1.2638
13.2127 26.8792 2.2753
12.6043 27.1575 2.2753
11.9902 27.4225 2.2753
11.3708 27.6742 2.2753
10.7463 27.9123 2.2753
10.1170 28.1369 2.2753
9.4832 28.3479 2.2753
8.8452 28.5451 2.2753
8.2033 28.7285 2.2753
7.5578 28.8979 2.2753
6.9089 29.0535 2.2753
6.2569 29.1950 2.2753
5.6022 29.3225 2.2753
4.9450 29.4358 2.2753
4.2856 29.5350 2.2753
3.6243 29.6200 2.2753
2.9614 29.6907 2.2753
2.2972 29.7472 2.2753
1.6322 29.7894 2.2753
0.9662 29.8173 2.2753
0.2999 29.8310 2.2753
-0.3666 29.8302 2.2753
-1.0329 29.8152 2.2753
-1.6988 29.7859 2.2753
-2.3639 29.7422 2.2753
-3.0279 29.6843 2.2753
-3.6907 29.6121 2.2753
-4.3518 29.5257 2.2753
-5.0110 29.4251 2.2753
-5.6679 29.3104 2.2753
-6.3224 29.1815 2.2753
-6.9741 29.0386 2.2753
-7.6226 28.8816 2.2753
-8.2678 28.7108 2.2753
-8.9093 28.5259 2.2753
-9.5469 28.3274 2.2753
-10.1802 28.1151 2.2753
-10.8091 27.8891 2.2753
-11.4329 27.6496 2.2753
-12.0518 27.3967 2.2753
-12.6654 27.1303 2.2753
-13.2733 26.8506 2.2753
-13.8744 26.5575 2.2753
-14.4710 26.2520 2.2753
-15.0602 25.9333 2.2753
-15.6427 25.6018 2.2753
-16.2182 25.2576 2.2753
-16.7864 24.9009 2.2753
-17.3470 24.5318 2.2753
-17.8998 24.1505 2.2753
-18.4445 23.7571 2.2753
-18.6984 23.0041 2.2414
-18.7093 21.9950 2.1821
-18.7279 21.0454 2.1277
-19.1618 20.5881 2.1229
-19.6287 20.1670 2.1229
-20.0866 19.7357 2.1229
-20.5353 19.2943 2.1229
-20.9747 18.8428 2.1229
-21.4045 18.3817 2.1229
-21.8243 17.9110 2.1229
-22.2342 17.4309 2.1229
-22.6337 16.9417 2.1229
-23.0228 16.4436 2.1229
-23.4012 15.9367 2.1229
-23.7687 15.4212 2.1229
-24.1252 14.8975 2.1229
-24.4704 14.3657 2.1229
-24.8041 13.8261 2.1229
-25.1261 13.2789 2.1229
-25.4364 12.7243 2.1229
-25.7347 12.1626 2.1229
-26.0208 11.5941 2.1229
-26.2947 11.0189 2.1229
-26.5559 10.4374 2.1229
-26.8046 9.8497 2.1229
-27.0404 9.2564 2.1229
-27.2634 8.6574 2.1229
-27.4733 8.0531 2.1229
-27.5444 7.4101 2.1133
-27.5561 6.7570 2.1003
-27.5677 6.1105 2.0884
-27.4949 5.4531 2.0713
-27.5906 4.8342 2.0681
-27.6019 4.2031 2.0596
-27.6132 3.5757 2.0521
-27.6245 2.9515 2.0457
-27.6356 2.3297 2.0404
-27.6468 1.7098 2.0360
-27.6579 1.0911 2.0327
-27.6690 0.4730 2.0305
-27.6534 -0.1450 2.0272
-27.6913 -0.7639 2.0289
-27.7024 -1.3839 2.0297
-27.7136 -2.0058 2.0314
-21.2472 -2.0157 1.5590
-27.7361 -3.2577 2.0381
-27.7474 -3.8891 2.0429
-27.7589 -4.5250 2.0489
-27.6855 -5.1503 2.0496
-27.7820 -5.8130 2.0640
-27.7937 -6.4666 2.0733
-27.8056 -7.1276 2.0837
-27.8176 -7.7967 2.0953
-27.8298 -8.4749 2.1081
-27.8422 -9.1629 2.1222
-27.6639 -9.7942 2.1229
-27.4617 -10.4185 2.1229
-27.2452 -11.0385 2.1229
-27.0147 -11.6540 2.1229
-26.7700 -12.2647 2.1229
-26.5113 -12.8701 2.1229
-26.2387 -13.4699 2.1229
-25.9523 -14.0639 2.1229
-25.6523 -14.6517 2.1229
-25.3387 -15.2328 2.1229
-25.0118 -15.8072 2.1229
-24.6715 -16.3744 2.1229
-18.7458 -13.0538 1.6364
-23.9519 -17.4861 2.1229
-23.5727 -18.0299 2.1229
-23.1810 -18.5652 2.1229
-22.7769 -19.0919 2.1229
-22.3604 -19.6095 2.1229
-21.9320 -20.1177 2.1229
-21.4918 -20.6164 2.1229
-21.0398 -21.1051 2.1229
-20.5766 -21.5836 2.1229
-20.1022 -22.0516 2.1229
-19.6168 -22.5088 2.1229
-19.1207 -22.9551 2.1229
-18.7206 -23.5236 2.1350
-18.7070 -24.6154 2.1944
-18.6951 -25.7748 2.2587
-18.2577 -26.3922 2.2753
-17.6730 -26.8072 2.2753
-17.0786 -27.2089 2.2753
-16.4674 -27.5846 2.2743
-15.8475 -27.9456 2.2732
-15.2194 -28.2924 2.2722
-14.5836 -28.6247 2.2712
-13.9404 -28.9425 2.2702
-13.2901 -29.2454 2.2692
-12.6330 -29.5334 2.2682
-11.9697 -29.8064 2.2673
-11.3003 -30.0640 2.2664
-10.6253 -30.3063 2.2655
-9.9450 -30.5332 2.2646
-9.2597 -30.7444 2.2637
-8.5699 -30.9399 2.2628
-7.8759 -31.1196 2.2620
-7.1780 -31.2834 2.2612
-6.4767 -31.4312 2.2604
-5.7723 -31.5630 2.2597
-5.0653 -31.6786 2.2589
-4.3559 -31.7780 2.2582
-3.6445 -31.8613 2.2575
-2.9316 -31.9284 2.2568
-2.2174 -31.9792 2.2562
-1.5024 -32.0136 2.2556
-0.7870 -32.0318 2.2550
-0.0715 -32.0336 2.2544
0.6437 -32.0192 2.2539
1.3581 -31.9886 2.2533
2.0715 -31.9417 2.2529
2.7835 -31.8786 2.2524
3.4936 -31.7994 2.2519
4.2016 -31.7040 2.2515
4.9070 -31.5926 2.2511
5.6194 -31.5210 2.2548
6.3398 -31.4766 2.2615
7.0600 -31.4111 2.2680
7.7738 -31.3029 2.2727
8.4831 -31.1669 2.2765
9.1957 -31.0329 2.2818
9.9053 -30.8789 2.2868
10.6020 -30.6781 2.2895
11.2931 -30.4571 2.2920
11.9642 -30.1817 2.2916
12.6163 -29.8624 2.2890
13.2364 -29.4761 2.2823
13.8646 -29.1170 2.2788
14.4901 -28.7580 2.2764
15.1206 -28.4121 2.2762
15.7426 -28.0519 2.2759
16.3558 -27.6776 2.2757
16.9598 -27.2894 2.2755
17.5550 -26.8886 2.2753
18.1417 -26.4762 2.2753
7.2646 -10.1102 0.8830
19.2849 -25.6121 2.2753
19.8407 -25.1608 2.2753
20.3857 -24.6972 2.2753
20.9197 -24.2213 2.2753
21.4421 -23.7335 2.2753
21.9530 -23.2342 2.2753
22.4521 -22.7236 2.2753
20.9802 -20.3063 2.0810
21.8615 -20.2336 2.1245
22.3068 -19.7394 2.1259
22.7410 -19.2354 2.1272
23.1636 -18.7217 2.1286
23.5747 -18.1988 2.1301
15.1579 -11.1701 1.3477
15.5649 -10.9423 1.3628
24.7360 -16.5768 2.1345
25.0985 -16.0193 2.1360
25.4484 -15.4539 2.1375
25.7832 -14.8794 2.1389
26.0843 -14.2864 2.1385
26.3716 -13.6871 2.1382
26.6449 -13.0821 2.1379
26.9041 -12.4717 2.1376
27.1491 -11.8561 2.1372
27.3799 -11.2356 2.1369
27.5962 -10.6107 2.1366
27.7982 -9.9817 2.1362
27.9857 -9.3489 2.1359
16.4626 -5.0938 1.2485
16.3147 -4.6514 1.2302
16.3242 -4.2623 1.2245
16.3336 -3.8773 1.2195
16.3428 -3.4958 1.2151
16.3520 -3.1176 1.2114
16.3612 -2.7422 1.2083
16.3702 -2.3691 1.2058
16.3793 -1.9981 1.2040
16.3883 -1.6286 1.2027
16.6014 -1.2761 1.2171
17.0659 -0.9290 1.2504
23.8373 -0.7641 1.7465
23.8502 -0.2316 1.7482
23.8632 0.3013 1.7507
23.9665 0.8383 1.7608
28.9368 1.6599 2.1301
23.3118 1.8604 1.7202
28.7733 2.9444 2.1294
17.1507 2.1430 1.2737
28.5536 4.2176 2.1288
28.4228 4.8493 2.1284
28.2782 5.4773 2.1281
28.1200 6.1013 2.1278
27.9483 6.7210 2.1275
27.7631 7.3361 2.1271
27.5645 7.9464 2.1268
27.3528 8.5515 2.1265
27.1282 9.1513 2.1262
26.8906 9.7454 2.1259
26.6403 10.3335 2.1256
26.3775 10.9155 2.1253
26.1022 11.4909 2.1250
25.8147 12.0597 2.1247
25.5151 12.6215 2.1244
25.2036 13.1762 2.1241
24.8803 13.7233 2.1238
24.5455 14.2629 2.1236
24.1994 14.7945 2.1233
23.8420 15.3180 2.1230
22.8606 15.4194 2.0673
21.8100 15.4306 2.0044
20.7950 15.4209 1.9437
19.9105 15.4661 1.8942
19.0295 15.4755 1.8440
18.1945 15.4844 1.7974
17.4014 15.4928 1.7540
16.6464 15.5008 1.7135
15.8408 15.4256 1.6667
15.2382 15.5169 1.6403
14.5784 15.5239 1.6072
13.9452 15.5307 1.5762
13.3363 15.5371 1.5471
12.7498 15.5434 1.5199
12.1840 15.5494 1.4943
11.6372 15.5552 1.4702
11.1081 15.5609 1.4477
10.5385 15.4831 1.4189
10.3126 15.9038 1.4367
15.7583 25.5340 2.2753
15.1772 25.8681 2.2753
14.5893 26.1894 2.2753
7.7219 14.6206 1.2554
13.3940 26.7932 2.2753
12.7873 27.0754 2.2753
12.1749 27.3444 2.2753
11.5571 27.6001 2.2753
10.9341 27.8424 2.2753
10.3062 28.0711 2.2753
9.6737 28.2861 2.2753
9.0370 28.4874 2.2753
8.3963 28.6749 2.2753
7.7518 28.8486 2.2753
7.1039 29.0083 2.2753
6.4529 29.1540 2.2753
5.7989 29.2857 2.2753
5.1425 29.4033 2.2753
4.4837 29.5068 2.2753
3.8229 29.5960 2.2753
3.1607 29.6709 2.2753
2.4967 29.7318 2.2753
1.8317 29.7783 2.2753
1.1660 29.8105 2.2753
0.4998 29.8283 2.2753
-0.1667 29.8319 2.2753
-0.8331 29.8212 2.2753
-1.4991 29.7962 2.2753
-2.1645 29.7568 2.2753
-2.8289 29.7032 2.2753
-3.4921 29.6352 2.2753
-4.1536 29.5531 2.2753
-4.8134 29.4568 2.2753
-5.4710 29.3463 2.2753
-6.1263 29.2217 2.2753
-6.7788 29.0830 2.2753
-7.4283 28.9302 2.2753
-8.0746 28.7635 2.2753
-8.7172 28.5829 2.2753
-9.3560 28.3884 2.2753
-9.9907 28.1802 2.2753
-10.6209 27.9583 2.2753
-11.2463 27.7228 2.2753
-11.8668 27.4739 2.2753
-12.4820 27.2115 2.2753
-13.0916 26.9359 2.2753
-13.6953 26.6471 2.2753
-14.2930 26.3451 2.2753
-14.8842 26.0302 2.2753
-15.4688 25.7025 2.2753
-16.0463 25.3622 2.2753
-16.6167 25.0092 2.2753
-17.1796 24.6438 2.2753
-17.7348 24.2662 2.2753
-18.2820 23.8764 2.2753
-18.6949 23.3175 2.2601
-18.7061 22.2923 2.1994
-18.7165 21.3189 2.1429
-19.0199 20.7123 2.1229
-19.4895 20.2944 2.1229
-19.9502 19.8662 2.1229
-20.4018 19.4277 2.1229
-20.8440 18.9793 2.1229
-21.2766 18.5210 2.1229
-21.6995 18.0531 2.1229
-22.1124 17.5759 2.1229
-22.5150 17.0894 2.1229
-22.9072 16.5939 2.1229
-23.2889 16.0896 2.1229
-23.6597 15.5767 2.1229
-24.0194 15.0555 2.1229
-24.3680 14.5261 2.1229
-24.7052 13.9888 2.1229
-25.0308 13.4439 2.1229
-25.3446 12.8915 2.1229
-25.6465 12.3319 2.1229
-25.9363 11.7654 2.1229
-26.2138 11.1922 2.1229
-26.4789 10.6125 2.1229
-26.7314 10.0267 2.1229
-26.9711 9.4350 2.1229
-27.1979 8.8376 2.1229
-27.4118 8.2349 2.1229
-27.5408 7.6073 2.1174
-27.5526 6.9521 2.1040
-27.5642 6.3037 2.0918
-27.5758 5.6614 2.0808
-27.5607 5.0195 2.0689
-27.5985 4.3919 2.0620
-27.6098 3.7636 2.0542
-27.6211 3.1385 2.0475
-27.6323 2.5161 2.0419
-27.6434 1.8957 2.0372
-27.6546 1.2767 2.0336
-27.6657 0.6585 2.0310
-27.5922 0.0403 2.0232
-27.6879 -0.5781 2.0289
-27.6991 -1.1977 2.0293
-27.7102 -1.8190 2.0308
-21.2438 -1.8718 1.5582
-27.7327 -3.0692 2.0368
-27.7440 -3.6994 2.0414
-27.7554 -4.3338 2.0470
-27.6820 -4.9581 2.0475
-27.6936 -5.6012 2.0552
-27.7902 -6.2699 2.0704
-27.8020 -6.9285 2.0805
-27.8140 -7.5951 2.0917
-27.8262 -8.2704 2.1041
-27.8385 -8.9554 2.1178
-27.7218 -9.6061 2.1229
-27.5239 -10.2316 2.1229
-27.3117 -10.8529 2.1229
-27.0854 -11.4698 2.1229
-26.8449 -12.0819 2.1229
-26.5904 -12.6889 2.1229
-26.3219 -13.2905 2.1229
-26.0397 -13.8863 2.1229
-25.7438 -14.4760 2.1229
-25.4342 -15.0592 2.1229
-25.1113 -15.6357 2.1229
-24.7749 -16.2051 2.1229
-18.7882 -12.8973 1.6328
-24.0630 -17.3214 2.1229
-23.6877 -17.8677 2.1229
-23.2998 -18.4056 2.1229
-22.8993 -18.9349 2.1229
-22.4866 -19.4553 2.1229
-22.0618 -19.9662 2.1229
-21.6251 -20.4678 2.1229
-21.1767 -20.9595 2.1229
-20.7168 -21.4411 2.1229
-20.2457 -21.9123 2.1229
-19.7635 -22.3727 2.1229
-19.2707 -22.8223 2.1229
-18.7673 -23.2607 2.1229
-18.7105 -24.2804 2.1760
-18.6988 -25.4197 2.2389
-18.4312 -26.2651 2.2753
-17.8495 -26.6842 2.2753
-17.2579 -27.0898 2.2753
-16.6518 -27.4736 2.2746
-16.0343 -27.8389 2.2736
-15.4086 -28.1899 2.2725
-14.7750 -28.5266 2.2715
-14.1340 -28.8487 2.2705
-13.4858 -29.1561 2.2695
-12.8309 -29.4486 2.2685
-12.1694 -29.7260 2.2676
-11.5018 -29.9883 2.2666
-10.8284 -30.2353 2.2657
-10.1496 -30.4667 2.2648
-9.4658 -30.6826 2.2640
-8.7773 -30.8829 2.2631
-8.0845 -31.0673 2.2623
-7.3878 -31.2359 2.2615
-6.6874 -31.3885 2.2607
-5.9840 -31.5251 2.2599
-5.2776 -31.6456 2.2591
-4.5689 -31.7500 2.2584
-3.8580 -31.8381 2.2577
-3.1455 -31.9099 2.2570
-2.4317 -31.9656 2.2564
-1.7169 -32.0050 2.2558
-1.0016 -32.0281 2.2552
-0.2861 -32.0348 2.2546
0.4291 -32.0253 2.2540
1.1438 -31.9995 2.2535
1.8576 -31.9575 2.2530
2.5700 -31.8992 2.2525
3.2807 -31.8248 2.2521
3.9894 -31.7343 2.2517
4.6956 -31.6277 2.2513
5.4034 -31.5306 2.2527
6.1246 -31.4973 2.2599
6.8424 -31.4259 2.2656
7.5603 -31.3394 2.2715
8.2688 -31.2028 2.2749
8.9878 -31.0944 2.2816
9.6900 -30.9181 2.2846
10.3982 -30.7538 2.2897
11.0906 -30.5367 2.2922
11.7648 -30.2688 2.2919
12.4186 -29.9524 2.2892
13.0544 -29.5997 2.2848
13.6784 -29.2287 2.2801
14.2990 -28.8584 2.2764
14.9323 -28.5174 2.2763
15.5568 -28.1614 2.2760
16.1727 -27.7914 2.2758
16.7795 -27.4074 2.2755
17.3770 -27.0097 2.2753
17.9666 -26.6013 2.2753
7.1598 -10.1067 0.8784
19.1159 -25.7450 2.2753
19.6750 -25.2975 2.2753
20.2234 -24.8375 2.2753
20.7607 -24.3653 2.2753
21.2867 -23.8810 2.2753
21.8011 -23.3852 2.2753
22.3037 -22.8779 2.2753
20.6939 -20.2994 2.0657
21.7258 -20.3799 2.1241
22.1745 -19.8886 2.1255
22.6120 -19.3875 2.1268
23.0380 -18.8768 2.1282
23.4525 -18.3567 2.1296
23.8554 -17.8274 2.1311
15.4418 -11.0111 1.3582
24.6248 -16.7425 2.1340
24.9911 -16.1875 2.1355
25.3448 -15.6244 2.1371
25.6858 -15.0536 2.1386
25.9955 -14.4650 2.1386
26.2869 -13.8676 2.1383
26.5644 -13.2643 2.1380
26.8278 -12.6554 2.1377
27.0771 -12.0412 2.1373
27.3121 -11.4222 2.1370
27.5329 -10.7986 2.1367
27.7391 -10.1707 2.1363
27.9310 -9.5390 2.1360
28.0282 -8.8784 2.1296
16.3119 -4.7690 1.2320
16.3214 -4.3786 1.2261
16.3308 -3.9924 1.2209
16.3401 -3.6099 1.2163
16.3493 -3.2308 1.2124
16.3584 -2.8546 1.2092
16.3675 -2.4809 1.2065
16.3766 -2.1092 1.2045
16.3856 -1.7393 1.2031
16.4933 -1.3791 1.2095
17.0631 -1.0436 1.2504
23.8334 -0.9239 1.7461
23.8464 -0.3913 1.7476
23.8593 0.1414 1.7499
23.8723 0.6749 1.7531
28.9563 1.4665 2.1302
23.3283 1.7045 1.7201
28.8014 2.7524 2.1295
17.1377 2.0249 1.2713
28.5901 4.0275 2.1289
28.4635 4.6603 2.1285
28.3231 5.2892 2.1282
28.1689 5.9145 2.1279
28.0012 6.5355 2.1276
27.8200 7.1520 2.1272
27.6255 7.7638 2.1269
27.4178 8.3705 2.1266
27.1970 8.9719 2.1263
26.9633 9.5678 2.1260
26.7168 10.1577 2.1257
26.4576 10.7415 2.1254
26.1861 11.3190 2.1251
25.9022 11.8898 2.1248
25.6062 12.4538 2.1245
25.2982 13.0106 2.1242
24.9785 13.5601 2.1239
24.6471 14.1019 2.1236
24.3043 14.6359 2.1234
23.9504 15.1618 2.1231
23.5853 15.6795 2.1228
22.1184 15.4273 2.0228
20.9995 15.3554 1.9527
20.1846 15.4632 1.9099
19.2888 15.4727 1.8587
18.4405 15.4818 1.8111
17.6352 15.4903 1.7667
16.8692 15.4985 1.7253
16.0535 15.4244 1.6778
15.4417 15.5147 1.6507
14.7735 15.5219 1.6169
14.1324 15.5287 1.5853
13.5164 15.5352 1.5557
12.9234 15.5415 1.5279
12.3516 15.5476 1.5018
11.7993 15.5535 1.4773
11.2650 15.5592 1.4543
10.6899 15.4815 1.4251
10.3101 15.6689 1.4215
15.9312 25.4313 2.2753
15.3523 25.7691 2.2753
14.7664 26.0943 2.2753
7.8282 14.5843 1.2566
13.5750 26.7059 2.2753
12.9700 26.9921 2.2753
12.3593 27.2651 2.2753
11.7430 27.5248 2.2753
11.1215 27.7711 2.2753
10.4951 28.0038 2.2753
9.8640 28.2230 2.2753
9.2285 28.4284 2.2753
8.5889 28.6201 2.2753
7.9455 28.7980 2.2753
7.2986 28.9619 2.2753
6.6484 29.1118 2.2753
5.9953 29.2477 2.2753
5.3396 29.3695 2.2753
4.6815 29.4773 2.2753
4.0213 29.5708 2.2753
3.3593 29.6500 2.2753
2.6960 29.7151 2.2753
2.0314 29.7658 2.2753
1.3659 29.8023 2.2753
0.6997 29.8245 2.2753
0.0333 29.8323 2.2753
-0.6332 29.8260 2.2753
-1.2993 29.8052 2.2753
-1.9649 29.7701 2.2753
-2.6297 29.7208 2.2753
-3.2932 29.6571 2.2753
-3.9554 29.5793 2.2753
-4.6157 29.4872 2.2753
-5.2741 29.3809 2.2753
-5.9300 29.2605 2.2753
-6.5834 29.1260 2.2753
-7.2339 28.9775 2.2753
-7.8811 28.8150 2.2753
-8.5249 28.6385 2.2753
-9.1649 28.4482 2.2753
-9.8007 28.2441 2.2753
-10.4322 28.0264 2.2753
-11.0591 27.7949 2.2753
-11.6811 27.5500 2.2753
-12.2979 27.2917 2.2753
-12.9092 27.0200 2.2753
-13.5148 26.7351 2.2753
-14.1143 26.4371 2.2753
-14.7075 26.1261 2.2753
-15.2941 25.8022 2.2753
-15.8738 25.4656 2.2753
-16.4464 25.1164 2.2753
-17.0116 24.7547 2.2753
-17.5691 24.3807 2.2753
-18.1187 23.9945 2.2753
-18.6601 23.5964 2.2753
-18.7028 22.5941 2.2172
-18.7135 21.6057 2.1595
-18.8774 20.8356 2.1229
-19.3495 20.4209 2.1229
-19.8129 19.9957 2.1229
-20.2672 19.5604 2.1229
-20.7122 19.1149 2.1229
-21.1478 18.6596 2.1229
-21.5737 18.1945 2.1229
-21.9896 17.7201 2.1229
-22.3953 17.2363 2.1229
-22.7907 16.7435 2.1229
-23.1755 16.2418 2.1229
-23.5496 15.7315 2.1229
-23.9127 15.2127 2.1229
-24.2646 14.6857 2.1229
-24.6052 14.1508 2.1229
-24.9343 13.6081 2.1229
-25.2518 13.0579 2.1229
-25.5573 12.5005 2.1229
-25.8506 11.9360 2.1229
-26.1319 11.3648 2.1229
-26.4007 10.7870 2.1229
-26.6569 10.2031 2.1229
-26.9005 9.6131 2.1229
-27.1312 9.0175 2.1229
-27.3489 8.4163 2.1229
-27.5372 7.8054 2.1216
-27.5491 7.1480 2.1079
-27.5608 6.4976 2.0954
-27.5723 5.8535 2.0840
-27.5572 5.2099 2.0717
-27.5951 4.5813 2.0645
-27.6065 3.9517 2.0565
-27.6177 3.3257 2.0494
-27.6289 2.7025 2.0435
-27.6401 2.0816 2.0385
-27.6512 1.4622 2.0346
-27.6623 0.8438 2.0317
-27.5889 0.2251 2.0236
-27.6846 -0.3925 2.0290
-27.6957 -1.0117 2.0291
-27.7069 -1.6323 2.0303
-21.2404 -1.7281 1.5575
-27.7293 -2.8808 2.0356
-27.7406 -3.5098 2.0399
-27.7520 -4.1429 2.0452
-27.7635 -4.7808 2.0516
-27.6901 -5.4076 2.0527
-27.7867 -6.0736 2.0676
-27.7985 -6.7301 2.0773
-27.8104 -7.3942 2.0882
-27.8225 -8.0669 2.1003
-27.8348 -8.7489 2.1136
-27.7783 -9.4178 2.1229
-27.5847 -10.0444 2.1229
-27.3768 -10.6670 2.1229
-27.1547 -11.2853 2.1229
-26.9185 -11.8989 2.1229
-26.6682 -12.5075 2.1229
-26.4039 -13.1107 2.1229
-26.1259 -13.7081 2.1229
-25.8340 -14.2997 2.1229
-25.5285 -14.8849 2.1229
-25.2096 -15.4635 2.1229
-24.8772 -16.0350 2.1229
-24.5317 -16.5993 2.1229
-24.1732 -17.1559 2.1229
-23.8017 -17.7046 2.1229
-23.4176 -18.2451 2.1229
-23.0208 -18.7770 2.1229
-22.6117 -19.3000 2.1229
-22.1905 -19.8140 2.1229
-21.7573 -20.3184 2.1229
-21.3124 -20.8131 2.1229
-20.8559 -21.2978 2.1229
-20.3881 -21.7720 2.1229
-19.9093 -22.2358 2.1229
-19.4196 -22.6887 2.1229
-18.9194 -23.1304 2.1229
-18.7138 -23.9512 2.1581
-18.7024 -25.0708 2.2195
-18.6039 -26.1369 2.2753
-18.0250 -26.5598 2.2753
-17.4364 -26.9695 2.2753
-16.8354 -27.3613 2.2749
-16.2204 -27.7307 2.2739
-15.5972 -28.0861 2.2728
-14.9660 -28.4271 2.2718
-14.3271 -28.7536 2.2708
-13.6811 -29.0655 2.2698
-13.0281 -29.3624 2.2688
-12.3685 -29.6444 2.2679
-11.7026 -29.9113 2.2669
-11.0309 -30.1628 2.2660
-10.3538 -30.3990 2.2651
-9.6714 -30.6195 2.2642
-8.9843 -30.8245 2.2634
-8.2927 -31.0137 2.2625
-7.5971 -31.1870 2.2617
-6.8980 -31.3444 2.2609
-6.1954 -31.4859 2.2601
-5.4899 -31.6112 2.2594
-4.7818 -31.7204 2.2586
-4.0715 -31.8134 2.2579
-3.3595 -31.8901 2.2572
-2.6460 -31.9506 2.2566
-1.9315 -31.9949 2.2559
-1.2163 -32.0228 2.2553
-0.5008 -32.0345 2.2548
0.2147 -32.0299 2.2542
0.9296 -32.0089 2.2537
1.6437 -31.9718 2.2531
2.3565 -31.9184 2.2527
3.0678 -31.8488 2.2522
3.7771 -31.7632 2.2518
4.4841 -31.6614 2.2514
5.1884 -31.5435 2.2510
5.9079 -31.5075 2.2576
6.6283 -31.4554 2.2644
7.3449 -31.3672 2.2697
8.0601 -31.2596 2.2749
8.7716 -31.1268 2.2795
9.4829 -30.9833 2.2845
10.1921 -30.8234 2.2896
10.8831 -30.6031 2.2914
11.5637 -30.3521 2.2921
12.2236 -30.0496 2.2901
12.8694 -29.7179 2.2870
13.4843 -29.3243 2.2802
14.1073 -28.9573 2.2765
14.7434 -28.6214 2.2763
15.3705 -28.2697 2.2761
15.9890 -27.9038 2.2758
16.5985 -27.5240 2.2756
17.1987 -27.1303 2.2754
17.7909 -26.7252 2.2753
7.0898 -10.1513 0.8780
18.9462 -25.8767 2.2753
19.5084 -25.4331 2.2753
20.0600 -24.9769 2.2753
20.6006 -24.5082 2.2753
21.1300 -24.0276 2.2753
21.6479 -23.5352 2.2753
22.1540 -23.0313 2.2753
20.5470 -20.4273 2.0642
21.5891 -20.5253 2.1237
22.0410 -20.0371 2.1251
22.4819 -19.5389 2.1264
22.9114 -19.0310 2.1278
23.3295 -18.5136 2.1292
23.7358 -17.9871 2.1306
15.3197 -11.0796 1.3536
24.5125 -16.9074 2.1336
24.8825 -16.3548 2.1351
25.2400 -15.7941 2.1366
25.5849 -15.2255 2.1381
25.9053 -14.6429 2.1387
26.2009 -14.0475 2.1384
26.4826 -13.4459 2.1381
26.7502 -12.8386 2.1378
27.0038 -12.2260 2.1374
27.2431 -11.6084 2.1371
27.4682 -10.9862 2.1368
27.6788 -10.3596 2.1364
27.8749 -9.7290 2.1361
28.0235 -9.0840 2.1332
16.3090 -4.8870 1.2339
16.3185 -4.4952 1.2278
16.3280 -4.1078 1.2224
16.3373 -3.7243 1.2176
16.3465 -3.3442 1.2135
16.3557 -2.9671 1.2101
16.3648 -2.5927 1.2072
16.3739 -2.2205 1.2050
16.3829 -1.8501 1.2034
16.3918 -1.4812 1.2024
17.0603 -1.1582 1.2504
23.2428 -1.0571 1.7029
23.8425 -0.5511 1.7470
23.8554 -0.0185 1.7491
23.8684 0.5147 1.7520
28.9747 1.2728 2.1303
28.9086 1.9176 2.1300
28.8283 2.5601 2.1296
17.1349 1.9082 1.2698
28.6254 3.8370 2.1290
28.5029 4.4708 2.1286
28.3666 5.1010 2.1283
28.2166 5.7274 2.1280
28.0529 6.3497 2.1277
27.8758 6.9676 2.1273
27.6853 7.5809 2.1270
27.4815 8.1891 2.1267
27.2646 8.7921 2.1264
27.0347 9.3897 2.1261
26.7921 9.9813 2.1258
26.5368 10.5670 2.1255
26.2689 11.1464 2.1252
25.9887 11.7193 2.1249
25.6962 12.2853 2.1246
25.3919 12.8443 2.1243
25.0757 13.3960 2.1240
24.7477 13.9401 2.1237
24.4084 14.4765 2.1234
24.0577 15.0049 2.1232
23.6960 15.5250 2.1229
22.4323 15.4240 2.0415
21.3141 15.3674 1.9719
20.4633 15.4602 1.9261
19.5522 15.4699 1.8737
18.6902 15.4791 1.8250
17.8725 15.4878 1.7797
17.0950 15.4961 1.7374
16.3542 15.5039 1.6980
15.5631 15.4286 1.6523
14.9710 15.5198 1.6268
14.3221 15.5267 1.5946
13.6988 15.5333 1.5644
13.0991 15.5397 1.5360
12.5211 15.5458 1.5094
11.9631 15.5518 1.4845
11.4235 15.5575 1.4611
10.9010 15.5631 1.4391
10.3387 15.4853 1.4109
16.1036 25.3275 2.2753
15.5267 25.6691 2.2753
14.9428 25.9981 2.2753
14.3522 26.3143 2.2753
13.7552 26.6175 2.2753
13.1521 26.9077 2.2753
12.5430 27.1847 2.2753
11.9284 27.4483 2.2753
11.3084 27.6987 2.2753
10.6834 27.9354 2.2753
10.0539 28.1587 2.2753
9.4196 28.3682 2.2753
8.7812 28.5640 2.2753
8.1390 28.7461 2.2753
7.4931 28.9142 2.2753
6.8438 29.0683 2.2753
6.1916 29.2084 2.2753
5.5366 29.3345 2.2753
4.8792 29.4464 2.2753
4.2196 29.5441 2.2753
3.5581 29.6277 2.2753
2.8951 29.6970 2.2753
2.2308 29.7521 2.2753
1.5655 29.7928 2.2753
0.8996 29.8193 2.2753
0.2332 29.8315 2.2753
-0.4333 29.8294 2.2753
-1.0996 29.8129 2.2753
-1.7654 29.7821 2.2753
-2.4303 29.7371 2.2753
-3.0942 29.6777 2.2753
-3.7569 29.6042 2.2753
-4.4178 29.5163 2.2753
-5.0767 29.4142 2.2753
-5.7335 29.2982 2.2753
-6.3877 29.1679 2.2753
-7.0390 29.0235 2.2753
-7.6873 28.8652 2.2753
-8.3321 28.6929 2.2753
-8.9733 28.5068 2.2753
-9.6104 28.3067 2.2753
-10.2433 28.0931 2.2753
-10.8717 27.8658 2.2753
-11.4951 27.6249 2.2753
-12.1135 27.3706 2.2753
-12.7265 27.1029 2.2753
-13.3338 26.8219 2.2753
-13.9352 26.5278 2.2753
-14.5303 26.2207 2.2753
-15.1188 25.9007 2.2753
-15.7006 25.5679 2.2753
-16.2754 25.2225 2.2753
-16.8428 24.8645 2.2753
-17.4027 24.4943 2.2753
-17.9547 24.1117 2.2753
-18.4985 23.7171 2.2753
-18.6995 22.9009 2.2353
-18.7104 21.8970 2.1764
-18.7341 20.9580 2.1229
-19.2088 20.5464 2.1229
-19.6749 20.1244 2.1229
-20.1319 19.6920 2.1229
-20.5798 19.2495 2.1229
-21.0182 18.7971 2.1229
-21.4470 18.3350 2.1229
-21.8659 17.8633 2.1229
-22.2747 17.3824 2.1229
-22.6731 16.8922 2.1229
-23.0611 16.3933 2.1229
-23.4385 15.8855 2.1229
-23.8048 15.3692 2.1229
-24.1602 14.8447 2.1229
-24.5043 14.3121 2.1229
-24.8368 13.7717 2.1229
-25.1577 13.2238 2.1229
-25.4668 12.6685 2.1229
-25.7639 12.1061 2.1229
-26.0488 11.5368 2.1229
-26.3214 10.9610 2.1229
-26.5814 10.3789 2.1229
-26.8288 9.7907 2.1229
-27.0634 9.1967 2.1229
-27.2851 8.5971 2.1229
-27.4936 7.9924 2.1229
-27.5455 7.3444 2.1119
-27.5573 6.6920 2.0990
-27.5689 6.0461 2.0873
-27.5538 5.4008 2.0747
-27.5917 4.7709 2.0672
-27.6031 4.1402 2.0588
-27.6143 3.5132 2.0514
-27.6256 2.8893 2.0451
-27.6367 2.2677 2.0399
-27.6479 1.6479 2.0357
-27.6590 1.0293 2.0325
-27.6701 0.4112 2.0303
-27.6545 -0.2067 2.0272
-27.6924 -0.8258 2.0289
-27.7035 -1.4460 2.0298
-27.7147 -2.0681 2.0317
-21.2555 -2.0644 1.5598
-27.7372 -3.3208 2.0385
-27.7486 -3.9526 2.0435
-27.7600 -4.5890 2.0495
-27.7448 -5.2256 2.0547
-27.7832 -5.8782 2.0649
-27.7949 -6.5325 2.0743
-27.8068 -7.1941 2.0848
-27.8189 -7.8641 2.0965
-27.8311 -8.5432 2.1094
-27.8336 -9.2290 2.1229
-27.6443 -9.8568 2.1229
-27.4407 -10.4806 2.1229
-27.2229 -11.1003 2.1229
-26.9909 -11.7153 2.1229
-26.7448 -12.3254 2.1229
-26.4847 -12.9303 2.1229
-26.2107 -13.5296 2.1229
-25.9230 -14.1229 2.1229
-25.6215 -14.7101 2.1229
-25.3067 -15.2907 2.1229
-24.9783 -15.8644 2.1229
-24.6367 -16.4309 2.1229
-24.2821 -16.9898 2.1229
-23.9144 -17.5409 2.1229
-23.5341 -18.0839 2.1229
-23.1412 -18.6183 2.1229
-22.7358 -19.1441 2.1229
-22.3182 -19.6607 2.1229
-21.8885 -20.1680 2.1229
-21.4471 -20.6657 2.1229
-20.9941 -21.1534 2.1229
-20.5297 -21.6308 2.1229
-20.0541 -22.0978 2.1229
-19.5677 -22.5540 2.1229
-19.0705 -22.9990 2.1229
-18.7170 -23.6273 2.1405
-18.7059 -24.7283 2.2006
-18.6939 -25.8945 2.2654
-18.1997 -26.4343 2.2753
-17.6140 -26.8480 2.2753
-17.0182 -27.2477 2.2752
-16.4057 -27.6214 2.2742
-15.7849 -27.9810 2.2731
-15.1560 -28.3263 2.2721
-14.5196 -28.6571 2.2711
-13.8757 -28.9734 2.2701
-13.2247 -29.2749 2.2691
-12.5670 -29.5613 2.2681
-11.9031 -29.8328 2.2672
-11.2331 -30.0889 2.2663
-10.5575 -30.3297 2.2654
-9.8767 -30.5549 2.2645
-9.1910 -30.7646 2.2636
-8.5007 -30.9586 2.2628
-7.8063 -31.1367 2.2619
-7.1081 -31.2989 2.2611
-6.4064 -31.4451 2.2603
-5.7017 -31.5753 2.2596
-4.9944 -31.6893 2.2589
-4.2847 -31.7872 2.2581
-3.5732 -31.8688 2.2574
-2.8601 -31.9342 2.2568
-2.1458 -31.9833 2.2561
-1.4308 -32.0162 2.2555
-0.7155 -32.0327 2.2549
-0.0000 -24.3552 2.2662
0.5437 -24.3445 2.2658
1.0869 -24.3215 2.2654
1.6294 -24.2862 2.2650
2.1707 -24.2386 2.2647
2.7108 -24.1788 2.2643
3.2493 -24.1067 2.2640
3.7859 -24.0226 2.2637
4.3203 -23.9263 2.2634
4.8522 -23.8180 2.2632
5.3815 -23.6977 2.2629
5.9175 -23.6043 2.2665
6.4495 -23.4897 2.2691
6.9804 -23.3670 2.2722
7.5041 -23.2165 2.2738
8.0236 -23.0518 2.2751
8.5350 -22.8636 2.2754
9.0489 -22.6810 2.2773
9.5531 -22.4732 2.2779
10.0541 -22.2580 2.2789
10.5426 -22.0155 2.2783
11.0279 -21.7674 2.2783
11.5043 -21.5027 2.2777
11.9735 -21.2263 2.2769
11.5986 -19.5293 2.1229
12.0337 -19.2685 2.1240
12.4639 -18.9995 2.1253
7.0494 -10.2398 1.1632
7.3128 -10.1303 1.1695
13.7141 -18.1309 2.1289
14.1161 -17.8207 2.1299
14.5109 -17.5015 2.1309
14.8982 -17.1734 2.1319
15.2781 -16.8366 2.1329
15.6502 -16.4911 2.1339
16.0145 -16.1375 2.1349
16.3705 -15.7755 2.1360
16.7182 -15.4057 2.1370
17.0575 -15.0280 2.1381
17.3864 -14.6413 2.1389
17.6994 -14.2416 2.1389
18.0031 -13.8353 2.1389
15.1922 -11.1444 1.7759
18.5761 -12.9989 2.1382
18.8477 -12.5714 2.1379
19.1092 -12.1382 2.1375
19.3619 -11.7002 2.1373
19.6043 -11.2569 2.1370
19.8365 -10.8085 2.1368
20.0582 -10.3552 2.1365
20.2695 -9.8974 2.1363
20.4702 -9.4352 2.1361
20.6602 -8.9690 2.1358
20.8395 -8.4989 2.1356
21.0080 -8.0252 2.1353
21.1656 -7.5483 2.1350
21.3124 -7.0682 2.1348
16.4099 -5.0385 1.6331
16.3157 -4.6134 1.6142
16.3251 -4.2248 1.6064
16.3345 -3.8401 1.5996
16.3437 -3.4590 1.5936
16.3529 -3.0811 1.5885
16.3621 -2.7059 1.5842
16.3711 -2.3331 1.5807
16.3801 -1.9622 1.5780
16.3891 -1.5929 1.5761
16.6366 -1.2426 1.5980
17.0832 -0.8928 1.6397
22.2111 -0.6638 2.1314
22.2024 -0.1674 2.1311
22.1826 0.3282 2.1308
22.1517 0.8229 2.1306
22.1099 1.3164 2.1303
22.0572 1.8084 2.1301
21.9936 2.2988 2.1298
21.9192 2.7872 2.1295
21.8340 3.2735 2.1293
21.7381 3.7573 2.1290
21.6317 4.2385 2.1288
21.5147 4.7169 2.1285
21.3873 5.1922 2.1283
21.2494 5.6643 2.1280
21.1013 6.1327 2.1278
20.9430 6.5975 2.1276
20.7746 7.0582 2.1273
20.5963 7.5148 2.1271
20.4080 7.9671 2.1269
20.2100 8.4147 2.1266
20.0023 8.8575 2.1264
19.7851 9.2953 2.1262
19.5586 9.7280 2.1259
19.3226 10.1553 2.1257
19.0776 10.5769 2.1255
18.8236 10.9929 2.1253
18.5607 11.4028 2.1251
18.2891 11.8066 2.1249
18.0089 12.2042 2.1247
17.7202 12.5952 2.1245
17.4233 12.9796 2.1243
17.1182 13.3571 2.1241
16.8052 13.7277 2.1239
16.4844 14.0911 2.1237
16.1558 14.4473 2.1235
15.8199 14.7959 2.1233
15.4766 15.1370 2.1231
15.1261 15.4703 2.1230
14.7694 15.7965 2.1229
13.8847 15.5316 2.0460
13.2780 15.5381 2.0082
12.6936 15.5443 1.9727
12.1297 15.5503 1.9394
11.5847 15.5561 1.9081
11.0572 15.5617 1.8788
10.4894 15.4839 1.8413
10.3135 15.9819 1.8734
12.0851 19.6787 2.2753
11.6385 19.9369 2.2753
11.1864 20.1853 2.2753
7.6547 14.5709 1.6233
10.2672 20.6519 2.2753
9.8004 20.8701 2.2753
9.3291 21.0779 2.2753
8.8536 21.2755 2.2753
8.3740 21.4625 2.2753
7.8906 21.6392 2.2753
7.4035 21.8052 2.2753
6.9131 21.9606 2.2753
6.4195 22.1053 2.2753
5.9230 22.2392 2.2753
5.4238 22.3623 2.2753
4.9221 22.4745 2.2753
4.4182 22.5758 2.2753
3.9123 22.6661 2.2753
3.4045 22.7454 2.2753
2.8953 22.8138 2.2753
2.3847 22.8710 2.2753
1.8731 22.9171 2.2753
1.3605 22.9522 2.2753
0.8474 22.9761 2.2753
0.3339 22.9889 2.2753
-0.1798 22.9906 2.2753
-0.6934 22.9811 2.2753
-1.2067 22.9605 2.2753
-1.7194 22.9288 2.2753
-2.2314 22.8860 2.2753
-2.7423 22.8321 2.2753
-3.2520 22.7671 2.2753
-3.7602 22.6911 2.2753
-4.2667 22.6040 2.2753
-4.7712 22.5060 2.2753
-5.2736 22.3971 2.2753
-5.7736 22.2773 2.2753
-6.2709 22.1466 2.2753
-6.7654 22.0052 2.2753
-7.2568 21.8530 2.2753
-7.7448 21.6901 2.2753
-8.2294 21.5167 2.2753
-8.7101 21.3327 2.2753
-9.1870 21.1383 2.2753
-9.6595 20.9335 2.2753
-10.1277 20.7184 2.2753
-10.5912 20.4932 2.2753
-11.0499 20.2578 2.2753
-11.5034 20.0124 2.2753
-11.9517 19.7572 2.2753
-12.3945 19.4922 2.2753
-12.8315 19.2175 2.2753
-13.2626 18.9332 2.2753
-13.6877 18.6395 2.2753
-14.1064 18.3365 2.2753
-14.5185 18.0243 2.2753
-14.9239 17.7030 2.2753
-15.3224 17.3728 2.2753
-15.7137 17.0339 2.2753
-16.0977 16.6863 2.2753
-16.4743 16.3303 2.2753
-16.8432 15.9659 2.2753
-17.2041 15.5933 2.2753
-17.5570 15.2128 2.2753
-17.9017 14.8245 2.2753
-18.2379 14.4285 2.2753
-18.5656 14.0250 2.2753
-18.6963 13.4784 2.2526
-18.7029 12.8582 2.2170
-18.7090 12.2562 2.1835
-18.7149 11.6710 2.1520
-18.7319 11.1083 2.1237
-18.9797 10.6895 2.1229
-19.2252 10.2690 2.1229
-19.4615 9.8429 2.1229
-19.6885 9.4115 2.1229
-19.9061 8.9749 2.1229
-20.1141 8.5334 2.1229
-20.3125 8.0870 2.1229
-20.5011 7.6362 2.1229
-20.6797 7.1809 2.1229
-20.8485 6.7216 2.1229
-21.0071 6.2583 2.1229
-21.1555 5.7913 2.1229
-21.2936 5.3209 2.1229
-21.4214 4.8472 2.1229
-21.5387 4.3704 2.1229
-21.6455 3.8909 2.1229
-21.7417 3.4087 2.1229
-21.8272 2.9242 2.1229
-21.9020 2.4377 2.1229
-21.9660 1.9492 2.1229
-22.0191 1.4591 2.1229
-22.0613 0.9676 2.1229
-22.0926 0.4750 2.1229
-22.1129 -0.0186 2.1229
-22.1222 -0.5128 2.1229
-22.1204 -1.0074 2.1229
-22.1076 -1.5023 2.1229
-21.1820 -1.9155 2.0362
-22.0488 -2.4914 2.1229
-22.0027 -2.9853 2.1229
-21.9456 -3.4783 2.1229
-21.8773 -3.9703 2.1229
-21.7980 -4.4609 2.1229
-21.7076 -4.9499 2.1229
-21.6062 -5.4372 2.1229
-21.4938 -5.9223 2.1229
-21.3704 -6.4051 2.1229
-21.2361 -6.8853 2.1229
-21.0910 -7.3627 2.1229
-20.9350 -7.8370 2.1229
-20.7682 -8.3079 2.1229
-20.5907 -8.7753 2.1229
-20.4026 -9.2388 2.1229
-20.2040 -9.6983 2.1229
-19.9949 -10.1534 2.1229
-19.7753 -10.6039 2.1229
-19.5455 -11.0497 2.1229
-19.3056 -11.4903 2.1229
-19.0556 -11.9257 2.1229
-18.7956 -12.3555 2.1229
-18.7162 -12.9110 2.1447
-18.7103 -13.5333 2.1769
-18.7040 -14.1755 2.2112
-18.6972 -14.8392 2.2478
-18.5961 -15.4482 2.2753
-18.2562 -15.8681 2.2753
-17.9068 -16.2803 2.2753
-17.5478 -16.6847 2.2753
-17.1795 -17.0810 2.2753
-16.8020 -17.4690 2.2753
-16.4157 -17.8484 2.2753
-16.0206 -18.2191 2.2753
-15.6169 -18.5808 2.2753
-15.2049 -18.9334 2.2753
-14.7848 -19.2766 2.2753
-14.3569 -19.6102 2.2753
-13.9210 -19.9340 2.2753
-13.4778 -20.2480 2.2753
-13.0273 -20.5518 2.2753
-12.5698 -20.8453 2.2753
-12.1056 -21.1284 2.2753
-11.6348 -21.4007 2.2753
-11.1578 -21.6624 2.2753
-10.6747 -21.9131 2.2753
-10.1858 -22.1526 2.2753
-9.6914 -22.3810 2.2753
-9.1918 -22.5980 2.2753
-8.6872 -22.8035 2.2753
-8.1760 -22.9924 2.2748
-7.6601 -23.1676 2.2741
-7.1403 -23.3311 2.2735
-6.6170 -23.4826 2.2728
-6.0905 -23.6223 2.2722
-5.5609 -23.7500 2.2716
-5.0287 -23.8656 2.2710
-4.4940 -23.9691 2.2704
-3.9572 -24.0604 2.2698
-3.4185 -24.1395 2.2693
