ply
format ascii 1.0
element vertex 2175
property float32 x
property float32 y
property float32 z
end_header
3.8826 2.8571 1.9439
3.8099 2.9367 1.9390
3.7352 3.0142 1.9338
3.6601 3.0907 1.9293
3.5827 3.1648 1.9244
3.5042 3.2373 1.9197
3.4244 3.3080 1.9151
3.3479 3.3814 1.9132
3.2724 3.4560 1.9129
3.1953 3.5287 1.9126
3.1166 3.5998 1.9123
3.0362 3.6691 1.9120
2.9544 3.7366 1.9117
2.8710 3.8022 1.9114
2.7861 3.8659 1.9112
2.6999 3.9277 1.9109
2.6122 3.9876 1.9106
2.5232 4.0455 1.9104
2.4329 4.1014 1.9102
2.3414 4.1552 1.9100
2.2486 4.2070 1.9098
2.1547 4.2567 1.9096
0.8347 1.7443 0.7738
0.7956 1.7623 0.7735
0.7561 1.7793 0.7732
0.7162 1.7955 0.7730
0.6759 1.8107 0.7727
0.6354 1.8251 0.7725
0.5945 1.8386 0.7723
0.5534 1.8512 0.7721
0.5120 1.8629 0.7719
0.4704 1.8737 0.7717
0.4285 1.8836 0.7716
0.3865 1.8925 0.7714
0.3443 1.9006 0.7713
0.3018 1.9076 0.7712
0.2593 1.9138 0.7711
0.2166 1.9190 0.7710
0.1739 1.9233 0.7709
0.1310 1.9267 0.7709
0.0881 1.9290 0.7708
0.0451 1.9305 0.7708
0.0022 1.9310 0.7708
-0.0408 1.9306 0.7708
-0.0838 1.9293 0.7709
-0.1267 1.9269 0.7709
-0.1695 1.9237 0.7709
-0.2123 1.9195 0.7710
-0.2550 1.9144 0.7711
-0.2976 1.9083 0.7712
-0.3400 1.9014 0.7713
-0.3823 1.8934 0.7715
-0.4243 1.8846 0.7716
-0.4662 1.8748 0.7718
-0.5079 1.8641 0.7719
-0.5493 1.8526 0.7721
-0.5905 1.8400 0.7723
-0.6313 1.8267 0.7726
-0.6719 1.8124 0.7728
-0.7122 1.7972 0.7730
-0.7521 1.7811 0.7733
-0.7917 1.7641 0.7736
-2.0514 4.3117 1.9107
-2.1468 4.2645 1.9110
-2.2408 4.2151 1.9112
-2.3338 4.1636 1.9115
-2.4256 4.1101 1.9118
-2.5162 4.0545 1.9121
-2.6054 3.9969 1.9124
-2.6934 3.9372 1.9127
-2.7800 3.8757 1.9130
-2.8651 3.8122 1.9133
-2.9488 3.7468 1.9137
-3.0310 3.6795 1.9140
-3.1117 3.6104 1.9144
-3.1914 3.5403 1.9151
-3.2772 3.4765 1.9203
-3.3607 3.4096 1.9250
-3.4447 3.3425 1.9308
-3.5262 3.2723 1.9359
-3.6075 3.2011 1.9417
-3.6868 3.1274 1.9472
-3.7656 3.0527 1.9533
-3.8418 2.9750 1.9588
-3.9177 2.8964 1.9649
-3.9900 2.8146 1.9701
-4.0584 2.7294 1.9743
-4.1187 2.6386 1.9754
-4.1770 2.5464 1.9766
-4.2332 2.4529 1.9778
-4.2873 2.3582 1.9789
-4.3393 2.2622 1.9801
-4.3891 2.1652 1.9813
-4.4368 2.0670 1.9825
-4.4822 1.9677 1.9838
-4.5255 1.8675 1.9850
-4.5665 1.7663 1.9862
-4.6052 1.6641 1.9875
-4.6417 1.5611 1.9887
-4.6758 1.4574 1.9900
-4.7076 1.3528 1.9912
-4.7371 1.2475 1.9925
-4.7642 1.1416 1.9937
-4.7889 1.0351 1.9950
-4.8113 0.9280 1.9963
-4.8312 0.8205 1.9975
-4.8487 0.7125 1.9988
-4.8639 0.6042 2.0001
-4.8765 0.4955 2.0013
-4.8868 0.3865 2.0026
-4.8946 0.2773 2.0039
-4.8999 0.1680 2.0051
-4.9028 0.0585 2.0064
-4.9033 -0.0510 2.0077
-4.9012 -0.1606 2.0089
-4.8968 -0.2700 2.0102
-4.8898 -0.3793 2.0114
-4.8804 -0.4885 2.0126
-4.8712 -0.5978 2.0149
-4.8560 -0.7064 2.0158
-4.8304 -0.8133 2.0133
-4.8015 -0.9192 2.0104
-4.7683 -1.0238 2.0067
-4.7264 -1.1259 2.0002
-4.6786 -1.2257 1.9921
-4.6270 -1.3234 1.9833
-4.5702 -1.4184 1.9731
-4.5102 -1.5111 1.9623
-4.4468 -1.6013 1.9508
-4.3869 -1.6915 1.9417
-4.3323 -1.7827 1.9357
-4.2760 -1.8725 1.9297
-4.2182 -1.9607 1.9239
-4.1588 -2.0475 1.9182
-4.0979 -2.1327 1.9126
-4.0355 -2.2163 1.9071
-3.9717 -2.2984 1.9016
-3.9065 -2.3789 1.8963
-3.8400 -2.4578 1.8911
-3.7721 -2.5352 1.8860
-3.7029 -2.6108 1.8810
-3.6325 -2.6849 1.8762
-3.5609 -2.7573 1.8714
-3.4881 -2.8280 1.8667
-3.4141 -2.8971 1.8622
-3.3390 -2.9645 1.8578
-3.2629 -3.0302 1.8534
-3.1857 -3.0942 1.8492
-3.1075 -3.1566 1.8451
-3.0284 -3.2172 1.8411
-2.9483 -3.2760 1.8373
-2.8672 -3.3332 1.8335
-2.7854 -3.3887 1.8299
-2.7026 -3.4424 1.8263
-2.6191 -3.4944 1.8229
-2.5317 -3.5403 1.8174
-2.4434 -3.5839 1.8118
-2.3548 -3.6258 1.8064
-2.2658 -3.6661 1.8013
-2.1765 -3.7047 1.7963
-2.0870 -3.7418 1.7917
-1.9971 -3.7772 1.7872
-1.9067 -3.8105 1.7827
-1.8158 -3.8416 1.7782
-0.8088 -1.8154 0.8319
-0.7680 -1.8333 0.8322
-0.7268 -1.8503 0.8324
-0.6853 -1.8663 0.8327
-0.6434 -1.8814 0.8329
-0.6011 -1.8955 0.8332
-0.5585 -1.9087 0.8334
-0.5156 -1.9209 0.8336
-0.4725 -1.9322 0.8338
-0.4291 -1.9424 0.8339
-0.3855 -1.9517 0.8341
-0.3417 -1.9599 0.8342
-0.2977 -1.9672 0.8343
-0.2535 -1.9735 0.8344
-0.2092 -1.9787 0.8345
-0.1648 -1.9830 0.8346
-0.1203 -1.9862 0.8346
-0.0758 -1.9885 0.8347
-0.0312 -1.9897 0.8347
0.0134 -1.9899 0.8347
0.0580 -1.9891 0.8347
0.1026 -1.9872 0.8346
0.1471 -1.9844 0.8346
0.1915 -1.9805 0.8345
0.2359 -1.9757 0.8344
0.2801 -1.9698 0.8343
0.3241 -1.9629 0.8342
0.3680 -1.9550 0.8341
0.4117 -1.9462 0.8339
0.4552 -1.9363 0.8338
0.4984 -1.9254 0.8336
0.5414 -1.9136 0.8334
0.5841 -1.9008 0.8332
0.6265 -1.8870 0.8330
0.6686 -1.8723 0.8327
0.7103 -1.8567 0.8325
0.7516 -1.8400 0.8322
0.7925 -1.8225 0.8319
1.7974 -3.8923 1.7942
1.8896 -3.8622 1.7990
1.9802 -3.8277 1.8027
2.0690 -3.7888 1.8053
2.1572 -3.7482 1.8080
2.2448 -3.7057 1.8109
2.3317 -3.6616 1.8138
2.4180 -3.6156 1.8169
2.5035 -3.5679 1.8201
2.5883 -3.5185 1.8234
2.6724 -3.4672 1.8268
2.7577 -3.4168 1.8318
2.8473 -3.3705 1.8400
2.9366 -3.3223 1.8485
3.0256 -3.2723 1.8572
3.1143 -3.2205 1.8662
3.2026 -3.1668 1.8755
3.2891 -3.1098 1.8841
3.3737 -3.0497 1.8922
3.4577 -2.9877 1.9005
3.5410 -2.9238 1.9091
3.6236 -2.8580 1.9178
3.7048 -2.7898 1.9264
3.7822 -2.7176 1.9336
3.8585 -2.6436 1.9411
3.9337 -2.5677 1.9486
4.0079 -2.4900 1.9563
4.0799 -2.4099 1.9637
4.1471 -2.3261 1.9696
4.2128 -2.2405 1.9756
4.2770 -2.1534 1.9816
4.3397 -2.0646 1.9878
4.3968 -1.9724 1.9922
4.4481 -1.8771 1.9949
4.4974 -1.7804 1.9977
4.5447 -1.6826 2.0004
4.5900 -1.5836 2.0032
4.6332 -1.4835 2.0061
4.6744 -1.3822 2.0089
4.7133 -1.2798 2.0118
4.7502 -1.1765 2.0147
4.7797 -1.0710 2.0155
4.8037 -0.9642 2.0149
4.8252 -0.8568 2.0144
4.8444 -0.7489 2.0138
4.8610 -0.6407 2.0131
4.8749 -0.5320 2.0124
4.8865 -0.4230 2.0116
4.8955 -0.3138 2.0108
4.9022 -0.2044 2.0101
4.9063 -0.0949 2.0093
4.9080 0.0147 2.0085
4.9073 0.1243 2.0077
4.9041 0.2339 2.0069
4.8984 0.3434 2.0061
4.8902 0.4528 2.0053
4.8796 0.5619 2.0045
4.8666 0.6708 2.0037
4.8513 0.7794 2.0030
4.8336 0.8877 2.0023
4.8134 0.9955 2.0016
4.7896 1.1026 2.0003
4.7630 1.2089 1.9989
4.7316 1.3141 1.9964
4.6970 1.4181 1.9936
4.6569 1.5201 1.9895
4.6134 1.6206 1.9848
4.5642 1.7187 1.9786
4.5110 1.8145 1.9715
4.4649 1.9127 1.9686
4.4210 2.0118 1.9675
4.3749 2.1098 1.9665
4.3267 2.2068 1.9654
4.2764 2.3027 1.9644
4.2239 2.3974 1.9634
4.1693 2.4909 1.9625
4.1098 2.5814 1.9601
4.0432 2.6671 1.9553
3.9742 2.7507 1.9502
3.9043 2.8330 1.9455
3.8317 2.9129 1.9404
3.7581 2.9914 1.9355
3.6828 3.0680 1.9306
3.6066 3.1432 1.9261
3.5278 3.2156 1.9210
3.4486 3.2871 1.9166
3.3702 3.3588 1.9133
3.2952 3.4338 1.9130
3.2186 3.5071 1.9127
3.1404 3.5787 1.9124
3.0605 3.6485 1.9121
2.9791 3.7165 1.9118
2.8962 3.7827 1.9115
2.8117 3.8470 1.9112
2.7259 3.9094 1.9110
2.6386 3.9698 1.9107
2.5500 4.0284 1.9105
2.4601 4.0848 1.9102
2.3689 4.1393 1.9100
2.2765 4.1917 1.9098
2.1830 4.2420 1.9096
0.8464 1.7388 0.7739
0.8074 1.7570 0.7736
0.7680 1.7743 0.7733
0.7282 1.7907 0.7731
0.6880 1.8063 0.7728
0.6476 1.8209 0.7726
0.6068 1.8347 0.7723
0.5658 1.8476 0.7721
0.5245 1.8595 0.7719
0.4829 1.8706 0.7718
0.4411 1.8807 0.7716
0.3991 1.8899 0.7715
0.3569 1.8982 0.7713
0.3146 1.9056 0.7712
0.2721 1.9120 0.7711
0.2295 1.9175 0.7710
0.1867 1.9221 0.7709
0.1439 1.9258 0.7709
0.1010 1.9284 0.7709
0.0580 1.9302 0.7708
0.0151 1.9310 0.7708
-0.0279 1.9308 0.7708
-0.0709 1.9298 0.7708
-0.1138 1.9277 0.7709
-0.1567 1.9248 0.7709
-0.1995 1.9209 0.7710
-0.2422 1.9160 0.7711
-0.2848 1.9103 0.7712
-0.3273 1.9036 0.7713
-0.3696 1.8959 0.7714
-0.4117 1.8873 0.7716
-0.4537 1.8779 0.7717
-0.4954 1.8675 0.7719
-0.5369 1.8561 0.7721
-0.5781 1.8439 0.7723
-0.6191 1.8308 0.7725
-0.6598 1.8167 0.7727
-0.7001 1.8018 0.7730
-0.7402 1.7860 0.7732
-0.7798 1.7693 0.7735
-0.8192 1.7518 0.7738
-2.1182 4.2789 1.9109
-2.2127 4.2301 1.9112
-2.3060 4.1793 1.9114
-2.3982 4.1264 1.9117
-2.4891 4.0714 1.9120
-2.5788 4.0144 1.9123
-2.6672 3.9553 1.9126
-2.7542 3.8943 1.9129
-2.8397 3.8314 1.9132
-2.9239 3.7666 1.9136
-3.0065 3.6999 1.9139
-3.0876 3.6314 1.9143
-3.1672 3.5610 1.9146
-3.2515 3.4959 1.9188
-3.3358 3.4299 1.9237
-3.4195 3.3628 1.9290
-3.5022 3.2939 1.9346
-3.5830 3.2225 1.9398
-3.6637 3.1502 1.9458
-3.7420 3.0752 1.9514
-3.8193 2.9986 1.9572
-3.8952 2.9203 1.9631
-3.9681 2.8391 1.9684
-4.0399 2.7564 1.9739
-4.1008 2.6660 1.9751
-4.1597 2.5742 1.9762
-4.2165 2.4811 1.9774
-4.2713 2.3868 1.9786
-4.3239 2.2912 1.9798
-4.3744 2.1944 1.9810
-4.4227 2.0966 1.9822
-4.4688 1.9976 1.9834
-4.5128 1.8977 1.9846
-4.5544 1.7967 1.9858
-4.5938 1.6948 1.9871
-4.6310 1.5921 1.9883
-4.6658 1.4886 1.9896
-4.6983 1.3842 1.9908
-4.7285 1.2792 1.9921
-4.7563 1.1735 1.9934
-4.7818 1.0671 1.9946
-4.8048 0.9603 1.9959
-4.8255 0.8528 1.9972
-4.8437 0.7450 1.9984
-4.8596 0.6367 1.9997
-4.8730 0.5281 2.0010
-4.8840 0.4192 2.0022
-4.8925 0.3101 2.0035
-4.8986 0.2008 2.0048
-4.9022 0.0914 2.0060
-4.9034 -0.0182 2.0073
-4.9021 -0.1277 2.0085
-4.8984 -0.2372 2.0098
-4.8922 -0.3465 2.0110
-4.8835 -0.4558 2.0123
-4.8724 -0.5648 2.0135
-4.8609 -0.6739 2.0156
-4.8386 -0.7814 2.0142
-4.8104 -0.8875 2.0112
-4.7799 -0.9928 2.0084
-4.7392 -1.0954 2.0021
-4.6935 -1.1960 1.9947
-4.6433 -1.2944 1.9862
-4.5874 -1.3900 1.9761
-4.5290 -1.4837 1.9658
-4.4659 -1.5744 1.9543
-4.4030 -1.6639 1.9435
-4.3488 -1.7555 1.9375
-4.2931 -1.8457 1.9315
-4.2357 -1.9344 1.9257
-4.1768 -2.0216 1.9199
-4.1163 -2.1073 1.9142
-4.0544 -2.1914 1.9087
-3.9910 -2.2740 1.9032
-3.9262 -2.3549 1.8979
-3.8601 -2.4343 1.8927
-3.7926 -2.5121 1.8875
-3.7238 -2.5883 1.8825
-3.6537 -2.6628 1.8776
-3.5825 -2.7357 1.8728
-3.5100 -2.8070 1.8681
-3.4364 -2.8765 1.8635
-3.3617 -2.9444 1.8591
-3.2858 -3.0107 1.8547
-3.2090 -3.0752 1.8505
-3.1311 -3.1380 1.8463
-3.0522 -3.1992 1.8423
-2.9724 -3.2585 1.8384
-2.8916 -3.3163 1.8346
-2.8100 -3.3722 1.8309
-2.7275 -3.4265 1.8274
-2.6442 -3.4790 1.8239
-2.5581 -3.5269 1.8192
-2.4699 -3.5710 1.8135
-2.3814 -3.6134 1.8080
-2.2925 -3.6542 1.8028
-2.2033 -3.6933 1.7978
-2.1139 -3.7308 1.7930
-2.0241 -3.7668 1.7885
-1.9340 -3.8009 1.7841
-1.8431 -3.8324 1.7795
-0.8210 -1.8098 0.8318
-0.7803 -1.8280 0.8321
-0.7392 -1.8453 0.8324
-0.6978 -1.8616 0.8326
-0.6560 -1.8770 0.8329
-0.6138 -1.8914 0.8331
-0.5713 -1.9049 0.8333
-0.5285 -1.9174 0.8335
-0.4855 -1.9289 0.8337
-0.4421 -1.9394 0.8339
-0.3986 -1.9490 0.8340
-0.3548 -1.9576 0.8342
-0.3109 -1.9651 0.8343
-0.2668 -1.9717 0.8344
-0.2225 -1.9773 0.8345
-0.1782 -1.9818 0.8346
-0.1337 -1.9854 0.8346
-0.0892 -1.9879 0.8346
-0.0446 -1.9894 0.8347
0.0000 -1.8661 0.8327
0.0419 -1.8657 0.8326
0.0837 -1.8642 0.8326
0.1254 -1.8619 0.8326
0.1672 -1.8585 0.8325
0.2088 -1.8542 0.8324
0.2503 -1.8490 0.8324
0.2917 -1.8429 0.8323
0.3329 -1.8358 0.8321
0.3739 -1.8277 0.8320
0.4148 -1.8188 0.8319
0.4554 -1.8089 0.8317
0.4958 -1.7981 0.8315
0.5359 -1.7864 0.8313
0.5758 -1.7737 0.8311
0.6154 -1.7602 0.8309
0.6546 -1.7458 0.8306
0.6935 -1.7305 0.8304
0.7320 -1.7143 0.8301
0.7701 -1.6972 0.8299
0.8079 -1.6793 0.8296
1.8503 -3.6353 1.8154
1.9344 -3.5987 1.8178
2.0179 -3.5603 1.8204
2.1008 -3.5204 1.8231
2.1831 -3.4786 1.8259
2.2647 -3.4353 1.8288
2.3457 -3.3903 1.8318
2.4268 -3.3448 1.8356
2.5120 -3.3039 1.8430
2.5969 -3.2613 1.8506
2.6815 -3.2169 1.8585
2.7658 -3.1709 1.8666
2.8498 -3.1231 1.8749
2.9334 -3.0736 1.8835
3.0143 -3.0199 1.8908
3.0946 -2.9645 1.8983
3.1742 -2.9073 1.9060
3.2532 -2.8484 1.9139
3.3315 -2.7877 1.9220
3.4080 -2.7243 1.9296
3.4816 -2.6576 1.9364
3.5543 -2.5892 1.9432
3.6259 -2.5192 1.9502
3.6965 -2.4474 1.9574
3.7655 -2.3736 1.9644
3.8300 -2.2961 1.9699
3.8930 -2.2170 1.9754
3.9547 -2.1364 1.9810
4.0149 -2.0543 1.9867
4.0724 -1.9700 1.9919
4.1226 -1.8817 1.9944
4.1710 -1.7921 1.9970
4.2175 -1.7014 1.9995
4.2621 -1.6095 2.0021
4.3048 -1.5166 2.0048
4.3456 -1.4225 2.0074
4.3844 -1.3275 2.0101
4.4211 -1.2314 2.0128
4.4559 -1.1343 2.0155
4.4821 -1.0349 2.0154
4.5052 -0.9347 2.0149
4.5261 -0.8340 2.0143
4.5447 -0.7328 2.0138
4.5608 -0.6312 2.0131
4.5745 -0.5292 2.0124
4.5860 -0.4269 2.0116
4.5952 -0.3244 2.0109
4.6021 -0.2217 2.0102
4.6066 -0.1189 2.0095
4.6089 -0.0160 2.0088
4.6089 0.0870 2.0080
4.6065 0.1899 2.0073
4.6018 0.2927 2.0065
4.5948 0.3955 2.0057
4.5855 0.4980 2.0050
4.5740 0.6004 2.0043
4.5603 0.7024 2.0036
4.5444 0.8042 2.0029
4.5261 0.9056 2.0022
4.5051 1.0064 2.0013
4.4808 1.1065 2.0000
4.4536 1.2059 1.9983
4.4220 1.3039 1.9957
4.3872 1.4007 1.9926
4.3481 1.4959 1.9885
4.3048 1.5892 1.9834
4.2579 1.6807 1.9776
4.2066 1.7699 1.9707
4.1660 1.8633 1.9697
4.1234 1.9557 1.9687
4.0787 2.0471 1.9677
4.0320 2.1375 1.9668
3.9833 2.2268 1.9658
3.9327 2.3151 1.9649
3.8801 2.4021 1.9640
3.8255 2.4880 1.9631
3.7683 2.5721 1.9618
3.7031 2.6505 1.9573
3.6367 2.7275 1.9530
3.5680 2.8023 1.9483
3.4978 2.8755 1.9437
3.4266 2.9473 1.9394
3.3534 3.0169 1.9347
3.2796 3.0854 1.9306
3.2047 3.1524 1.9266
3.1273 3.2165 1.9220
3.0498 3.2798 1.9180
2.9705 3.3408 1.9138
2.8955 3.4064 1.9133
2.8195 3.4707 1.9130
2.7421 3.5333 1.9127
2.6632 3.5942 1.9125
2.5830 3.6532 1.9122
2.5015 3.7105 1.9120
2.4187 3.7659 1.9117
2.3346 3.8195 1.9115
2.2494 3.8711 1.9113
2.1630 3.9209 1.9111
0.8428 1.6115 0.7760
0.8066 1.6297 0.7757
0.7700 1.6470 0.7754
0.7331 1.6635 0.7751
0.6958 1.6792 0.7749
0.6582 1.6941 0.7746
0.6202 1.7082 0.7744
0.5820 1.7214 0.7742
0.5435 1.7338 0.7740
0.5047 1.7453 0.7738
0.4657 1.7559 0.7736
0.4265 1.7657 0.7735
0.3871 1.7747 0.7733
0.3475 1.7828 0.7732
0.3077 1.7899 0.7731
0.2678 1.7963 0.7730
0.2278 1.8017 0.7729
0.1876 1.8063 0.7728
0.1474 1.8100 0.7728
0.1070 1.8128 0.7727
0.0667 1.8147 0.7727
0.0263 1.8157 0.7727
-0.0141 1.8158 0.7727
-0.0545 1.8151 0.7727
-0.0949 1.8134 0.7727
-0.1352 1.8109 0.7728
-0.1755 1.8075 0.7728
-0.2157 1.8032 0.7729
-0.2558 1.7980 0.7730
-0.2957 1.7920 0.7731
-0.3355 1.7851 0.7732
-0.3752 1.7773 0.7733
-0.4147 1.7686 0.7735
-0.4540 1.7591 0.7736
-0.4930 1.7487 0.7738
-0.5319 1.7374 0.7740
-0.5705 1.7253 0.7742
-0.6088 1.7123 0.7744
-0.6468 1.6985 0.7746
-0.6845 1.6839 0.7749
-0.7219 1.6685 0.7751
-0.7590 1.6522 0.7754
-0.7957 1.6351 0.7757
-2.0503 3.9853 1.9123
-2.1382 3.9382 1.9125
-2.2251 3.8891 1.9128
-2.3108 3.8380 1.9130
-2.3953 3.7852 1.9133
-2.4787 3.7303 1.9136
-2.5607 3.6737 1.9139
-2.6415 3.6151 1.9142
-2.7209 3.5548 1.9145
-2.8027 3.4976 1.9174
-2.8856 3.4411 1.9218
-2.9669 3.3821 1.9260
-3.0486 3.3230 1.9312
-3.1278 3.2605 1.9357
-3.2069 3.1972 1.9408
-3.2847 3.1320 1.9459
-3.3612 3.0649 1.9510
-3.4366 2.9962 1.9563
-3.5103 2.9254 1.9615
-3.5822 2.8525 1.9665
-3.6529 2.7781 1.9716
-3.7169 2.6981 1.9740
-3.7764 2.6149 1.9751
-3.8342 2.5303 1.9762
-3.8900 2.4445 1.9772
-3.9439 2.3574 1.9783
-3.9958 2.2691 1.9794
-4.0458 2.1797 1.9806
-4.0938 2.0891 1.9817
-4.1397 1.9975 1.9828
-4.1836 1.9049 1.9840
-4.2254 1.8113 1.9851
-4.2652 1.7167 1.9863
-4.3028 1.6213 1.9874
-4.3382 1.5251 1.9886
-4.3715 1.4280 1.9898
-4.4027 1.3303 1.9909
-4.4316 1.2319 1.9921
-4.4583 1.1327 1.9933
-4.4829 1.0330 1.9945
-4.5051 0.9328 1.9957
-4.5252 0.8321 1.9969
-4.5430 0.7310 1.9981
-4.5585 0.6294 1.9992
-4.5717 0.5275 2.0004
-4.5826 0.4254 2.0016
-4.5913 0.3230 2.0028
-4.5976 0.2204 2.0040
-4.6017 0.1176 2.0052
-4.6035 0.0149 2.0064
-4.6029 -0.0880 2.0075
-4.6001 -0.1908 2.0087
-4.5949 -0.2935 2.0099
-4.5874 -0.3961 2.0111
-4.5783 -0.4985 2.0125
-4.5693 -0.6012 2.0150
-4.5539 -0.7030 2.0157
-4.5307 -0.8035 2.0139
-4.5032 -0.9028 2.0112
-4.4735 -1.0014 2.0085
-4.4369 -1.0979 2.0036
-4.3959 -1.1926 1.9976
-4.3487 -1.2849 1.9898
-4.2993 -1.3755 1.9817
-4.2450 -1.4636 1.9723
-4.1892 -1.5500 1.9629
-4.1290 -1.6336 1.9523
-4.0677 -1.7155 1.9419
-4.0114 -1.7985 1.9347
-3.9570 -1.8816 1.9293
-3.9012 -1.9632 1.9239
-3.8439 -2.0434 1.9186
-3.7852 -2.1222 1.9134
-3.7251 -2.1995 1.9083
-3.6637 -2.2753 1.9033
-3.6010 -2.3496 1.8984
-3.5370 -2.4224 1.8936
-3.4717 -2.4937 1.8889
-3.4053 -2.5634 1.8843
-3.3377 -2.6316 1.8798
-3.2690 -2.6983 1.8754
-3.1991 -2.7633 1.8711
-3.1282 -2.8268 1.8670
-3.0563 -2.8888 1.8629
-2.9833 -2.9491 1.8589
-2.9094 -3.0078 1.8551
-2.8346 -3.0649 1.8513
-2.7588 -3.1204 1.8477
-2.6822 -3.1742 1.8441
-2.6046 -3.2264 1.8407
-2.5264 -3.2769 1.8374
-2.4472 -3.3258 1.8342
-2.3674 -3.3731 1.8311
-2.2868 -3.4187 1.8281
-2.2055 -3.4626 1.8252
-2.1236 -3.5049 1.8224
-2.0409 -3.5454 1.8197
-1.9557 -3.5806 1.8153
-1.8701 -3.6141 1.8110
-0.8191 -1.6739 0.8296
-0.7815 -1.6921 0.8299
-0.7435 -1.7094 0.8302
-0.7051 -1.7258 0.8304
-0.6663 -1.7414 0.8307
-0.6272 -1.7561 0.8309
-0.5877 -1.7699 0.8311
-0.5479 -1.7828 0.8313
-0.5079 -1.7947 0.8315
-0.4675 -1.8058 0.8317
-0.4270 -1.8160 0.8319
-0.3862 -1.8252 0.8320
-0.3452 -1.8335 0.8321
-0.3040 -1.8409 0.8323
-0.2627 -1.8473 0.8324
-0.2212 -1.8528 0.8325
-0.1796 -1.8574 0.8325
-0.1379 -1.8610 0.8326
-0.0962 -1.8636 0.8326
-0.0544 -1.8654 0.8326
-0.0125 -1.8661 0.8327
0.0293 -1.8659 0.8327
0.0711 -1.8648 0.8326
0.1129 -1.8627 0.8326
0.1547 -1.8596 0.8325
0.1963 -1.8556 0.8325
0.2378 -1.8507 0.8324
0.2793 -1.8448 0.8323
0.3205 -1.8380 0.8322
0.3616 -1.8302 0.8320
0.4026 -1.8216 0.8319
0.4433 -1.8119 0.8317
0.4837 -1.8014 0.8316
0.5239 -1.7900 0.8314
0.5639 -1.7776 0.8312
0.6035 -1.7643 0.8310
0.6429 -1.7502 0.8307
0.6818 -1.7352 0.8305
0.7205 -1.7192 0.8302
0.7587 -1.7024 0.8299
0.7966 -1.6848 0.8296
1.8249 -3.6460 1.8147
1.9092 -3.6098 1.8171
1.9929 -3.5720 1.8196
2.0760 -3.5325 1.8223
2.1585 -3.4914 1.8250
2.2403 -3.4485 1.8279
2.3215 -3.4040 1.8309
2.4019 -3.3577 1.8340
2.4865 -3.3164 1.8408
2.5715 -3.2742 1.8483
2.6562 -3.2304 1.8561
2.7406 -3.1849 1.8641
2.8247 -3.1376 1.8724
2.9084 -3.0886 1.8809
2.9901 -3.0362 1.8886
3.0705 -2.9813 1.8960
3.1504 -2.9246 1.9037
3.2296 -2.8662 1.9115
3.3081 -2.8061 1.9195
3.3857 -2.7439 1.9277
3.4596 -2.6778 1.9343
3.5326 -2.6100 1.9411
3.6046 -2.5404 1.9481
3.6755 -2.4691 1.9552
3.7453 -2.3961 1.9625
3.8108 -2.3195 1.9682
3.8743 -2.2409 1.9737
3.9364 -2.1608 1.9793
3.9970 -2.0791 1.9850
4.0562 -1.9958 1.9908
4.1077 -1.9083 1.9937
4.1567 -1.8191 1.9962
4.2037 -1.7287 1.9988
4.2489 -1.6372 2.0013
4.2922 -1.5446 2.0040
4.3336 -1.4508 2.0066
4.3729 -1.3561 2.0093
4.4103 -1.2603 2.0120
4.4457 -1.1636 2.0147
4.4747 -1.0648 2.0156
4.4985 -0.9648 2.0150
4.5200 -0.8642 2.0145
4.5394 -0.7632 2.0139
4.5562 -0.6617 2.0133
4.5707 -0.5598 2.0126
4.5828 -0.4577 2.0119
4.5927 -0.3552 2.0111
4.6002 -0.2526 2.0104
4.6055 -0.1498 2.0097
4.6085 -0.0469 2.0090
4.6091 0.0561 2.0082
4.6074 0.1590 2.0075
4.6035 0.2619 2.0067
4.5971 0.3647 2.0060
4.5885 0.4673 2.0052
4.5777 0.5697 2.0045
4.5647 0.6719 2.0038
4.5494 0.7737 2.0031
4.5318 0.8752 2.0024
4.5119 0.9763 2.0017
4.4883 1.0766 2.0004
4.4625 1.1763 1.9990
4.4317 1.2745 1.9965
4.3986 1.3720 1.9938
4.3601 1.4675 1.9897
4.3185 1.5615 1.9851
4.2722 1.6534 1.9793
4.2221 1.7433 1.9727
4.1784 1.8354 1.9700
4.1364 1.9280 1.9690
4.0923 2.0198 1.9680
4.0462 2.1105 1.9670
3.9981 2.2002 1.9661
3.9481 2.2887 1.9652
3.8960 2.3762 1.9643
3.8421 2.4624 1.9634
3.7863 2.5474 1.9625
3.7227 2.6271 1.9586
3.6568 2.7046 1.9543
3.5885 2.7799 1.9496
3.5195 2.8541 1.9453
3.4480 2.9259 1.9406
3.3759 2.9966 1.9363
3.3018 3.0650 1.9318
3.2273 3.1326 1.9278
3.1504 3.1972 1.9232
3.0732 3.2610 1.9192
2.9945 3.3229 1.9152
2.9181 3.3867 1.9133
2.8425 3.4516 1.9131
2.7655 3.5147 1.9128
2.6870 3.5761 1.9125
2.6072 3.6357 1.9123
2.5261 3.6935 1.9120
2.4436 3.7495 1.9118
2.3599 3.8036 1.9116
2.2751 3.8558 1.9114
2.1890 3.9062 1.9112
2.1016 3.9546 1.9110
0.8175 1.6243 0.7758
0.7810 1.6419 0.7755
0.7442 1.6587 0.7752
0.7070 1.6746 0.7749
0.6695 1.6898 0.7747
0.6316 1.7041 0.7745
0.5935 1.7175 0.7743
0.5551 1.7301 0.7740
0.5164 1.7419 0.7739
0.4775 1.7528 0.7737
0.4383 1.7629 0.7735
0.3989 1.7721 0.7734
0.3594 1.7804 0.7732
0.3197 1.7879 0.7731
0.2798 1.7945 0.7730
0.2398 1.8002 0.7729
0.1997 1.8050 0.7729
0.1594 1.8089 0.7728
0.1191 1.8120 0.7727
0.0788 1.8142 0.7727
0.0384 1.8155 0.7727
-0.0020 1.8159 0.7727
-0.0424 1.8154 0.7727
-0.0828 1.8140 0.7727
-0.1231 1.8118 0.7728
-0.1634 1.8086 0.7728
-0.2036 1.8046 0.7729
-0.2437 1.7997 0.7730
-0.2837 1.7939 0.7731
-0.3236 1.7872 0.7732
-0.3633 1.7797 0.7733
-0.4029 1.7713 0.7734
-0.4422 1.7620 0.7736
-0.4813 1.7519 0.7738
-0.5203 1.7409 0.7740
-0.5589 1.7290 0.7741
-0.5973 1.7163 0.7744
-0.6354 1.7028 0.7746
-0.6733 1.6884 0.7748
-0.7108 1.6732 0.7751
-0.7479 1.6572 0.7753
-0.7847 1.6403 0.7756
-0.8211 1.6227 0.7759
-2.1119 3.9525 1.9124
-2.1991 3.9040 1.9127
-2.2852 3.8536 1.9129
-2.3701 3.8012 1.9132
-2.4538 3.7470 1.9135
-2.5362 3.6908 1.9138
-2.6174 3.6329 1.9141
-2.6972 3.5732 1.9144
-2.7776 3.5141 1.9160
-2.8610 3.4584 1.9206
-2.9424 3.3998 1.9247
-3.0242 3.3409 1.9297
-3.1044 3.2796 1.9344
-3.1831 3.2162 1.9391
-3.2619 3.1522 1.9446
-3.3381 3.0850 1.9493
-3.4146 3.0174 1.9550
-3.4881 2.9466 1.9598
-3.5611 2.8748 1.9651
-3.6317 2.8004 1.9700
-3.6986 2.7228 1.9737
-3.7588 2.6400 1.9748
-3.8171 2.5558 1.9758
-3.8734 2.4704 1.9769
-3.9279 2.3836 1.9780
-3.9804 2.2957 1.9791
-4.0310 2.2066 1.9802
-4.0796 2.1164 1.9813
-4.1262 2.0251 1.9825
-4.1707 1.9328 1.9836
-4.2131 1.8394 1.9848
-4.2535 1.7452 1.9859
-4.2917 1.6500 1.9871
-4.3278 1.5541 1.9882
-4.3618 1.4572 1.9894
-4.3936 1.3597 1.9906
-4.4232 1.2614 1.9918
-4.4506 1.1625 1.9929
-4.4757 1.0630 1.9941
-4.4987 0.9629 1.9953
-4.5194 0.8624 1.9965
-4.5379 0.7613 1.9977
-4.5540 0.6599 1.9989
-4.5680 0.5581 2.0001
-4.5796 0.4560 2.0013
-4.5889 0.3537 2.0025
-4.5960 0.2512 2.0036
-4.6007 0.1485 2.0048
-4.6032 0.0457 2.0060
-4.6033 -0.0571 2.0072
-4.6011 -0.1599 2.0084
-4.5967 -0.2627 2.0095
-4.5899 -0.3653 2.0107
-4.5808 -0.4678 2.0119
-4.5735 -0.5706 2.0148
-4.5588 -0.6725 2.0155
-4.5385 -0.7735 2.0147
-4.5117 -0.8731 2.0120
-4.4827 -0.9719 2.0093
-4.4489 -1.0693 2.0054
-4.4084 -1.1644 1.9994
-4.3631 -1.2574 1.9921
-4.3146 -1.3486 1.9843
-4.2615 -1.4373 1.9751
-4.2062 -1.5243 1.9658
-4.1471 -1.6087 1.9555
-4.0862 -1.6911 1.9450
-4.0274 -1.7734 1.9364
-3.9735 -1.8568 1.9309
-3.9181 -1.9388 1.9255
-3.8612 -2.0195 1.9202
-3.8030 -2.0987 1.9149
-3.7433 -2.1764 1.9098
-3.6823 -2.2526 1.9048
-3.6199 -2.3274 1.8999
-3.5563 -2.4007 1.8950
-3.4914 -2.4724 1.8903
-3.4254 -2.5426 1.8857
-3.3581 -2.6113 1.8811
-3.2897 -2.6784 1.8767
-3.2202 -2.7440 1.8724
-3.1496 -2.8080 1.8682
-3.0780 -2.8703 1.8641
-3.0053 -2.9312 1.8601
-2.9317 -2.9903 1.8562
-2.8571 -3.0479 1.8524
-2.7816 -3.1038 1.8487
-2.7052 -3.1582 1.8452
-2.6280 -3.2109 1.8417
-2.5499 -3.2620 1.8384
-2.4711 -3.3113 1.8351
-2.3914 -3.3591 1.8320
-2.3111 -3.4052 1.8290
-2.2300 -3.4496 1.8260
-2.1482 -3.4924 1.8232
-2.0658 -3.5335 1.8206
-1.9813 -3.5702 1.8166
-1.8958 -3.6042 1.8123
-0.8303 -1.6683 0.8295
-0.7928 -1.6867 0.8298
-0.7549 -1.7043 0.8301
-0.7166 -1.7210 0.8303
-0.6780 -1.7368 0.8306
-0.6389 -1.7518 0.8308
-0.5996 -1.7658 0.8311
-0.5599 -1.7790 0.8313
-0.5199 -1.7912 0.8315
-0.4797 -1.8026 0.8317
-0.4392 -1.8130 0.8318
-0.3984 -1.8225 0.8320
-0.3575 -1.8311 0.8321
-0.3164 -1.8388 0.8322
-0.2751 -1.8455 0.8323
-0.2337 -1.8513 0.8324
-0.1921 -1.8561 0.8325
-0.1504 -1.8600 0.8326
-0.1087 -1.8629 0.8326
-0.0669 -1.8649 0.8326
-0.0251 -1.8660 0.8327
0.0168 -1.8661 0.8327
0.0586 -1.8652 0.8326
0.1004 -1.8634 0.8326
0.1421 -1.8606 0.8326
0.1838 -1.8569 0.8325
0.2254 -1.8523 0.8324
0.2669 -1.8467 0.8323
0.3082 -1.8401 0.8322
0.3493 -1.8327 0.8321
0.3903 -1.8243 0.8319
0.4311 -1.8149 0.8318
0.4716 -1.8047 0.8316
0.5119 -1.7935 0.8314
0.5519 -1.7814 0.8312
0.5917 -1.7684 0.8310
0.6311 -1.7545 0.8308
0.6702 -1.7398 0.8306
0.7089 -1.7241 0.8303
0.7473 -1.7076 0.8300
0.7853 -1.6902 0.8297
0.8229 -1.6719 0.8294
1.8840 -3.6208 1.8164
1.9678 -3.5835 1.8189
2.0511 -3.5446 1.8215
2.1338 -3.5039 1.8242
2.2158 -3.4615 1.8270
2.2972 -3.4175 1.8300
2.3779 -3.3718 1.8331
2.4609 -3.3286 1.8386
2.5460 -3.2870 1.8460
2.6308 -3.2437 1.8537
2.7153 -3.1987 1.8617
2.7995 -3.1520 1.8699
2.8833 -3.1035 1.8783
2.9658 -3.0523 1.8864
3.0465 -2.9979 1.8938
3.1265 -2.9418 1.9014
3.2059 -2.8839 1.9091
3.2846 -2.8243 1.9171
3.3627 -2.7629 1.9253
3.4376 -2.6978 1.9323
3.5108 -2.6305 1.9391
3.5831 -2.5614 1.9460
3.6543 -2.4907 1.9531
3.7245 -2.4182 1.9603
3.7915 -2.3428 1.9666
3.8554 -2.2647 1.9721
3.9179 -2.1849 1.9776
3.9790 -2.1037 1.9833
4.0386 -2.0210 1.9890
4.0927 -1.9348 1.9929
4.1422 -1.8460 1.9954
4.1898 -1.7560 1.9980
4.2356 -1.6648 2.0006
4.2794 -1.5725 2.0032
4.3214 -1.4791 2.0058
4.3613 -1.3846 2.0085
4.3993 -1.2891 2.0112
4.4353 -1.1926 2.0139
4.4671 -1.0948 2.0157
4.4916 -0.9949 2.0152
4.5138 -0.8945 2.0146
4.5338 -0.7935 2.0141
4.5514 -0.6922 2.0135
4.5666 -0.5904 2.0128
4.5794 -0.4883 2.0121
4.5900 -0.3860 2.0114
4.5982 -0.2834 2.0106
4.6042 -0.1806 2.0099
4.6078 -0.0777 2.0092
4.6092 0.0252 2.0085
4.6082 0.1281 2.0077
4.6049 0.2310 2.0070
4.5993 0.3339 2.0062
4.5913 0.4365 2.0054
4.5812 0.5390 2.0047
4.5688 0.6412 2.0040
4.5542 0.7432 2.0033
4.5373 0.8448 2.0026
4.5182 0.9460 2.0020
4.4957 1.0466 2.0008
4.4705 1.1464 1.9994
4.4412 1.2452 1.9973
4.4088 1.3428 1.9946
4.3718 1.4389 1.9909
4.3319 1.5337 1.9869
4.2863 1.6260 1.9811
4.2375 1.7165 1.9748
4.1906 1.8074 1.9703
4.1492 1.9004 1.9693
4.1058 1.9924 1.9683
4.0603 2.0834 1.9673
4.0128 2.1733 1.9664
3.9633 2.2622 1.9654
3.9118 2.3500 1.9645
3.8585 2.4366 1.9636
3.8032 2.5220 1.9627
3.7422 2.6035 1.9599
3.6767 2.6815 1.9555
3.6090 2.7573 1.9509
3.5404 2.8320 1.9466
3.4693 2.9043 1.9418
3.3979 2.9757 1.9377
3.3239 3.0445 1.9330
3.2498 3.1125 1.9290
3.1736 3.1780 1.9245
3.0964 3.2421 1.9204
3.0184 3.3047 1.9165
2.9405 3.3670 1.9134
2.8653 3.4323 1.9131
2.7887 3.4960 1.9129
2.7107 3.5579 1.9126
2.6313 3.6180 1.9124
2.5506 3.6764 1.9121
2.4685 3.7329 1.9119
2.3852 3.7876 1.9117
2.3007 3.8404 1.9114
2.2149 3.8913 1.9112
2.1280 3.9402 1.9110
0.8284 1.6189 0.7758
0.7920 1.6367 0.7756
0.7553 1.6537 0.7753
0.7182 1.6699 0.7750
0.6808 1.6853 0.7748
0.6430 1.6999 0.7745
0.6050 1.7136 0.7743
0.5666 1.7264 0.7741
0.5280 1.7385 0.7739
0.4892 1.7496 0.7737
0.4501 1.7600 0.7736
0.4108 1.7694 0.7734
0.3713 1.7780 0.7733
0.3316 1.7857 0.7732
0.2918 1.7926 0.7731
0.2518 1.7985 0.7730
0.2117 1.8036 0.7729
0.1715 1.8079 0.7728
0.1312 1.8112 0.7728
0.0909 1.8136 0.7727
0.0505 1.8152 0.7727
0.0101 1.8159 0.7727
-0.0303 1.8156 0.7727
-0.0707 1.8145 0.7727
-0.1110 1.8125 0.7728
-0.1513 1.8097 0.7728
-0.1916 1.8059 0.7729
-0.2317 1.8013 0.7729
-0.2718 1.7957 0.7730
-0.3117 1.7893 0.7731
-0.3514 1.7820 0.7733
-0.3910 1.7739 0.7734
-0.4304 1.7649 0.7736
-0.4696 1.7550 0.7737
-0.5086 1.7442 0.7739
-0.5474 1.7327 0.7741
-0.5858 1.7202 0.7743
-0.6240 1.7069 0.7745
-0.6619 1.6928 0.7747
-0.6995 1.6778 0.7750
-0.7368 1.6621 0.7752
-0.7737 1.6455 0.7755
-0.8103 1.6280 0.7758
-2.0856 3.9666 1.9123
-2.1731 3.9187 1.9126
-2.2595 3.8689 1.9129
-2.3447 3.8171 1.9131
-2.4288 3.7634 1.9134
-2.5116 3.7079 1.9137
-2.5932 3.6505 1.9140
-2.6734 3.5913 1.9143
-2.7524 3.5304 1.9147
-2.8360 3.4753 1.9192
-2.9182 3.4176 1.9235
-2.9997 3.3587 1.9281
-3.0808 3.2986 1.9332
-3.1592 3.2350 1.9374
-3.2386 3.1717 1.9430
-3.3150 3.1049 1.9476
-3.3918 3.0378 1.9532
-3.4657 2.9676 1.9581
-3.5397 2.8969 1.9637
-3.6104 2.8227 1.9683
-3.6802 2.7474 1.9734
-3.7409 2.6650 1.9745
-3.7997 2.5812 1.9755
-3.8567 2.4961 1.9766
-3.9118 2.4098 1.9777
-3.9649 2.3222 1.9788
-4.0161 2.2335 1.9799
-4.0652 2.1436 1.9810
-4.1124 2.0526 1.9821
-4.1575 1.9606 1.9833
-4.2006 1.8676 1.9844
-4.2416 1.7736 1.9856
-4.2805 1.6787 1.9867
-4.3172 1.5829 1.9879
-4.3518 1.4864 1.9891
-4.3843 1.3890 1.9902
-4.4145 1.2910 1.9914
-4.4426 1.1923 1.9926
-4.4684 1.0929 1.9938
-4.4920 0.9930 1.9950
-4.5134 0.8926 1.9961
-4.5326 0.7917 1.9973
-4.5494 0.6904 1.9985
-4.5640 0.5887 1.9997
-4.5764 0.4867 2.0009
-4.5864 0.3844 2.0021
-4.5941 0.2819 2.0033
-4.5996 0.1793 2.0045
-4.6027 0.0766 2.0057
-4.6035 -0.0263 2.0068
-4.6020 -0.1291 2.0080
-4.5983 -0.2319 2.0092
-4.5922 -0.3345 2.0104
-4.5838 -0.4371 2.0115
-4.5770 -0.5398 2.0144
-4.5634 -0.6420 2.0153
-4.5462 -0.7435 2.0156
-4.5199 -0.8433 2.0128
-4.4916 -0.9424 2.0101
-4.4607 -1.0405 2.0072
-4.4207 -1.1359 2.0012
-4.3773 -1.2297 1.9945
-4.3293 -1.3214 1.9866
-4.2778 -1.4109 1.9779
-4.2229 -1.4984 1.9686
-4.1652 -1.5836 1.9587
-4.1046 -1.6666 1.9481
-4.0433 -1.7480 1.9381
-3.9899 -1.8319 1.9325
-3.9349 -1.9144 1.9271
-3.8785 -1.9955 1.9218
-3.8206 -2.0751 1.9165
-3.7613 -2.1532 1.9113
-3.7007 -2.2299 1.9063
-3.6387 -2.3051 1.9013
-3.5755 -2.3789 1.8965
-3.5110 -2.4511 1.8917
-3.4453 -2.5218 1.8870
-3.3784 -2.5909 1.8825
-3.3103 -2.6585 1.8780
-3.2412 -2.7245 1.8737
-3.1709 -2.7890 1.8695
-3.0996 -2.8518 1.8653
-3.0272 -2.9131 1.8613
-2.9539 -2.9727 1.8574
-2.8796 -3.0308 1.8535
-2.8044 -3.0872 1.8498
-2.7282 -3.1421 1.8462
-2.6512 -3.1953 1.8427
-2.5734 -3.2468 1.8394
-2.4948 -3.2967 1.8361
-2.4154 -3.3449 1.8329
-2.3353 -3.3915 1.8299
-2.2544 -3.4364 1.8269
-2.1728 -3.4797 1.8241
-2.0906 -3.5213 1.8214
-2.0069 -3.5596 1.8179
-1.9215 -3.5942 1.8136
-0.8415 -1.6626 0.8294
-0.8041 -1.6813 0.8297
-0.7664 -1.6991 0.8300
-0.7282 -1.7161 0.8303
-0.6896 -1.7322 0.8305
-0.6507 -1.7474 0.8308
-0.6114 -1.7617 0.8310
-0.5718 -1.7751 0.8312
-0.5319 -1.7877 0.8314
-0.4918 -1.7993 0.8316
-0.4513 -1.8100 0.8318
-0.4107 -1.8198 0.8319
-0.3698 -1.8287 0.8321
-0.3287 -1.8366 0.8322
-0.2875 -1.8436 0.8323
-0.2461 -1.8496 0.8324
-0.2046 -1.8548 0.8325
-0.1629 -1.8589 0.8326
-0.1212 -1.8622 0.8326
-0.0794 -1.8644 0.8326
-0.0376 -1.8658 0.8327
0.0042 -1.8661 0.8327
0.0460 -1.8656 0.8326
0.0879 -1.8640 0.8326
0.1296 -1.8616 0.8326
0.1713 -1.8581 0.8325
0.2129 -1.8538 0.8324
0.2544 -1.8485 0.8324
0.2958 -1.8422 0.8322
0.3370 -1.8350 0.8321
0.3780 -1.8269 0.8320
0.4189 -1.8178 0.8318
0.4595 -1.8078 0.8317
0.4998 -1.7969 0.8315
0.5400 -1.7851 0.8313
0.5798 -1.7724 0.8311
0.6193 -1.7588 0.8309
0.6585 -1.7443 0.8306
0.6973 -1.7289 0.8304
0.7358 -1.7126 0.8301
0.7739 -1.6955 0.8298
0.8116 -1.6775 0.8295
1.8587 -3.6317 1.8156
1.9428 -3.5949 1.8181
2.0262 -3.5564 1.8207
2.1091 -3.5163 1.8234
2.1913 -3.4744 1.8262
2.2729 -3.4309 1.8291
2.3537 -3.3857 1.8321
2.4354 -3.3408 1.8364
2.5205 -3.2997 1.8438
2.6054 -3.2569 1.8514
2.6900 -3.2124 1.8593
2.7743 -3.1662 1.8674
2.8582 -3.1182 1.8758
2.9415 -3.0683 1.8842
3.0223 -3.0144 1.8915
3.1026 -2.9588 1.8991
3.1821 -2.9015 1.9068
3.2611 -2.8424 1.9147
3.3393 -2.7815 1.9228
3.4154 -2.7177 1.9303
3.4889 -2.6508 1.9370
3.5615 -2.5823 1.9439
3.6330 -2.5121 1.9509
3.7035 -2.4401 1.9581
3.7720 -2.3659 1.9650
3.8363 -2.2882 1.9704
3.8993 -2.2090 1.9759
3.9608 -2.1282 1.9816
4.0209 -2.0459 1.9873
4.0775 -1.9612 1.9922
4.1275 -1.8728 1.9947
4.1757 -1.7831 1.9972
4.2220 -1.6922 1.9998
4.2665 -1.6003 2.0024
4.3090 -1.5072 2.0050
4.3496 -1.4131 2.0077
4.3881 -1.3179 2.0104
4.4247 -1.2217 2.0131
4.4592 -1.1245 2.0158
4.4845 -1.0249 2.0153
4.5074 -0.9246 2.0148
4.5280 -0.8239 2.0142
4.5464 -0.7227 2.0137
4.5623 -0.6210 2.0130
4.5758 -0.5190 2.0123
4.5870 -0.4167 2.0116
4.5960 -0.3142 2.0109
4.6026 -0.2115 2.0101
4.6070 -0.1086 2.0094
4.6090 -0.0057 2.0087
4.6087 0.0972 2.0079
4.6061 0.2002 2.0072
4.6012 0.3030 2.0064
4.5939 0.4057 2.0057
4.5844 0.5083 2.0049
4.5728 0.6106 2.0042
4.5589 0.7126 2.0035
4.5426 0.8144 2.0028
4.5242 0.9157 2.0022
4.5028 1.0165 2.0012
4.4783 1.1165 1.9998
4.4505 1.2157 1.9981
4.4187 1.3136 1.9954
4.3834 1.4103 1.9922
4.3441 1.5054 1.9881
4.3002 1.5984 1.9828
4.2528 1.6897 1.9769
4.2027 1.7793 1.9706
4.1619 1.8725 1.9696
4.1190 1.9649 1.9686
4.0741 2.0562 1.9676
4.0272 2.1465 1.9667
3.9783 2.2357 1.9657
3.9275 2.3238 1.9648
3.8747 2.4108 1.9639
3.8200 2.4965 1.9630
3.7618 2.5799 1.9613
3.6965 2.6582 1.9568
3.6298 2.7350 1.9524
3.5611 2.8098 1.9479
3.4906 2.8826 1.9432
3.4195 2.9545 1.9389
3.3459 3.0237 1.9342
3.2722 3.0923 1.9302
3.1969 3.1588 1.9261
3.1196 3.2229 1.9216
3.0420 3.2861 1.9176
2.9627 3.3471 1.9135
2.8880 3.4129 1.9132
2.8119 3.4770 1.9130
2.7343 3.5395 1.9127
2.6553 3.6002 1.9124
2.5749 3.6590 1.9122
2.4933 3.7161 1.9120
2.4103 3.7714 1.9117
2.3261 3.8247 1.9115
2.2408 3.8762 1.9113
2.1543 3.9257 1.9111
0.8392 1.6134 0.7759
0.8030 1.6314 0.7756
0.7663 1.6487 0.7754
0.7294 1.6651 0.7751
0.6920 1.6808 0.7748
0.6544 1.6956 0.7746
0.6164 1.7095 0.7744
0.5782 1.7227 0.7742
0.5396 1.7350 0.7740
0.5009 1.7464 0.7738
0.4618 1.7570 0.7736
0.4226 1.7667 0.7735
0.3831 1.7755 0.7733
0.3435 1.7835 0.7732
0.3037 1.7906 0.7731
0.2638 1.7969 0.7730
0.2237 1.8022 0.7729
0.1836 1.8067 0.7728
0.1433 1.8103 0.7728
0.1030 1.8130 0.7727
0.0626 1.8148 0.7727
0.0222 1.8157 0.7727
-0.0182 1.8158 0.7727
-0.0586 1.8149 0.7727
-0.0989 1.8132 0.7727
-0.1393 1.8106 0.7728
-0.1795 1.8071 0.7728
-0.2197 1.8027 0.7729
-0.2598 1.7975 0.7730
-0.2997 1.7913 0.7731
-0.3395 1.7843 0.7732
-0.3792 1.7764 0.7734
-0.4186 1.7677 0.7735
-0.4579 1.7581 0.7737
-0.4969 1.7476 0.7738
-0.5358 1.7362 0.7740
-0.5743 1.7240 0.7742
-0.6126 1.7110 0.7744
-0.6506 1.6971 0.7747
-0.6883 1.6824 0.7749
-0.7257 1.6669 0.7752
-0.7627 1.6505 0.7754
-0.7993 1.6333 0.7757
-2.0591 3.9806 1.9123
-2.1470 3.9333 1.9125
-2.2337 3.8841 1.9128
-2.3193 3.8329 1.9131
-2.4037 3.7798 1.9133
-2.4869 3.7248 1.9136
-2.5688 3.6679 1.9139
-2.6494 3.6092 1.9142
-2.7288 3.5487 1.9145
-2.8110 3.4920 1.9179
-2.8937 3.4352 1.9222
-2.9751 3.3763 1.9266
-3.0567 3.3170 1.9318
-3.1357 3.2541 1.9361
-3.2148 3.1909 1.9413
-3.2923 3.1253 1.9463
-3.3688 3.0581 1.9515
-3.4438 2.9891 1.9567
-3.5177 2.9183 1.9620
-3.5893 2.8451 1.9669
-3.6599 2.7706 1.9721
-3.7229 2.6899 1.9741
-3.7823 2.6065 1.9752
-3.8398 2.5218 1.9763
-3.8955 2.4358 1.9774
-3.9492 2.3486 1.9785
-4.0009 2.2602 1.9796
-4.0507 2.1707 1.9807
-4.0985 2.0800 1.9818
-4.1442 1.9883 1.9829
-4.1879 1.8955 1.9841
-4.2295 1.8019 1.9852
-4.2690 1.7073 1.9864
-4.3064 1.6117 1.9875
-4.3417 1.5154 1.9887
-4.3747 1.4183 1.9899
-4.4057 1.3205 1.9910
-4.4344 1.2219 1.9922
-4.4609 1.1228 1.9934
-4.4852 1.0230 1.9946
-4.5073 0.9228 1.9958
-4.5271 0.8220 1.9970
-4.5446 0.7208 1.9982
-4.5599 0.6192 1.9994
-4.5729 0.5173 2.0006
-4.5836 0.4151 2.0017
-4.5920 0.3127 2.0029
-4.5982 0.2101 2.0041
-4.6020 0.1074 2.0053
-4.6035 0.0046 2.0065
-4.6027 -0.0982 2.0077
-4.5996 -0.2011 2.0088
-4.5943 -0.3038 2.0100
-4.5865 -0.4063 2.0112
-4.5784 -0.5090 2.0131
-4.5679 -0.6114 2.0151
-4.5522 -0.7132 2.0158
-4.5280 -0.8135 2.0136
-4.5003 -0.9127 2.0109
-4.4705 -1.0112 2.0082
-4.4329 -1.1074 2.0030
-4.3913 -1.2020 1.9969
-4.3439 -1.2940 1.9890
-4.2939 -1.3844 1.9808
-4.2395 -1.4723 1.9713
-4.1832 -1.5584 1.9619
-4.1229 -1.6419 1.9513
-4.0615 -1.7236 1.9409
-4.0060 -1.8069 1.9342
-3.9515 -1.8898 1.9287
-3.8955 -1.9713 1.9233
-3.8381 -2.0514 1.9181
-3.7792 -2.1299 1.9129
-3.7190 -2.2071 1.9078
-3.6575 -2.2828 1.9028
-3.5946 -2.3569 1.8979
-3.5305 -2.4296 1.8931
-3.4651 -2.5007 1.8884
-3.3986 -2.5703 1.8838
-3.3309 -2.6384 1.8794
-3.2620 -2.7048 1.8750
-3.1921 -2.7698 1.8707
-3.1211 -2.8331 1.8665
-3.0490 -2.8949 1.8625
-2.9760 -2.9550 1.8585
-2.9020 -3.0136 1.8547
-2.8270 -3.0705 1.8509
-2.7512 -3.1258 1.8473
-2.6744 -3.1795 1.8438
-2.5969 -3.2315 1.8404
-2.5185 -3.2819 1.8370
-2.4393 -3.3307 1.8338
-2.3594 -3.3777 1.8308
-2.2787 -3.4232 1.8278
-2.1974 -3.4669 1.8249
-2.1154 -3.5090 1.8222
-2.0324 -3.5490 1.8193
-1.9471 -3.5840 1.8148
-1.8616 -3.6174 1.8106
-0.8154 -1.6758 0.8296
-0.7777 -1.6938 0.8299
-0.7397 -1.7111 0.8302
-0.7012 -1.7274 0.8304
-0.6624 -1.7429 0.8307
-0.6232 -1.7575 0.8309
-0.5837 -1.7712 0.8312
-0.5439 -1.7840 0.8314
-0.5038 -1.7959 0.8315
-0.4635 -1.8069 0.8317
-0.4229 -1.8169 0.8319
-0.3821 -1.8261 0.8320
-0.3411 -1.8343 0.8322
-0.2999 -1.8416 0.8323
-0.2585 -1.8479 0.8324
-0.2171 -1.8533 0.8325
-0.1754 -1.8578 0.8325
-0.1338 -1.8613 0.8326
-0.0920 -1.8639 0.8326
-0.0502 -1.8655 0.8326
-0.0083 -1.8661 0.8327
0.0335 -1.8658 0.8326
0.0753 -1.8646 0.8326
0.1171 -1.8624 0.8326
0.1588 -1.8593 0.8325
0.2005 -1.8552 0.8325
0.2420 -1.8501 0.8324
0.2834 -1.8442 0.8323
0.3247 -1.8373 0.8322
0.3657 -1.8294 0.8320
0.4066 -1.8206 0.8319
0.4473 -1.8109 0.8317
0.4878 -1.8003 0.8315
0.5279 -1.7888 0.8314
0.5679 -1.7763 0.8312
0.6075 -1.7630 0.8309
0.6468 -1.7487 0.8307
0.6857 -1.7336 0.8304
0.7243 -1.7176 0.8302
0.7625 -1.7007 0.8299
0.8004 -1.6830 0.8296
1.8334 -3.6424 1.8149
1.9176 -3.6061 1.8173
2.0012 -3.5681 1.8199
2.0843 -3.5285 1.8226
2.1667 -3.4871 1.8253
2.2485 -3.4441 1.8282
2.3296 -3.3994 1.8312
2.4100 -3.3530 1.8343
2.4950 -3.3122 1.8415
2.5799 -3.2699 1.8491
2.6646 -3.2259 1.8569
2.7490 -3.1802 1.8649
2.8331 -3.1328 1.8732
2.9167 -3.0836 1.8817
2.9982 -3.0307 1.8893
3.0786 -2.9757 1.8968
3.1583 -2.9189 1.9044
3.2375 -2.8603 1.9123
3.3159 -2.7999 1.9204
3.3931 -2.7374 1.9283
3.4670 -2.6711 1.9350
3.5398 -2.6031 1.9418
3.6117 -2.5333 1.9488
3.6825 -2.4619 1.9559
3.7522 -2.3887 1.9632
3.8172 -2.3117 1.9688
3.8805 -2.2330 1.9743
3.9425 -2.1526 1.9799
4.0030 -2.0708 1.9856
4.0620 -1.9874 1.9913
4.1127 -1.8994 1.9939
4.1615 -1.8101 1.9964
4.2083 -1.7196 1.9990
4.2533 -1.6280 2.0016
4.2964 -1.5353 2.0042
4.3376 -1.4414 2.0069
4.3768 -1.3465 2.0096
4.4139 -1.2506 2.0123
4.4491 -1.1538 2.0150
4.4772 -1.0549 2.0155
4.5007 -0.9548 2.0150
4.5221 -0.8542 2.0144
4.5412 -0.7531 2.0139
4.5578 -0.6515 2.0132
4.5720 -0.5496 2.0125
4.5839 -0.4474 2.0118
4.5935 -0.3449 2.0111
4.6009 -0.2423 2.0104
4.6059 -0.1395 2.0096
4.6086 -0.0366 2.0089
4.6091 0.0664 2.0082
4.6072 0.1693 2.0074
4.6029 0.2722 2.0067
4.5964 0.3749 2.0059
4.5875 0.4775 2.0051
4.5765 0.5799 2.0044
4.5633 0.6821 2.0037
4.5478 0.7839 2.0031
4.5300 0.8853 2.0024
4.5097 0.9863 2.0016
4.4858 1.0865 2.0003
4.4597 1.1861 1.9989
4.4285 1.2843 1.9962
4.3948 1.3816 1.9934
4.3561 1.4770 1.9893
4.3139 1.5708 1.9846
4.2674 1.6626 1.9788
4.2169 1.7522 1.9720
4.1743 1.8447 1.9699
4.1321 1.9373 1.9689
4.0878 2.0289 1.9679
4.0415 2.1195 1.9669
3.9932 2.2091 1.9660
3.9429 2.2975 1.9651
3.8907 2.3848 1.9642
3.8366 2.4709 1.9633
3.7806 2.5558 1.9624
3.7162 2.6349 1.9581
3.6501 2.7122 1.9538
3.5817 2.7874 1.9491
3.5123 2.8613 1.9448
3.4409 2.9331 1.9402
3.3684 3.0034 1.9358
3.2944 3.0718 1.9314
3.2198 3.1393 1.9274
3.1427 3.2037 1.9228
3.0654 3.2673 1.9188
2.9865 3.3289 1.9147
2.9106 3.3933 1.9133
2.8349 3.4580 1.9130
2.7577 3.5209 1.9128
2.6791 3.5821 1.9125
2.5992 3.6416 1.9123
2.5179 3.6992 1.9120
2.4353 3.7550 1.9118
2.3515 3.8089 1.9116
2.2665 3.8610 1.9114
2.1803 3.9111 1.9112
2.0931 3.9593 1.9110
0.8139 1.6261 0.7757
0.7774 1.6436 0.7754
0.7405 1.6603 0.7752
0.7033 1.6762 0.7749
0.6657 1.6912 0.7747
0.6278 1.7054 0.7744
0.5897 1.7188 0.7742
0.5512 1.7314 0.7740
0.5125 1.7431 0.7738
0.4736 1.7539 0.7737
0.4344 1.7639 0.7735
0.3950 1.7730 0.7734
0.3554 1.7812 0.7732
0.3157 1.7886 0.7731
0.2758 1.7951 0.7730
0.2358 1.8007 0.7729
0.1956 1.8054 0.7728
0.1554 1.8093 0.7728
0.1151 1.8123 0.7727
0.0748 1.8143 0.7727
0.0344 1.8156 0.7727
-0.0060 1.8159 0.7727
-0.0464 1.8153 0.7727
-0.0868 1.8138 0.7727
-0.1272 1.8115 0.7728
-0.1675 1.8083 0.7728
-0.2076 1.8041 0.7729
-0.2478 1.7991 0.7730
-0.2877 1.7933 0.7731
-0.3276 1.7865 0.7732
-0.3673 1.7789 0.7733
-0.4068 1.7704 0.7735
-0.4461 1.7610 0.7736
-0.4853 1.7508 0.7738
-0.5241 1.7397 0.7740
-0.5628 1.7278 0.7742
-0.6011 1.7150 0.7744
-0.6392 1.7014 0.7746
-0.6770 1.6869 0.7748
-0.7145 1.6716 0.7751
-0.7516 1.6555 0.7754
-0.7884 1.6386 0.7756
-0.8248 1.6208 0.7759
-2.1207 3.9477 1.9124
-2.2078 3.8991 1.9127
-2.2937 3.8484 1.9130
-2.3785 3.7959 1.9132
-2.4621 3.7414 1.9135
-2.5444 3.6851 1.9138
-2.6254 3.6270 1.9141
-2.7051 3.5671 1.9144
-2.7859 3.5086 1.9165
-2.8692 3.4527 1.9211
-2.9506 3.3939 1.9251
-3.0324 3.3350 1.9302
-3.1122 3.2733 1.9349
-3.1910 3.2099 1.9396
-3.2696 3.1455 1.9450
-3.3458 3.0783 1.9498
-3.4219 3.0103 1.9554
-3.4955 2.9396 1.9603
-3.5682 2.8674 1.9656
-3.6388 2.7930 1.9705
-3.7047 2.7146 1.9738
-3.7647 2.6317 1.9749
-3.8228 2.5473 1.9759
-3.8790 2.4618 1.9770
-3.9333 2.3749 1.9781
-3.9856 2.2868 1.9792
-4.0360 2.1977 1.9803
-4.0844 2.1073 1.9815
-4.1307 2.0159 1.9826
-4.1750 1.9235 1.9837
-4.2172 1.8301 1.9849
-4.2574 1.7357 1.9860
-4.2954 1.6405 1.9872
-4.3313 1.5444 1.9883
-4.3650 1.4475 1.9895
-4.3966 1.3499 1.9907
-4.4260 1.2516 1.9919
-4.4532 1.1526 1.9931
-4.4781 1.0530 1.9942
-4.5009 0.9529 1.9954
-4.5214 0.8523 1.9966
-4.5396 0.7512 1.9978
-4.5555 0.6497 1.9990
-4.5692 0.5479 2.0002
-4.5806 0.4458 2.0014
-4.5898 0.3434 2.0026
-4.5966 0.2409 2.0038
-4.6011 0.1382 2.0050
-4.6033 0.0354 2.0061
-4.6032 -0.0674 2.0073
-4.6008 -0.1702 2.0085
-4.5961 -0.2729 2.0097
-4.5891 -0.3756 2.0108
-4.5798 -0.4780 2.0120
-4.5721 -0.5808 2.0149
-4.5571 -0.6827 2.0155
-4.5359 -0.7835 2.0145
-4.5089 -0.8830 2.0117
-4.4796 -0.9818 2.0090
-4.4449 -1.0788 2.0048
-4.4042 -1.1738 1.9988
-4.3583 -1.2666 1.9913
-4.3097 -1.3576 1.9835
-4.2560 -1.4461 1.9742
-4.2006 -1.5329 1.9649
-4.1411 -1.6170 1.9544
-4.0800 -1.6992 1.9440
-4.0221 -1.7818 1.9359
-3.9681 -1.8651 1.9304
-3.9125 -1.9470 1.9249
-3.8555 -2.0275 1.9196
-3.7970 -2.1065 1.9144
-3.7372 -2.1841 1.9093
-3.6761 -2.2602 1.9043
-3.6136 -2.3348 1.8994
-3.5499 -2.4079 1.8945
-3.4849 -2.4796 1.8898
-3.4187 -2.5496 1.8852
-3.3513 -2.6181 1.8807
-3.2828 -2.6850 1.8763
-3.2132 -2.7505 1.8720
-3.1425 -2.8143 1.8678
-3.0708 -2.8765 1.8637
-2.9980 -2.9371 1.8597
-2.9243 -2.9961 1.8558
-2.8496 -3.0536 1.8520
-2.7740 -3.1094 1.8484
-2.6975 -3.1635 1.8448
-2.6202 -3.2161 1.8414
-2.5421 -3.2669 1.8380
-2.4631 -3.3162 1.8348
-2.3834 -3.3638 1.8317
-2.3030 -3.4097 1.8287
-2.2218 -3.4540 1.8258
-2.1400 -3.4966 1.8230
-2.0575 -3.5375 1.8203
-1.9728 -3.5736 1.8161
-1.8873 -3.6075 1.8119
-0.8266 -1.6702 0.8295
-0.7891 -1.6885 0.8298
-0.7511 -1.7060 0.8301
-0.7128 -1.7226 0.8304
-0.6741 -1.7384 0.8306
-0.6350 -1.7532 0.8309
-0.5956 -1.7672 0.8311
-0.5559 -1.7803 0.8313
-0.5159 -1.7924 0.8315
-0.4756 -1.8037 0.8317
-0.4351 -1.8140 0.8318
-0.3944 -1.8234 0.8320
-0.3534 -1.8319 0.8321
-0.3123 -1.8395 0.8322
-0.2710 -1.8461 0.8323
-0.2295 -1.8518 0.8324
-0.1879 -1.8565 0.8325
-0.1463 -1.8603 0.8326
-0.1045 -1.8632 0.8326
-0.0627 -1.8651 0.8326
-0.0209 -1.8660 0.8327
0.0209 -1.8660 0.8327
0.0628 -1.8651 0.8326
0.1046 -1.8632 0.8326
0.1463 -1.8603 0.8326
0.1880 -1.8565 0.8325
0.2295 -1.8518 0.8324
0.2710 -1.8461 0.8323
0.3123 -1.8394 0.8322
0.3534 -1.8319 0.8321
0.3944 -1.8234 0.8319
0.4351 -1.8139 0.8318
0.4756 -1.8036 0.8316
0.5159 -1.7923 0.8314
0.5559 -1.7802 0.8312
0.5956 -1.7671 0.8310
0.6350 -1.7531 0.8308
0.6741 -1.7382 0.8305
0.7128 -1.7225 0.8303
0.7511 -1.7059 0.8300
0.7891 -1.6884 0.8297
0.8266 -1.6700 0.8294
1.8924 -3.6172 1.8166
1.9762 -3.5797 1.8191
2.0594 -3.5405 1.8217
2.1420 -3.4997 1.8245
2.2240 -3.4572 1.8273
2.3053 -3.4130 1.8303
2.3859 -3.3671 1.8334
2.4694 -3.3246 1.8393
2.5545 -3.2828 1.8468
2.6393 -3.2393 1.8545
2.7237 -3.1941 1.8625
2.8079 -3.1472 1.8707
2.8917 -3.0986 1.8792
2.9739 -3.0469 1.8871
3.0545 -2.9924 1.8945
3.1345 -2.9361 1.9021
3.2138 -2.8780 1.9099
3.2925 -2.8183 1.9179
3.3704 -2.7567 1.9261
3.4449 -2.6912 1.9330
3.5181 -2.6236 1.9398
3.5902 -2.5544 1.9467
3.6614 -2.4835 1.9538
3.7314 -2.4108 1.9610
3.7979 -2.3350 1.9671
3.8617 -2.2568 1.9726
3.9240 -2.1769 1.9782
3.9850 -2.0955 1.9838
4.0445 -2.0126 1.9896
4.0977 -1.9260 1.9932
4.1470 -1.8370 1.9957
4.1945 -1.7469 1.9982
4.2401 -1.6556 2.0008
4.2837 -1.5632 2.0034
4.3255 -1.4697 2.0061
4.3652 -1.3751 2.0088
4.4030 -1.2795 2.0115
4.4387 -1.1830 2.0142
4.4697 -1.0848 2.0157
4.4939 -0.9849 2.0151
4.5159 -0.8844 2.0146
4.5357 -0.7834 2.0140
4.5530 -0.6820 2.0134
4.5679 -0.5802 2.0127
4.5806 -0.4781 2.0120
4.5909 -0.3757 2.0113
4.5989 -0.2731 2.0106
4.6046 -0.1703 2.0098
4.6081 -0.0675 2.0091
4.6092 0.0355 2.0084
4.6080 0.1384 2.0076
4.6045 0.2413 2.0069
4.5986 0.3441 2.0061
4.5904 0.4468 2.0053
4.5800 0.5492 2.0046
4.5675 0.6514 2.0039
4.5526 0.7534 2.0033
4.5355 0.8549 2.0026
4.5162 0.9561 2.0019
4.4932 1.0565 2.0007
4.4678 1.1564 1.9993
4.4381 1.2550 1.9970
4.4054 1.3526 1.9944
4.3679 1.4484 1.9905
4.3275 1.5430 1.9863
4.2816 1.6352 1.9805
4.2324 1.7255 1.9741
4.1866 1.8167 1.9702
4.1450 1.9096 1.9692
4.1013 2.0015 1.9682
4.0556 2.0924 1.9672
4.0079 2.1823 1.9663
3.9582 2.2711 1.9653
3.9066 2.3587 1.9644
3.8530 2.4452 1.9635
3.7976 2.5305 1.9627
3.7357 2.6114 1.9594
3.6701 2.6891 1.9551
3.6022 2.7649 1.9504
3.5334 2.8394 1.9462
3.4622 2.9115 1.9414
3.3907 2.9828 1.9373
3.3166 3.0513 1.9326
3.2423 3.1192 1.9286
3.1658 3.1843 1.9240
3.0887 3.2484 1.9200
3.0105 3.3108 1.9161
2.9330 3.3736 1.9134
2.8577 3.4387 1.9131
2.7810 3.5022 1.9129
2.7028 3.5640 1.9126
2.6233 3.6240 1.9123
2.5424 3.6821 1.9121
2.4602 3.7385 1.9119
2.3768 3.7930 1.9116
2.2921 3.8456 1.9114
2.2063 3.8963 1.9112
2.1192 3.9450 1.9110
0.8247 1.6207 0.7758
0.7884 1.6385 0.7755
0.7516 1.6554 0.7753
0.7145 1.6715 0.7750
0.6770 1.6868 0.7747
0.6392 1.7013 0.7745
0.6012 1.7149 0.7743
0.5628 1.7277 0.7741
0.5242 1.7396 0.7739
0.4853 1.7507 0.7737
0.4462 1.7609 0.7736
0.4068 1.7703 0.7734
0.3673 1.7788 0.7733
0.3276 1.7864 0.7731
0.2878 1.7932 0.7730
0.2478 1.7991 0.7729
0.2077 1.8041 0.7729
0.1675 1.8082 0.7728
0.1272 1.8115 0.7728
0.0869 1.8138 0.7727
0.0465 1.8153 0.7727
0.0061 1.8159 0.7727
-0.0343 1.8156 0.7727
-0.0747 1.8144 0.7727
-0.1151 1.8123 0.7728
-0.1554 1.8093 0.7728
-0.1956 1.8055 0.7729
-0.2357 1.8007 0.7730
-0.2758 1.7951 0.7730
-0.3156 1.7886 0.7732
-0.3554 1.7813 0.7733
-0.3950 1.7730 0.7734
-0.4344 1.7639 0.7736
-0.4735 1.7540 0.7737
-0.5125 1.7431 0.7739
-0.5512 1.7314 0.7741
-0.5897 1.7189 0.7743
-0.6278 1.7056 0.7745
-0.6657 1.6913 0.7748
-0.7033 1.6763 0.7750
-0.7405 1.6604 0.7753
-0.7774 1.6438 0.7756
-0.8139 1.6263 0.7758
-2.0944 3.9619 1.9124
-2.1818 3.9139 1.9126
-2.2681 3.8638 1.9129
-2.3532 3.8118 1.9132
-2.4371 3.7580 1.9134
-2.5198 3.7022 1.9137
-2.6012 3.6446 1.9140
-2.6813 3.5852 1.9143
-2.7608 3.5250 1.9151
-2.8442 3.4697 1.9197
-2.9263 3.4117 1.9239
-3.0079 3.3528 1.9286
-3.0886 3.2923 1.9336
-3.1672 3.2287 1.9380
-3.2466 3.1653 1.9436
-3.3227 3.0983 1.9482
-3.3993 3.0310 1.9538
-3.4732 2.9606 1.9586
-3.5469 2.8895 1.9642
-3.6175 2.8153 1.9689
-3.6864 2.7392 1.9735
-3.7469 2.6567 1.9746
-3.8055 2.5728 1.9756
-3.8623 2.4876 1.9767
-3.9172 2.4011 1.9778
-3.9701 2.3134 1.9789
-4.0211 2.2245 1.9800
-4.0701 2.1345 1.9811
-4.1170 2.0434 1.9822
-4.1619 1.9513 1.9834
-4.2048 1.8582 1.9845
-4.2456 1.7641 1.9857
-4.2842 1.6691 1.9868
-4.3208 1.5733 1.9880
-4.3552 1.4767 1.9892
-4.3874 1.3793 1.9903
-4.4174 1.2811 1.9915
-4.4453 1.1823 1.9927
-4.4709 1.0830 1.9939
-4.4943 0.9830 1.9951
-4.5154 0.8825 1.9963
-4.5344 0.7816 1.9975
-4.5510 0.6802 1.9986
-4.5654 0.5785 1.9998
-4.5774 0.4765 2.0010
-4.5873 0.3742 2.0022
-4.5948 0.2717 2.0034
-4.6000 0.1691 2.0046
-4.6029 0.0663 2.0058
-4.6035 -0.0365 2.0070
-4.6018 -0.1394 2.0081
-4.5978 -0.2421 2.0093
-4.5914 -0.3448 2.0105
-4.5828 -0.4473 2.0116
-4.5760 -0.5501 2.0146
-4.5619 -0.6521 2.0153
-4.5437 -0.7535 2.0153
-4.5172 -0.8533 2.0125
-4.4886 -0.9522 2.0098
-4.4568 -1.0501 2.0066
-4.4166 -1.1454 2.0006
-4.3725 -1.2390 1.9937
-4.3244 -1.3305 1.9858
-4.2723 -1.4198 1.9770
-4.2173 -1.5070 1.9676
-4.1592 -1.5920 1.9576
-4.0984 -1.6748 1.9471
-4.0380 -1.7565 1.9375
-3.9844 -1.8402 1.9320
-3.9293 -1.9225 1.9266
-3.8727 -2.0035 1.9212
-3.8147 -2.0829 1.9160
-3.7553 -2.1610 1.9108
-3.6946 -2.2375 1.9058
-3.6325 -2.3126 1.9008
-3.5691 -2.3861 1.8960
-3.5045 -2.4582 1.8912
-3.4387 -2.5287 1.8866
-3.3716 -2.5977 1.8820
-3.3035 -2.6651 1.8776
-3.2342 -2.7310 1.8733
-3.1638 -2.7953 1.8690
-3.0924 -2.8580 1.8649
-3.0199 -2.9191 1.8609
-2.9465 -2.9786 1.8570
-2.8721 -3.0365 1.8532
-2.7968 -3.0928 1.8495
-2.7206 -3.1475 1.8459
-2.6435 -3.2005 1.8424
-2.5656 -3.2518 1.8390
-2.4869 -3.3016 1.8358
-2.4074 -3.3497 1.8326
-2.3272 -3.3961 1.8296
-2.2463 -3.4409 1.8266
-2.1646 -3.4840 1.8238
-2.0824 -3.5254 1.8211
-1.9984 -3.5632 1.8175
-1.9129 -3.5975 1.8131
-0.8378 -1.6645 0.8294
-0.8004 -1.6831 0.8297
-0.7626 -1.7008 0.8300
-0.7243 -1.7177 0.8303
-0.6857 -1.7337 0.8305
-0.6468 -1.7488 0.8308
-0.6075 -1.7631 0.8310
-0.5678 -1.7764 0.8312
-0.5279 -1.7889 0.8314
-0.4877 -1.8004 0.8316
-0.4473 -1.8110 0.8318
-0.4066 -1.8207 0.8319
-0.3657 -1.8295 0.8321
-0.3246 -1.8373 0.8322
-0.2834 -1.8442 0.8323
-0.2420 -1.8502 0.8324
-0.2004 -1.8552 0.8325
-0.1588 -1.8593 0.8326
-0.1171 -1.8624 0.8326
-0.0753 -1.8646 0.8326
-0.0334 -1.8658 0.8327
0.0084 -1.8661 0.8327
0.0502 -1.8655 0.8326
0.0920 -1.8638 0.8326
0.1338 -1.8613 0.8326
0.1755 -1.8578 0.8325
0.2171 -1.8533 0.8324
0.2586 -1.8479 0.8323
0.2999 -1.8415 0.8322
0.3411 -1.8342 0.8321
0.3821 -1.8260 0.8320
0.4229 -1.8169 0.8318
0.4635 -1.8068 0.8317
0.5039 -1.7958 0.8315
0.5440 -1.7839 0.8313
0.5837 -1.7711 0.8311
0.6232 -1.7574 0.8308
0.6624 -1.7428 0.8306
0.7012 -1.7273 0.8303
0.7397 -1.7109 0.8301
0.7777 -1.6937 0.8298
0.8154 -1.6756 0.8295
1.8672 -3.6281 1.8159
1.9511 -3.5911 1.8183
