ply
format ascii 1.0
element vertex 1972
property float32 x
property float32 y
property float32 z
end_header
-20.3789 1.9490 -0.3612
-20.3854 1.4911 -0.3570
-20.3920 1.0343 -0.3529
-20.3697 0.5775 -0.3486
-23.3591 0.1403 -0.3954
-24.1126 -0.3938 -0.4039
-23.9685 -0.9272 -0.3974
-23.8261 -1.4552 -0.3912
-23.6853 -1.9784 -0.3853
-23.5460 -2.4974 -0.3796
-23.4080 -3.0128 -0.3741
-23.2710 -3.5252 -0.3689
-23.1351 -4.0351 -0.3639
-22.9999 -4.5430 -0.3592
-20.3810 -4.5008 -0.3161
-20.3889 -4.9826 -0.3142
-31.1995 -8.3671 -0.4780
-27.1522 -9.2706 -0.4098
-27.0790 -9.9262 -0.4070
-20.7357 -9.7795 -0.3084
-20.3842 -10.1763 -0.3028
-41.0951 -26.6139 -0.6125
-39.2174 -26.6597 -0.5862
-37.4447 -26.6963 -0.5617
-20.4566 -15.2850 -0.3082
-36.9828 -28.9425 -0.5601
-36.6559 -30.0305 -0.5585
-31.0198 -26.5926 -0.4760
-28.3934 -25.4629 -0.4391
-26.7730 -25.1108 -0.4178
-32.4475 -31.8247 -0.5114
-31.0629 -31.8584 -0.4951
-29.7345 -31.8907 -0.4797
-28.4577 -31.9218 -0.4654
-28.1442 -33.0264 -0.4671
-28.1827 -34.6084 -0.4753
-28.2235 -36.2842 -0.4844
-28.2668 -38.0644 -0.4945
-18.8168 -27.8567 -0.3436
-16.6354 -37.7151 -0.3926
7.6294 -45.7418 -0.4158
24.3305 -40.1377 -0.4705
25.0692 -39.3464 -0.4721
24.7622 -22.4069 -0.3843
24.7857 -21.4411 -0.3816
25.9071 -21.4185 -0.3960
43.1685 -23.0160 -0.6419
43.3824 -21.9002 -0.6455
25.1979 -4.5109 -0.3965
25.2120 -3.9345 -0.3998
26.0733 -3.4744 -0.4168
43.6115 -4.8228 -0.7030
9.8490 1.7945 -0.1837
44.6273 12.3303 -0.8819
44.0512 13.2370 -0.8840
26.6653 12.8238 -0.6033
25.6252 13.0361 -0.5908
25.6432 13.7747 -0.6028
27.0359 30.7975 -0.9403
26.0895 31.0936 -0.9360
8.7563 34.1042 -0.8691
-27.8402 39.0028 -1.1227
-24.2320 32.3926 -0.9435
-23.6358 30.1666 -0.8896
-23.0911 28.1526 -0.8411
-22.6049 26.3373 -0.7978
-22.1619 24.6835 -0.7585
-18.5936 19.8012 -0.6178
-21.3774 21.7700 -0.6901
-21.0327 20.4830 -0.6603
-20.7128 19.2891 -0.6329
-20.4151 18.1774 -0.6076
-20.2712 17.2532 -0.5881
-20.3450 16.5469 -0.5758
-20.1837 15.6799 -0.5575
-20.1938 14.9767 -0.5448
-20.2037 14.2957 -0.5327
-20.2132 13.6353 -0.5212
-20.2225 12.9940 -0.5102
-20.2315 12.3702 -0.4998
-20.2403 11.7626 -0.4897
-20.1862 11.1357 -0.4787
-20.2559 10.5911 -0.4710
-20.2641 10.0255 -0.4622
-20.2721 9.4719 -0.4539
-20.2799 8.9292 -0.4458
-20.2876 8.3968 -0.4381
-20.2951 7.8737 -0.4308
-20.3025 7.3592 -0.4237
-20.3098 6.8526 -0.4169
-20.3170 6.3533 -0.4104
-20.2352 5.8349 -0.4024
-20.3297 5.3734 -0.3981
-20.3366 4.8920 -0.3924
-20.3435 4.4155 -0.3869
-20.3503 3.9432 -0.3816
-20.3570 3.4747 -0.3765
-20.3637 3.0094 -0.3716
-20.3703 2.5469 -0.3670
-20.3769 2.0867 -0.3625
-20.3835 1.6283 -0.3582
-20.3900 1.1712 -0.3541
-20.3677 0.7140 -0.3497
-22.8405 0.2902 -0.3879
-24.1562 -0.2326 -0.4059
-24.0115 -0.7678 -0.3993
-23.8686 -1.2973 -0.3930
-23.7274 -1.8219 -0.3870
-23.5877 -2.3421 -0.3813
-23.4493 -2.8586 -0.3757
-23.3120 -3.3718 -0.3705
-23.1758 -3.8823 -0.3654
-23.0404 -4.3908 -0.3606
-20.9260 -4.4744 -0.3253
-20.3858 -4.8374 -0.3148
-31.1509 -8.1307 -0.4780
-26.6587 -9.5700 -0.4012
-21.0901 -9.7745 -0.3138
-20.3818 -10.0051 -0.3028
-19.4921 -11.2468 -0.2895
-41.6726 -26.5934 -0.6207
-39.7682 -26.6462 -0.5939
-37.9625 -26.6837 -0.5688
-20.6163 -15.1902 -0.3102
-20.4638 -15.7949 -0.3094
-36.9138 -29.8307 -0.5614
-36.0572 -30.4944 -0.5521
-28.6479 -25.3470 -0.4420
-27.2463 -25.2136 -0.4240
-32.8747 -31.8143 -0.5166
-31.4722 -31.8484 -0.4999
-30.1273 -31.8812 -0.4842
-28.8355 -31.9126 -0.4696
-28.1330 -32.5688 -0.4648
-28.1709 -34.1244 -0.4728
-28.2110 -35.7711 -0.4816
-28.2535 -37.5188 -0.4914
-18.3775 -28.1451 -0.3413
10.2151 -29.1330 -0.2874
24.3161 -40.7271 -0.4742
24.6944 -39.3372 -0.4687
24.7550 -22.7038 -0.3852
24.7788 -21.7270 -0.3824
25.5460 -21.4098 -0.3913
43.1596 -23.3840 -0.6418
43.1892 -22.1670 -0.6424
25.1937 -4.6846 -0.3956
25.2078 -4.1071 -0.3988
25.2218 -3.5331 -0.4022
43.6043 -5.1180 -0.7011
43.6283 -4.1353 -0.7076
9.8860 1.7329 -0.1836
9.8786 1.9600 -0.1860
44.0434 12.9135 -0.8798
25.6794 12.8478 -0.5887
25.6377 13.5512 -0.5992
25.6560 14.3030 -0.6115
26.2062 30.8109 -0.9314
26.1287 32.1481 -0.9587
8.9922 34.0731 -0.8694
-24.4241 33.1096 -0.9609
-23.8080 30.8093 -0.9051
-23.1970 28.6713 -0.8532
-22.7459 26.8638 -0.8103
-22.2907 25.1641 -0.7699
-18.4906 19.9578 -0.6198
-21.4861 22.1760 -0.6996
-21.1333 20.8588 -0.6690
-20.8064 19.6382 -0.6409
-20.5022 18.5029 -0.6150
-20.1767 17.4073 -0.5898
-20.0831 16.5587 -0.5726
-20.1805 15.8954 -0.5615
-20.1908 15.1852 -0.5486
-20.2008 14.4978 -0.5363
-20.2104 13.8314 -0.5246
-20.2197 13.1845 -0.5135
-20.2288 12.5556 -0.5029
-20.2377 11.9433 -0.4927
-20.2176 11.3304 -0.4823
-20.2534 10.7632 -0.4737
-20.2617 10.1939 -0.4648
-20.2697 9.6367 -0.4563
-20.2776 9.0909 -0.4482
-20.2853 8.5555 -0.4404
-20.2929 8.0297 -0.4329
-20.3003 7.5127 -0.4258
-20.3076 7.0038 -0.4189
-20.3148 6.5024 -0.4123
-20.2930 5.9992 -0.4054
-20.3276 5.5188 -0.3999
-20.3345 5.0359 -0.3941
-20.3414 4.5579 -0.3885
-20.3482 4.0844 -0.3831
-20.3550 3.6148 -0.3780
-20.3617 3.1487 -0.3731
-20.3683 2.6854 -0.3684
-20.3749 2.2246 -0.3638
-20.3815 1.7657 -0.3595
-20.3880 1.3082 -0.3553
-20.3056 0.8481 -0.3498
-22.8794 0.4441 -0.3898
-24.2000 -0.0709 -0.4079
-24.0547 -0.6079 -0.4012
-23.9113 -1.1390 -0.3949
-23.7696 -1.6650 -0.3888
-23.6295 -2.1865 -0.3830
-23.4907 -2.7040 -0.3774
-23.3531 -3.2181 -0.3720
-23.2165 -3.7294 -0.3669
-23.0809 -4.2385 -0.3620
-22.9461 -4.7458 -0.3573
-20.3838 -4.6928 -0.3153
-22.6781 -5.7573 -0.3486
-26.8686 -9.4426 -0.4048
-20.3794 -9.8350 -0.3029
-19.5096 -11.0833 -0.2897
-42.2817 -26.5851 -0.6294
-40.3296 -26.6326 -0.6017
-38.4989 -26.6771 -0.5762
-20.9026 -15.1861 -0.3141
-20.4607 -15.5749 -0.3089
-36.9961 -29.4896 -0.5616
-36.3133 -30.2960 -0.5548
-29.2376 -25.5215 -0.4500
-27.7303 -25.3188 -0.4304
-33.3076 -31.8037 -0.5218
-31.8866 -31.8383 -0.5048
-30.5250 -31.8715 -0.4888
-29.2177 -31.9033 -0.4739
-28.0035 -31.9832 -0.4606
-28.1593 -33.6486 -0.4703
-28.0798 -35.1182 -0.4768
-28.2405 -36.9832 -0.4883
-20.2848 -41.8703 -0.4490
24.3492 -39.3707 -0.4658
25.5742 -39.3587 -0.4768
24.7476 -23.0043 -0.3862
24.7717 -22.0161 -0.3832
25.1909 -21.4011 -0.3867
43.1804 -22.5293 -0.6422
44.4140 -21.9253 -0.6610
25.1895 -4.8587 -0.3946
25.2035 -4.2799 -0.3978
25.2176 -3.7049 -0.4011
43.5971 -5.4135 -0.6992
43.6211 -4.4297 -0.7056
9.8424 1.8843 -0.1846
44.0355 12.5914 -0.8755
44.0618 13.6706 -0.8898
26.0947 12.8377 -0.5948
25.6323 13.3294 -0.5956
25.6505 14.0754 -0.6078
26.5591 30.8052 -0.9351
26.1117 31.6909 -0.9488
-24.6228 33.8515 -0.9789
-23.9858 31.4731 -0.9212
-23.3454 29.2535 -0.8672
-22.8910 27.4054 -0.8232
-22.4229 25.6577 -0.7816
-21.9955 24.0621 -0.7439
-21.4811 22.4703 -0.7055
-21.2363 21.2433 -0.6779
-20.9019 19.9949 -0.6491
-20.5912 18.8351 -0.6226
-20.1867 17.6532 -0.5947
-20.1393 16.8330 -0.5785
-20.1774 16.1132 -0.5655
-20.1878 15.3958 -0.5524
-20.1978 14.7017 -0.5399
-20.2075 14.0292 -0.5281
-20.2170 13.3766 -0.5168
-20.2261 12.7424 -0.5060
-20.2351 12.1253 -0.4957
-20.2150 11.5076 -0.4852
-20.2509 10.9365 -0.4764
-20.2592 10.3633 -0.4674
-20.2673 9.8026 -0.4588
-20.2752 9.2535 -0.4506
-20.2830 8.7151 -0.4427
-20.2906 8.1865 -0.4351
-20.2981 7.6669 -0.4279
-20.3054 7.1557 -0.4209
-20.3127 6.6521 -0.4143
-20.2909 6.1467 -0.4073
-20.3255 5.6648 -0.4017
-20.3325 5.1802 -0.3958
-20.3394 4.7008 -0.3902
-20.3462 4.2260 -0.3847
-20.3529 3.7553 -0.3795
-20.3596 3.2882 -0.3745
-20.3663 2.8241 -0.3698
-20.3729 2.3626 -0.3652
-20.3795 1.9032 -0.3608
-20.3861 1.4453 -0.3566
-20.3926 0.9887 -0.3526
-20.3703 0.5319 -0.3482
-23.5959 0.0890 -0.3990
-24.0981 -0.4474 -0.4032
-23.9542 -0.9802 -0.3968
-23.8120 -1.5077 -0.3906
-23.6714 -2.0305 -0.3847
-23.5322 -2.5491 -0.3790
-23.3942 -3.0642 -0.3736
-23.2574 -3.5763 -0.3684
-23.1215 -4.0860 -0.3635
-22.9864 -4.5937 -0.3587
-20.3817 -4.5488 -0.3159
-22.7182 -5.6057 -0.3499
-31.2153 -8.4461 -0.4779
-27.0809 -9.3138 -0.4085
-20.6196 -9.7811 -0.3066
-20.3850 -10.2337 -0.3028
-40.9018 -26.6186 -0.6098
-39.0361 -26.6641 -0.5837
-37.2740 -26.7005 -0.5593
-20.4576 -15.3571 -0.3084
-36.9861 -29.0786 -0.5605
-36.5702 -30.0969 -0.5576
-30.9402 -26.6445 -0.4751
-28.2257 -25.4265 -0.4369
-26.6177 -25.0771 -0.4158
-32.3064 -31.8281 -0.5098
-30.9276 -31.8617 -0.4935
-29.6044 -31.8939 -0.4783
-28.3326 -31.9249 -0.4640
-28.1479 -33.1807 -0.4679
-28.1210 -34.6906 -0.4751
-28.2277 -36.4573 -0.4854
-28.2214 -38.1812 -0.4947
-18.5855 -27.6472 -0.3402
-16.5154 -37.6707 -0.3917
24.3352 -39.9439 -0.4693
25.1949 -39.3494 -0.4733
24.7646 -22.3086 -0.3840
24.8416 -21.3926 -0.3821
26.0288 -21.4215 -0.3976
43.1715 -22.8940 -0.6420
43.6366 -21.9064 -0.6493
25.1852 -5.0331 -0.3937
25.1993 -4.4531 -0.3968
25.2134 -3.8771 -0.4001
43.6139 -4.7244 -0.7037
9.8408 1.8157 -0.1838
44.2727 12.3389 -0.8762
44.0539 13.3452 -0.8855
26.5208 12.8273 -0.6012
25.6269 13.1092 -0.5920
25.6450 13.8496 -0.6041
26.9161 30.7994 -0.9390
26.0950 31.2417 -0.9392
-23.5626 39.9577 -1.1046
-21.8506 33.5351 -0.9455
-24.7296 34.4818 -0.9937
-24.1694 32.1588 -0.9378
-23.5796 29.9566 -0.8845
-23.0403 27.9630 -0.8366
-22.5587 26.1650 -0.7937
-22.1198 24.5262 -0.7548
-18.6763 19.8004 -0.6187
-21.3417 21.6367 -0.6870
-20.9996 20.3596 -0.6575
-20.6821 19.1744 -0.6303
-20.3864 18.0704 -0.6052
-20.0765 17.0104 -0.5810
-20.4398 16.5482 -0.5770
-20.1847 15.6084 -0.5562
-20.1948 14.9076 -0.5436
-20.2047 14.2288 -0.5316
-20.2142 13.5704 -0.5201
-20.2234 12.9308 -0.5092
-20.2324 12.3087 -0.4987
-20.2411 11.7027 -0.4888
-20.2484 11.1110 -0.4792
-20.2568 10.5339 -0.4701
-20.2649 9.9696 -0.4614
-20.2729 9.4171 -0.4530
-20.2807 8.8756 -0.4450
-20.2883 8.3441 -0.4374
-20.2959 7.8219 -0.4300
-20.3033 7.3082 -0.4230
-20.3105 6.8024 -0.4162
-20.2289 6.2762 -0.4079
-20.2373 5.7866 -0.4018
-20.3304 5.3250 -0.3975
-20.3373 4.8441 -0.3918
-20.3441 4.3680 -0.3863
-20.3509 3.8961 -0.3811
-20.3577 3.4280 -0.3760
-20.3643 2.9630 -0.3712
-20.3709 2.5008 -0.3665
-20.3775 2.0407 -0.3621
-20.3841 1.5826 -0.3578
-20.3907 1.1256 -0.3537
-20.3684 0.6685 -0.3493
-22.8997 0.2399 -0.3885
-24.1417 -0.2864 -0.4052
-23.9972 -0.8210 -0.3987
-23.8545 -1.3500 -0.3924
-23.7134 -1.8741 -0.3864
-23.5738 -2.3940 -0.3807
-23.4355 -2.9100 -0.3752
-23.2983 -3.4230 -0.3699
-23.1622 -3.9333 -0.3649
-23.0269 -4.4416 -0.3601
-20.7136 -4.4774 -0.3217
-20.3865 -4.8857 -0.3146
-31.1671 -8.2095 -0.4780
-26.5896 -9.6122 -0.4000
-20.9709 -9.7761 -0.3120
-20.3826 -10.0620 -0.3028
-41.4756 -26.5982 -0.6179
-39.5834 -26.6507 -0.5913
-37.7887 -26.6879 -0.5664
-20.5220 -15.1915 -0.3089
-36.9762 -28.6720 -0.5594
-36.8277 -29.8974 -0.5604
-31.1793 -26.4888 -0.4777
-28.6167 -25.4336 -0.4419
-27.0871 -25.1791 -0.4219
-32.7318 -31.8178 -0.5148
-31.3352 -31.8518 -0.4983
-29.9959 -31.8844 -0.4827
-28.7091 -31.9157 -0.4682
-28.1367 -32.7205 -0.4655
-28.1748 -34.2848 -0.4736
-28.2151 -35.9410 -0.4825
-28.2579 -37.6995 -0.4924
-18.3405 -28.2260 -0.3414
7.4137 -45.7060 -0.4148
10.2810 -29.1125 -0.2876
24.3209 -40.5294 -0.4730
24.8189 -39.3403 -0.4698
24.7574 -22.6044 -0.3849
24.7811 -21.6313 -0.3821
25.6658 -21.4127 -0.3928
43.1626 -23.2611 -0.6418
43.1921 -22.0468 -0.6425
25.1951 -4.6267 -0.3959
25.2092 -4.0495 -0.3991
25.2231 -3.4759 -0.4025
43.6067 -5.0196 -0.7017
43.6306 -4.0373 -0.7083
9.8653 1.7520 -0.1835
44.0460 13.0211 -0.8812
25.6216 12.8906 -0.5885
25.6395 13.6256 -0.6004
25.6579 14.3793 -0.6128
27.2771 30.7936 -0.9429
26.0893 30.8128 -0.9301
26.1345 32.3024 -0.9620
8.8989 34.0277 -0.8679
-24.3593 32.8678 -0.9550
-23.7500 30.5926 -0.8999
-23.1462 28.4783 -0.8486
-22.6985 26.6866 -0.8061
-22.2474 25.0023 -0.7661
-18.5039 19.8828 -0.6184
-21.4496 22.0395 -0.6964
-21.0995 20.7324 -0.6661
-20.7750 19.5210 -0.6382
-20.4730 18.3937 -0.6125
-20.0807 17.2464 -0.5856
-20.1570 16.5442 -0.5732
-20.1816 15.8233 -0.5602
-20.1918 15.1155 -0.5473
-20.2017 14.4302 -0.5351
-20.2114 13.7659 -0.5235
-20.2207 13.1208 -0.5124
-20.2297 12.4936 -0.5018
-20.2386 11.8829 -0.4917
-20.2184 11.2715 -0.4814
-20.2543 10.7057 -0.4728
-20.2625 10.1376 -0.4640
-20.2705 9.5816 -0.4555
-20.2783 9.0369 -0.4474
-20.2861 8.5025 -0.4396
-20.2936 7.9776 -0.4322
-20.3011 7.4614 -0.4251
-20.3084 6.9534 -0.4182
-20.3156 6.4527 -0.4117
-20.2937 5.9501 -0.4048
-20.3283 5.4703 -0.3993
-20.3352 4.9879 -0.3935
-20.3421 4.5104 -0.3880
-20.3489 4.0373 -0.3826
-20.3556 3.5681 -0.3775
-20.3623 3.1022 -0.3726
-20.3690 2.6392 -0.3679
-20.3756 2.1786 -0.3634
-20.3821 1.7198 -0.3591
-20.3887 1.2625 -0.3549
-20.3664 0.8051 -0.3505
-22.8664 0.3927 -0.3892
-24.1854 -0.1249 -0.4072
-24.0403 -0.6613 -0.4006
-23.8971 -1.1919 -0.3943
-23.7555 -1.7174 -0.3882
-23.6155 -2.2385 -0.3824
-23.4769 -2.7555 -0.3768
-23.3394 -3.2693 -0.3715
-23.2029 -3.7804 -0.3664
-23.0674 -4.2892 -0.3615
-22.9326 -4.7964 -0.3569
-20.3845 -4.7409 -0.3151
-22.6647 -5.8078 -0.3482
-26.7984 -9.4853 -0.4036
-20.3801 -9.8916 -0.3029
-19.4913 -11.1306 -0.2894
-42.0708 -26.5837 -0.6264
-40.1413 -26.6372 -0.5991
-38.3220 -26.6815 -0.5738
-20.8066 -15.1875 -0.3128
-20.4617 -15.6479 -0.3091
-36.9995 -29.6276 -0.5620
-36.2279 -30.3622 -0.5539
-28.7103 -25.1744 -0.4422
-27.3996 -25.1294 -0.4256
-33.1626 -31.8073 -0.5200
-31.7478 -31.8417 -0.5031
-30.3918 -31.8747 -0.4873
-29.0897 -31.9064 -0.4724
-28.1257 -32.2679 -0.4633
-28.1631 -33.8064 -0.4711
-28.0839 -35.2847 -0.4777
-28.2448 -37.1608 -0.4893
-20.1672 -41.8656 -0.4481
24.4464 -39.3312 -0.4664
24.7501 -22.9038 -0.3859
24.7741 -21.9194 -0.3829
25.3086 -21.4040 -0.3882
43.1833 -22.4081 -0.6423
25.1909 -4.8006 -0.3950
25.2050 -4.2222 -0.3981
25.2190 -3.6476 -0.4015
43.5995 -5.3149 -0.6998
43.6235 -4.3315 -0.7063
9.9601 1.7001 -0.1845
9.8534 1.9093 -0.1850
44.0381 12.6987 -0.8769
44.0644 13.7794 -0.8913
25.9551 12.8411 -0.5928
25.6341 13.4031 -0.5968
25.6523 14.1511 -0.6090
26.4411 30.8071 -0.9339
26.1174 31.8423 -0.9521
-24.5558 33.6015 -0.9729
-23.9259 31.2495 -0.9158
-23.3124 29.0788 -0.8631
-22.8422 27.2232 -0.8189
-22.3784 25.4917 -0.7777
-21.9548 23.9101 -0.7403
-21.5578 22.4498 -0.7060
-21.2017 21.1140 -0.6749
-20.8698 19.8750 -0.6463
-20.5613 18.7235 -0.6200
-20.2318 17.6130 -0.5945
-20.1404 16.7576 -0.5771
-20.1784 16.0403 -0.5641
-20.1888 15.3253 -0.5511
-20.1988 14.6335 -0.5387
-20.2085 13.9630 -0.5269
-20.2179 13.3123 -0.5157
-20.2270 12.6800 -0.5049
-20.2359 12.0645 -0.4947
-20.2159 11.4484 -0.4842
-20.2518 10.8786 -0.4755
-20.2600 10.3067 -0.4666
-20.2681 9.7472 -0.4580
-20.2760 9.1992 -0.4498
-20.2838 8.6618 -0.4419
-20.2914 8.1341 -0.4344
-20.2988 7.6154 -0.4272
-20.3062 7.1050 -0.4203
-20.3134 6.6021 -0.4136
-20.2916 6.0974 -0.4067
-20.3262 5.6160 -0.4011
-20.3332 5.1320 -0.3952
-20.3401 4.6531 -0.3896
-20.3469 4.1788 -0.3842
-20.3536 3.7084 -0.3790
-20.3603 3.2416 -0.3740
-20.3670 2.7779 -0.3693
-20.3736 2.3166 -0.3647
-20.3802 1.8573 -0.3603
-20.3867 1.3996 -0.3562
-20.3933 0.9431 -0.3522
-20.3710 0.4864 -0.3478
-23.8373 0.0367 -0.4026
-24.0836 -0.5010 -0.4026
-23.9399 -1.0332 -0.3961
-23.7978 -1.5602 -0.3900
-23.6574 -2.0826 -0.3841
-23.5183 -2.6008 -0.3785
-23.3805 -3.1156 -0.3731
-23.2438 -3.6274 -0.3679
-23.1080 -4.1368 -0.3630
-22.9730 -4.6444 -0.3583
-20.3824 -4.5968 -0.3157
-22.7048 -5.6562 -0.3495
-27.0099 -9.3569 -0.4073
-20.5047 -9.7828 -0.3048
-20.3858 -10.2911 -0.3027
-19.6557 -11.0505 -0.2918
-40.7097 -26.6233 -0.6071
-38.8558 -26.6685 -0.5812
-21.0963 -15.1834 -0.3167
-20.4586 -15.4295 -0.3085
-36.9894 -29.2152 -0.5608
-36.4844 -30.1634 -0.5567
-29.2973 -25.3440 -0.4502
-28.0593 -25.3903 -0.4347
-33.5994 -31.7966 -0.5253
-32.1659 -31.8315 -0.5081
-30.7928 -31.8650 -0.4919
-29.4751 -31.8970 -0.4768
-28.2081 -31.9279 -0.4626
-28.1517 -33.3358 -0.4687
-28.0718 -34.7885 -0.4750
-28.2319 -36.6316 -0.4864
-28.1566 -38.2721 -0.4945
-18.5319 -27.7010 -0.3400
-16.4306 -37.7059 -0.3914
24.3399 -39.7516 -0.4681
25.3209 -39.3525 -0.4745
24.7670 -22.2107 -0.3837
24.9575 -21.3954 -0.3836
43.1745 -22.7721 -0.6421
43.8935 -21.9126 -0.6532
25.1866 -4.9749 -0.3940
25.2007 -4.3954 -0.3971
25.2148 -3.8197 -0.4004
43.6163 -4.6262 -0.7043
9.8326 1.8369 -0.1839
44.0303 12.3774 -0.8727
44.0565 13.4535 -0.8869
26.3774 12.8308 -0.5990
25.6287 13.1825 -0.5932
25.6468 13.9247 -0.6053
26.7966 30.8013 -0.9377
26.1005 31.3906 -0.9424
-23.6218 39.8543 -1.1027
-21.9448 33.5156 -0.9459
-24.7080 34.2896 -0.9893
-24.1075 31.9276 -0.9322
-23.5240 29.7489 -0.8795
-22.9900 27.7752 -0.8321
-22.5130 25.9942 -0.7896
-22.0780 24.3699 -0.7511
-21.6287 22.8281 -0.7145
-21.3063 21.5046 -0.6840
-20.9668 20.2372 -0.6547
-20.6516 19.0605 -0.6277
-20.3579 17.9641 -0.6028
-20.1127 16.9641 -0.5806
-20.1753 16.2597 -0.5682
-20.1857 15.5373 -0.5549
-20.1958 14.8387 -0.5424
-20.2056 14.1620 -0.5304
-20.2151 13.5056 -0.5190
-20.2243 12.8678 -0.5081
-20.2333 12.2474 -0.4977
-20.1549 11.5928 -0.4857
-20.2493 11.0527 -0.4783
-20.2576 10.4769 -0.4692
-20.2657 9.9138 -0.4605
-20.2737 9.3624 -0.4522
-20.2814 8.8219 -0.4443
-20.2891 8.2914 -0.4366
-20.2966 7.7702 -0.4293
-20.3040 7.2573 -0.4223
-20.3113 6.7522 -0.4156
-20.2309 6.2273 -0.4074
-20.5048 5.8136 -0.4065
-20.3311 5.2767 -0.3970
-20.3380 4.7963 -0.3913
-20.3448 4.3207 -0.3858
-20.3516 3.8492 -0.3805
-20.3583 3.3814 -0.3755
-20.3650 2.9167 -0.3707
-20.3716 2.4547 -0.3661
-20.3782 1.9949 -0.3616
-20.3848 1.5368 -0.3574
-20.3913 1.0799 -0.3533
-20.3690 0.6229 -0.3490
-23.1275 0.1905 -0.3919
-24.1271 -0.3402 -0.4045
-23.9828 -0.8742 -0.3980
-23.8403 -1.4026 -0.3918
-23.6994 -1.9263 -0.3858
-23.5599 -2.4457 -0.3801
-23.4217 -2.9614 -0.3747
-23.2847 -3.4741 -0.3694
-23.1486 -3.9842 -0.3644
-23.0134 -4.4923 -0.3597
-20.4695 -4.4725 -0.3177
-20.3872 -4.9340 -0.3144
-31.1834 -8.2882 -0.4780
-26.6943 -9.7176 -0.4014
-20.8526 -9.7778 -0.3102
-20.3834 -10.1192 -0.3028
-41.2799 -26.6029 -0.6151
-39.3999 -26.6552 -0.5887
-37.6161 -26.6921 -0.5640
-20.4556 -15.2132 -0.3080
-36.9795 -28.8070 -0.5597
-36.7418 -29.9639 -0.5595
-31.0995 -26.5407 -0.4768
-28.5854 -25.5202 -0.4417
-26.9295 -25.1448 -0.4199
-32.5892 -31.8212 -0.5131
-31.1986 -31.8551 -0.4967
-29.8647 -31.8876 -0.4812
-28.5830 -31.9188 -0.4668
-28.1404 -32.8733 -0.4663
-28.1787 -34.4463 -0.4745
-28.2193 -36.1123 -0.4835
-28.2624 -37.8813 -0.4934
7.5140 -45.6772 -0.4149
10.3679 -29.1510 -0.2884
24.3257 -40.3326 -0.4717
24.9440 -39.3433 -0.4710
24.7598 -22.5054 -0.3846
24.7834 -21.5360 -0.3818
25.7861 -21.4156 -0.3944
43.1655 -23.1385 -0.6419
43.1951 -21.9268 -0.6426
25.1965 -4.5687 -0.3962
25.2106 -3.9919 -0.3994
25.5408 -3.4614 -0.4079
43.6091 -4.9210 -0.7024
43.9214 -3.9651 -0.7137
9.8572 1.7733 -0.1836
44.9863 12.3216 -0.8876
44.0486 13.1292 -0.8826
26.8111 12.8203 -0.6055
25.6234 12.9633 -0.5897
25.6413 13.7000 -0.6016
25.6597 14.4557 -0.6141
27.1563 30.7955 -0.9416
26.0840 30.9464 -0.9329
8.8192 34.0331 -0.8677
-24.2953 32.6289 -0.9492
-23.6926 30.3785 -0.8947
-23.0799 28.2675 -0.8434
-22.6515 26.5111 -0.8019
-22.2045 24.8422 -0.7623
-18.5326 19.8247 -0.6176
-21.4133 21.9042 -0.6933
-21.0659 20.6072 -0.6632
-20.7438 19.4045 -0.6356
-20.4439 18.2850 -0.6101
-20.2016 17.2719 -0.5876
-20.2509 16.5456 -0.5745
-20.1826 15.7514 -0.5588
-20.1928 15.0459 -0.5461
-20.2027 14.3629 -0.5339
-20.2123 13.7005 -0.5224
-20.2216 13.0573 -0.5113
-20.2306 12.4318 -0.5008
-20.2394 11.8227 -0.4907
-20.1596 11.1798 -0.4790
-20.2551 10.6483 -0.4719
-20.2633 10.0815 -0.4631
-20.2713 9.5267 -0.4547
-20.2791 8.9830 -0.4466
-20.2868 8.4496 -0.4389
-20.2944 7.9256 -0.4315
-20.3018 7.4103 -0.4244
-20.3091 6.9029 -0.4176
-20.3163 6.4029 -0.4110
-20.2944 5.9011 -0.4042
-20.3290 5.4218 -0.3987
-20.3359 4.9399 -0.3929
-20.3428 4.4629 -0.3874
-20.3496 3.9903 -0.3821
-20.3563 3.5214 -0.3770
-20.3630 3.0558 -0.3721
-20.3696 2.5931 -0.3674
-20.3762 2.1326 -0.3629
-20.3828 1.6741 -0.3586
-20.3894 1.2169 -0.3545
-20.3670 0.7595 -0.3501
-22.8535 0.3414 -0.3885
-24.1708 -0.1788 -0.4065
-24.0259 -0.7146 -0.4000
-23.8828 -1.2447 -0.3936
-23.7415 -1.7697 -0.3876
-23.6016 -2.2904 -0.3818
-23.4630 -2.8071 -0.3763
-23.3257 -3.3206 -0.3710
-23.1893 -3.8315 -0.3659
-23.0539 -4.3401 -0.3611
-22.9192 -4.8471 -0.3564
-20.3851 -4.7892 -0.3149
-22.6514 -5.8583 -0.3478
-26.7284 -9.5277 -0.4024
-20.3810 -9.9483 -0.3028
-19.4730 -11.1779 -0.2892
-41.8708 -26.5885 -0.6235
-39.9539 -26.6417 -0.5965
-38.0922 -26.6481 -0.5705
-20.7111 -15.1888 -0.3115
-20.4628 -15.7214 -0.3092
-37.0000 -29.7639 -0.5624
-36.1426 -30.4283 -0.5530
-28.6792 -25.2606 -0.4421
-27.4063 -25.2484 -0.4261
-33.0183 -31.8108 -0.5183
-31.6097 -31.8451 -0.5015
-30.2593 -31.8780 -0.4858
-28.9624 -31.9095 -0.4710
-28.1293 -32.4180 -0.4640
-28.1670 -33.9650 -0.4719
-28.2069 -35.6021 -0.4807
-28.2492 -37.3393 -0.4903
-18.4678 -28.1460 -0.3421
-20.0901 -41.9448 -0.4481
10.1565 -29.1688 0.4082
17.5068 -38.7419 0.5505
17.0751 -33.6902 0.4832
24.3115 -40.9181 0.5965
24.5755 -39.3343 0.5770
24.7527 -22.7977 0.3724
24.7766 -21.8172 0.3609
25.4343 -21.4070 0.3589
43.1568 -23.4985 0.4650
43.1865 -22.2788 0.4521
7.7406 -2.0005 0.0610
48.3819 -11.3574 0.3704
48.4111 -10.2291 0.3601
25.1924 -4.7380 0.1821
25.2065 -4.1601 0.1769
25.2205 -3.5857 0.1719
43.6021 -5.2085 0.2885
43.6261 -4.2255 0.2801
48.4830 -3.6050 0.3020
48.5009 -2.5187 0.2930
48.4745 -1.4328 0.2839
48.4482 -0.3495 0.2749
48.4219 0.7323 0.2661
48.3882 1.8133 0.2574
48.3590 2.8950 0.2488
48.3297 3.9782 0.2404
48.3004 5.0641 0.2321
48.2709 6.1537 0.2238
9.9185 1.7176 0.0427
9.8644 1.9361 0.0409
44.0410 12.8143 0.1546
44.0673 13.8967 0.1478
25.8067 12.8447 0.0587
25.6360 13.4824 0.0544
25.6543 14.2323 0.0504
26.2933 30.7811 -0.0198
26.0859 31.9568 -0.0250
16.7199 28.6516 -0.0437
15.0467 34.0071 -0.0642
14.7536 35.4648 -0.0690
14.3440 36.7755 -0.0735
13.9109 38.1616 -0.0782
13.4407 39.5986 -0.0830
12.9529 41.1598 -0.0881
12.4327 42.8246 -0.0933
11.8339 44.4464 -0.0985
11.2748 46.4999 -0.1045
10.6316 48.5584 -0.1106
-24.5349 33.4234 -0.0349
-23.9084 31.0897 -0.0287
-23.2292 28.8494 -0.0231
-22.8299 27.0919 -0.0180
-22.3681 25.3716 -0.0132
-21.9461 23.7997 -0.0087
-21.5529 22.3503 -0.0045
-21.1956 21.0194 -0.0006
-20.8647 19.7868 0.0031
-20.5572 18.6409 0.0067
-20.2284 17.5357 0.0101
-20.1503 16.6946 0.0134
-20.1882 15.9793 0.0168
-20.1983 15.2662 0.0201
-20.2082 14.5761 0.0234
-20.2177 13.9073 0.0267
-20.2270 13.2581 0.0299
-20.2360 12.6270 0.0331
-20.2448 12.0128 0.0363
-20.2246 11.3979 0.0394
-20.2604 10.8292 0.0426
-20.2685 10.2582 0.0457
-20.2765 9.6997 0.0489
-20.2843 9.1525 0.0520
-20.2920 8.6158 0.0552
-20.2995 8.0888 0.0583
-20.3069 7.5707 0.0614
-20.3142 7.0608 0.0646
-20.3214 6.5584 0.0678
-20.2995 6.0543 0.0709
-20.3341 5.5732 0.0742
-20.3410 5.0895 0.0774
-20.3478 4.6109 0.0807
-20.3546 4.1368 0.0840
-20.3613 3.6667 0.0873
-20.3680 3.2000 0.0906
-20.3746 2.7363 0.0940
-20.3812 2.2751 0.0975
-20.3878 1.8158 0.1009
-20.3943 1.3581 0.1044
-20.4009 0.9015 0.1080
-20.3183 0.4435 0.1111
-20.4127 -0.0105 0.1153
-20.4193 -0.4666 0.1190
-20.4258 -0.9236 0.1228
-20.4324 -1.3817 0.1267
-20.4390 -1.8415 0.1306
-20.4456 -2.3035 0.1346
-20.4522 -2.7681 0.1387
-20.4589 -3.2358 0.1429
-20.4657 -3.7072 0.1472
-20.4725 -4.1827 0.1516
-20.4506 -4.6563 0.1558
-20.4854 -5.1481 0.1606
-20.4924 -5.6393 0.1653
-20.4996 -6.1369 0.1701
-20.5068 -6.6416 0.1750
-20.5141 -7.1540 0.1801
-20.5216 -7.6749 0.1853
-20.5292 -8.2049 0.1907
-20.5370 -8.7449 0.1962
-20.5449 -9.2956 0.2020
-20.5529 -9.8581 0.2079
-20.5598 -10.4325 0.2139
-20.5683 -11.0212 0.2203
-19.5682 -11.0548 0.2157
-20.5858 -12.2441 0.2336
-20.5950 -12.8808 0.2406
-20.6044 -13.5361 0.2479
-20.6141 -14.2116 0.2555
-20.6241 -14.9089 0.2634
-20.6050 -15.6074 0.2713
-20.6438 -16.3750 0.2803
-20.6549 -17.1492 0.2893
-20.6665 -17.9535 0.2987
-20.6785 -18.7906 0.3086
-20.6910 -19.6635 0.3191
-20.7041 -20.5753 0.3300
-19.0313 -19.7772 0.3138
-18.2179 -19.7985 0.3110
-19.4132 -22.0670 0.3431
-19.4106 -23.0840 0.3555
-18.5601 -23.1009 0.3528
-19.5175 -25.4360 0.3852
-19.5397 -26.6781 0.4009
-18.6538 -26.6997 0.3982
-18.5533 -27.8613 0.4127
-20.8779 -32.9232 0.4844
-20.9028 -34.6501 0.5066
-20.9296 -36.5144 0.5308
-20.9574 -38.5331 0.5570
-20.9891 -40.7334 0.5857
-16.3745 -37.8002 0.5360
17.2603 -44.1025 0.6209
17.1926 -38.7362 0.5497
17.0652 -34.2378 0.4904
17.6576 -33.5288 0.4826
24.3447 -39.5524 0.5791
25.4529 -39.3557 0.5799
24.7695 -22.1074 0.3643
25.0810 -21.3984 0.3573
43.1777 -22.6419 0.4559
44.1713 -21.9194 0.4532
7.6097 -2.0211 0.0605
48.3731 -11.6979 0.3736
48.4024 -10.5666 0.3632
25.1882 -4.9122 0.1836
25.2023 -4.3330 0.1785
25.2163 -3.7577 0.1734
43.5949 -5.5042 0.2910
43.6189 -4.5201 0.2826
48.4459 -3.9289 0.3046
48.5089 -2.8452 0.2958
48.4824 -1.7582 0.2866
48.4561 -0.6743 0.2776
48.4298 0.4078 0.2687
48.3077 1.4863 0.2595
48.3677 2.5703 0.2514
48.3385 3.6530 0.2429
48.3092 4.7380 0.2345
48.2798 5.8264 0.2263
48.1613 6.9066 0.2178
9.8312 1.8612 0.0412
48.0161 12.4710 0.1784
44.0331 12.4926 0.1567
44.0594 13.5703 0.1499
26.2253 12.8345 0.0609
25.6306 13.2611 0.0555
25.6488 14.0053 0.0516
26.6447 30.7725 -0.0185
26.0750 31.5101 -0.0234
16.8871 28.4978 -0.0428
15.1586 33.6489 -0.0629
14.8722 35.0850 -0.0677
14.4693 36.3747 -0.0722
14.0435 37.7375 -0.0768
13.5659 39.1048 -0.0815
13.1025 40.6811 -0.0865
12.5924 42.3135 -0.0917
12.0472 44.0582 -0.0971
11.4585 45.9120 -0.1028
10.8297 47.9243 -0.1087
-23.6694 39.7405 -0.0587
-24.6571 34.0660 -0.0367
-24.0892 31.7629 -0.0305
-23.5086 29.6004 -0.0248
-22.9772 27.6404 -0.0195
-22.5022 25.8711 -0.0146
-22.0689 24.2569 -0.0100
-21.6210 22.7237 -0.0058
-21.2999 21.4077 -0.0017
-20.9614 20.1470 0.0020
-20.6472 18.9762 0.0056
-20.3543 17.8851 0.0091
-20.1470 16.9209 0.0124
-20.1850 16.1980 0.0158
-20.1953 15.4776 0.0191
-20.2053 14.7808 0.0224
-20.2149 14.1058 0.0257
-20.2242 13.4508 0.0289
-20.2333 12.8145 0.0321
-20.2421 12.1954 0.0353
-20.1879 11.5562 0.0383
-20.2579 11.0030 0.0416
-20.2661 10.4282 0.0448
-20.2741 9.8660 0.0479
-20.2820 9.3155 0.0511
-20.2897 8.7757 0.0542
-20.2973 8.2459 0.0574
-20.3047 7.7252 0.0605
-20.3120 7.2130 0.0637
-20.3192 6.7084 0.0668
-20.2630 6.1915 0.0698
-20.3320 5.7194 0.0732
-20.3389 5.2341 0.0765
-20.3458 4.7540 0.0797
-20.3526 4.2786 0.0830
-20.3593 3.8073 0.0863
-20.3660 3.3397 0.0896
-20.3726 2.8751 0.0930
-20.3792 2.4132 0.0964
-20.3858 1.9534 0.0999
-20.3924 1.4953 0.1034
-20.3989 1.0383 0.1069
-20.3766 0.5814 0.1104
-20.4108 0.1263 0.1142
-20.4173 -0.3297 0.1179
-20.4239 -0.7864 0.1217
-20.4304 -1.2441 0.1255
-20.4370 -1.7034 0.1294
-20.4436 -2.1646 0.1334
-20.4502 -2.6284 0.1375
-20.4569 -3.0952 0.1417
-20.4637 -3.5654 0.1459
-20.4705 -4.0396 0.1502
-20.3882 -4.4986 0.1540
-20.3961 -4.9806 0.1585
-20.4903 -5.4913 0.1639
-20.4974 -5.9869 0.1686
-20.5046 -6.4894 0.1735
-20.5119 -6.9995 0.1786
-20.5193 -7.5177 0.1838
-20.5269 -8.0449 0.1891
-20.5346 -8.5818 0.1946
-20.5425 -9.1292 0.2002
-20.5505 -9.6880 0.2061
-20.5294 -10.2446 0.2118
-20.5657 -10.8431 0.2183
-20.5743 -11.4420 0.2248
-20.5831 -12.0565 0.2315
-20.5922 -12.6879 0.2385
-20.6015 -13.3375 0.2457
-20.6111 -14.0067 0.2532
-20.6210 -14.6973 0.2610
-20.6019 -15.3889 0.2688
-20.6405 -16.1483 0.2776
-20.6515 -16.9139 0.2865
-20.6629 -17.7090 0.2958
-20.6748 -18.5359 0.3056
-20.6872 -19.3977 0.3159
-20.7001 -20.2975 0.3267
-19.3592 -19.8500 0.3159
-18.4575 -19.7911 0.3117
-19.4287 -21.7885 0.3398
-19.4539 -22.8233 0.3526
-18.8468 -23.1385 0.3543
-18.2083 -23.4033 0.3553
-19.5387 -26.3051 0.3962
-18.9478 -26.7371 0.3997
-20.8495 -30.8592 0.4580
-20.8709 -32.4294 0.4781
-20.8951 -34.1184 0.4998
-20.9213 -35.9396 0.5233
-20.9485 -37.9091 0.5489
-20.9793 -40.0530 0.5768
-20.9845 -42.3375 0.6066
-16.6411 -37.7206 0.5356
7.6311 -45.7435 0.6285
16.9625 -44.2123 0.6218
16.9802 -38.9597 0.5522
17.3689 -33.5236 0.4818
24.3307 -40.1295 0.5865
25.0746 -39.3465 0.5786
24.7623 -22.4009 0.3677
24.7859 -21.4352 0.3565
25.9147 -21.4187 0.3611
43.1688 -23.0073 0.4598
43.4007 -21.9006 0.4491
7.7370 -2.1106 0.0620
48.3643 -12.0393 0.3767
48.3936 -10.9049 0.3663
25.1839 -5.0867 0.1852
25.1980 -4.5063 0.1800
25.2121 -3.9299 0.1749
26.1172 -3.4755 0.1759
43.6117 -4.8149 0.2851
48.5514 -4.2650 0.3080
48.5168 -3.1720 0.2986
48.4903 -2.0840 0.2893
48.4640 -0.9992 0.2803
48.4377 0.0833 0.2714
48.4114 1.1648 0.2626
48.3765 2.2459 0.2539
48.3473 3.3280 0.2454
48.3180 4.4122 0.2370
48.2886 5.4994 0.2288
48.2591 6.5909 0.2206
9.8475 1.7961 0.0418
48.1409 12.1597 0.1811
44.5994 12.3310 0.1608
44.0514 13.2454 0.1519
26.6547 12.8241 0.0631
25.6253 13.0414 0.0567
25.6433 13.7800 0.0528
27.0000 30.7638 -0.0172
26.0643 31.0709 -0.0218
17.2062 28.5975 -0.0422
16.5993 29.0377 -0.0453
15.4629 33.7191 -0.0624
14.9889 34.7114 -0.0663
14.5924 35.9805 -0.0708
14.1738 37.3205 -0.0754
13.7305 38.7390 -0.0802
13.2492 40.2114 -0.0850
12.7489 41.8126 -0.0901
12.2147 43.5223 -0.0955
8.7542 34.1021 -0.0760
11.0233 47.3046 -0.1069
-23.5224 40.1024 -0.0602
-21.7640 33.5731 -0.0443
-27.8360 39.0057 -0.0433
-24.2759 32.4587 -0.0323
-23.6764 30.2253 -0.0264
-23.1287 28.2051 -0.0210
-22.6400 26.3845 -0.0160
-22.1949 24.7262 -0.0114
-18.5885 19.8007 -0.0060
-21.4066 21.8053 -0.0029
-21.0603 20.5152 0.0009
-20.7391 19.3186 0.0046
-20.4400 18.2046 0.0081
-20.2669 17.2544 0.0115
-20.1819 16.4190 0.0148
-20.1923 15.6912 0.0181
-20.2023 14.9875 0.0214
-20.2120 14.3061 0.0247
-20.2215 13.6453 0.0280
-20.2306 13.0035 0.0312
-20.2395 12.3794 0.0344
-20.2482 11.7715 0.0375
-20.1785 11.1356 0.0405
-20.2637 10.5993 0.0438
-20.2717 10.0334 0.0470
-20.2796 9.4795 0.0501
-20.2874 8.9365 0.0533
-20.2950 8.4039 0.0564
-20.3025 7.8805 0.0596
-20.3098 7.3658 0.0627
-20.3171 6.8590 0.0659
-20.3242 6.3594 0.0691
-20.2423 5.8408 0.0719
-20.3368 5.3791 0.0755
-20.3437 4.8975 0.0787
-20.3505 4.4208 0.0820
-20.3573 3.9483 0.0853
-20.3640 3.4796 0.0886
-20.3706 3.0142 0.0920
-20.3773 2.5515 0.0954
-20.3839 2.0911 0.0988
-20.3904 1.6326 0.1023
-20.3969 1.1753 0.1059
-20.3746 0.7180 0.1093
-20.4088 0.2630 0.1131
-20.4154 -0.1929 0.1168
-20.4219 -0.6493 0.1205
-20.4285 -1.1066 0.1244
-20.4350 -1.5654 0.1283
-20.4416 -2.0260 0.1322
-20.4482 -2.4890 0.1363
-20.4549 -2.9548 0.1404
-20.4616 -3.4239 0.1446
-20.4684 -3.8969 0.1489
-20.4753 -4.3742 0.1533
-20.4534 -4.8496 0.1576
-20.4882 -5.3438 0.1624
-20.4953 -5.8375 0.1672
-20.5024 -6.3379 0.1721
-20.5097 -6.8456 0.1770
-20.5171 -7.3613 0.1822
-20.5246 -7.8857 0.1875
-20.5323 -8.4196 0.1929
-20.5401 -8.9638 0.1985
-20.5481 -9.5191 0.2043
-20.5270 -10.0722 0.2100
-20.5632 -10.6662 0.2164
-20.5717 -11.2607 0.2228
-19.4868 -11.2397 0.2173
-20.5894 -12.4967 0.2363
-20.5987 -13.1406 0.2435
-20.6082 -13.8038 0.2509
-20.6180 -14.4878 0.2586
-20.6282 -15.1943 0.2667
-20.6373 -15.9240 0.2750
-20.6482 -16.6813 0.2838
-20.6595 -17.4672 0.2930
-20.6712 -18.2843 0.3026
-20.6834 -19.1353 0.3127
-20.6962 -20.0233 0.3234
-20.6803 -20.9222 0.3341
-18.7014 -19.7852 0.3126
-19.4214 -21.4887 0.3361
-19.4462 -22.5070 0.3486
-19.1010 -23.1323 0.3551
-18.4903 -23.4399 0.3568
-19.5295 -25.9280 0.3914
-19.2135 -26.7306 0.4005
-20.8430 -30.4082 0.4523
-20.7753 -31.8104 0.4699
-20.8877 -33.5985 0.4931
-20.9133 -35.3783 0.5161
-20.8495 -37.1399 0.5390
-20.9698 -39.3903 0.5682
-21.0026 -41.6699 0.5980
10.2160 -29.1298 0.4078
17.6120 -38.7438 0.5508
17.0822 -33.5184 0.4810
24.3163 -40.7188 0.5940
24.6997 -39.3374 0.5774
24.7551 -22.6979 0.3712
24.7789 -21.7211 0.3598
25.5534 -21.4099 0.3594
43.1598 -23.3752 0.4636
43.1894 -22.1583 0.4508
7.8202 -2.0024 0.0614
48.3848 -11.2441 0.3694
48.4140 -10.1168 0.3591
25.1938 -4.6800 0.1815
25.2079 -4.1025 0.1764
25.2219 -3.5285 0.1714
43.6045 -5.1100 0.2877
43.6284 -4.1274 0.2793
48.4858 -3.4963 0.3011
48.4983 -2.4099 0.2921
48.4719 -1.3244 0.2830
48.4455 -0.2413 0.2740
48.4193 0.8404 0.2652
48.3853 1.9215 0.2565
48.3560 3.0032 0.2480
48.3268 4.0867 0.2395
48.2974 5.1729 0.2312
48.2680 6.2630 0.2230
9.8815 1.7339 0.0424
9.8834 1.9627 0.0408
44.0436 12.9219 0.1540
25.6695 12.8481 0.0580
25.6378 13.5565 0.0540
25.6562 14.3084 0.0500
26.1770 30.7839 -0.0203
26.0896 32.1074 -0.0255
16.6899 28.7476 -0.0441
15.0090 34.1277 -0.0646
14.7136 35.5927 -0.0694
14.3018 36.9107 -0.0740
13.8662 38.3048 -0.0787
13.3932 39.7505 -0.0835
12.9024 41.3214 -0.0886
12.3788 42.9972 -0.0939
8.9887 34.0661 -0.0756
11.2126 46.6988 -0.1051
10.5644 48.7732 -0.1112
-24.4691 33.1781 -0.0342
-23.8495 30.8701 -0.0282
-23.1925 28.6725 -0.0225
-22.7818 26.9125 -0.0175
-22.3242 25.2080 -0.0127
-18.4896 19.9617 -0.0070
-21.5158 22.2123 -0.0041
-21.1614 20.8919 -0.0002
-20.8330 19.6685 0.0035
-20.5276 18.5308 0.0070
-20.2008 17.4329 0.0104
-20.0918 16.5707 0.0137
-20.1892 15.9069 0.0171
-20.1993 15.1962 0.0205
-20.2091 14.5083 0.0237
-20.2187 13.8415 0.0270
-20.2279 13.1942 0.0302
-20.2369 12.5649 0.0334
-20.2456 11.9522 0.0366
-20.2254 11.3389 0.0397
-20.2612 10.7715 0.0429
-20.2693 10.2018 0.0460
-20.2773 9.6444 0.0492
-20.2851 9.0983 0.0523
-20.2927 8.5626 0.0555
-20.3003 8.0365 0.0586
-20.3076 7.5194 0.0618
-20.3149 7.0103 0.0649
-20.3221 6.5086 0.0681
-20.3002 6.0051 0.0712
-20.3348 5.5246 0.0745
-20.3417 5.0414 0.0778
-20.3485 4.5633 0.0810
-20.3553 4.0896 0.0843
-20.3620 3.6198 0.0876
-20.3687 3.1535 0.0910
-20.3753 2.6901 0.0944
-20.3819 2.2290 0.0978
-20.3884 1.7700 0.1013
-20.3950 1.3124 0.1048
-20.3125 0.8521 0.1079
-20.4069 0.3998 0.1120
-20.4134 -0.0561 0.1157
-20.4199 -0.5123 0.1194
-20.4265 -0.9693 0.1232
-20.4330 -1.4276 0.1271
-20.4396 -1.8876 0.1310
-20.4463 -2.3498 0.1350
-20.4529 -2.8147 0.1392
-20.4596 -3.2828 0.1433
-20.4664 -3.7546 0.1476
-20.4732 -4.2305 0.1520
-20.4513 -4.7046 0.1563
-20.4861 -5.1969 0.1611
-20.4931 -5.6888 0.1658
-20.5003 -6.1870 0.1706
-20.5075 -6.6925 0.1755
-20.5149 -7.2057 0.1806
-20.5224 -7.7275 0.1859
-20.5300 -8.2584 0.1913
-20.5377 -8.7994 0.1968
-20.5457 -9.3513 0.2025
-20.4639 -9.8717 0.2076
-20.5606 -10.4907 0.2146
-20.5691 -11.0809 0.2209
-19.5111 -11.0801 0.2157
-20.5867 -12.3070 0.2343
-20.5959 -12.9455 0.2413
-20.6053 -13.6027 0.2486
-20.6151 -14.2803 0.2563
-20.6251 -14.9799 0.2642
-20.5452 -15.6345 0.2713
-20.6449 -16.4512 0.2812
-20.6560 -17.2283 0.2902
-20.6676 -18.0357 0.2997
-20.6797 -18.8762 0.3097
-20.6923 -19.7528 0.3201
-20.6208 -20.5843 0.3298
-18.9483 -19.7792 0.3135
-18.1412 -19.8039 0.3106
-19.4387 -22.1958 0.3448
-19.3410 -23.1058 0.3556
-18.5576 -23.2038 0.3539
-19.5310 -25.5717 0.3870
-19.5236 -26.7814 0.4021
-18.6452 -26.8148 0.3997
-18.5126 -27.9352 0.4135
-20.8804 -33.0901 0.4866
-20.9054 -34.8301 0.5090
-20.9324 -36.7092 0.5333
-20.9605 -38.7447 0.5597
-20.9924 -40.9645 0.5887
-20.2873 -41.8670 0.5988
17.3748 -44.1045 0.6212
17.2972 -38.7381 0.5500
17.0685 -34.0537 0.4880
17.7543 -33.5305 0.4829
24.3494 -39.3626 0.5766
25.5798 -39.3588 0.5803
24.7478 -22.9983 0.3747
24.7719 -22.0103 0.3632
25.1982 -21.4013 0.3578
43.1806 -22.5206 0.4546
44.4331 -21.9258 0.4546
7.6105 -2.0032 0.0603
48.3761 -11.5843 0.3725
48.4053 -10.4540 0.3622
25.1896 -4.8541 0.1831
25.2037 -4.2753 0.1779
25.2177 -3.7003 0.1729
43.5973 -5.4056 0.2902
43.6213 -4.4218 0.2818
48.4433 -3.8197 0.3036
48.5062 -2.7362 0.2949
48.4798 -1.6498 0.2857
48.4534 -0.5660 0.2767
48.4272 0.5160 0.2679
48.3048 1.5942 0.2586
48.3648 2.6786 0.2505
48.3356 3.7614 0.2421
48.3063 4.8467 0.2337
48.2768 5.9355 0.2255
48.1584 7.0161 0.2169
9.8422 1.8861 0.0411
48.0131 12.5848 0.1776
44.0357 12.5998 0.1560
44.0620 13.6790 0.1492
26.0845 12.8379 0.0601
25.6324 13.3347 0.0551
25.6506 14.0808 0.0512
26.5271 30.7754 -0.0190
26.0786 31.6581 -0.0239
16.7819 28.4648 -0.0430
15.1215 33.7677 -0.0633
14.8328 35.2110 -0.0681
14.4277 36.5077 -0.0726
13.9995 37.8781 -0.0773
13.5194 39.2538 -0.0819
13.0529 40.8396 -0.0870
12.5395 42.4828 -0.0922
11.9434 44.0652 -0.0973
11.3977 46.1066 -0.1033
10.7641 48.1341 -0.1093
-23.7634 39.6963 -0.0582
-24.6689 33.9226 -0.0362
-24.0283 31.5360 -0.0299
-23.3409 29.2547 -0.0241
-22.9276 27.4557 -0.0190
-22.4571 25.7030 -0.0141
-22.0276 24.1031 -0.0096
-21.4861 22.4812 -0.0054
-21.2648 21.2773 -0.0014
-20.9290 20.0260 0.0024
-20.6169 18.8637 0.0060
-20.1929 17.6635 0.0093
-20.1481 16.8452 0.0127
-20.1861 16.1248 0.0161
-20.1963 15.4069 0.0195
-20.2062 14.7124 0.0228
-20.2158 14.0395 0.0260
-20.2251 13.3864 0.0292
-20.2342 12.7518 0.0324
-20.2430 12.1343 0.0356
-20.2229 11.5163 0.0387
-20.2587 10.9449 0.0420
-20.2669 10.3714 0.0451
-20.2749 9.8104 0.0482
-20.2828 9.2610 0.0514
-20.2905 8.7223 0.0545
-20.2980 8.1934 0.0577
-20.3054 7.6736 0.0608
-20.3127 7.1622 0.0640
-20.3199 6.6583 0.0672
-20.2981 6.1527 0.0702
-20.3327 5.6706 0.0736
-20.3396 5.1858 0.0768
-20.3465 4.7062 0.0800
-20.3532 4.2313 0.0833
-20.3600 3.7604 0.0866
-20.3667 3.2931 0.0900
-20.3733 2.8288 0.0934
-20.3799 2.3671 0.0968
-20.3865 1.9075 0.1002
-20.3930 1.4495 0.1037
-20.3996 0.9927 0.1073
-20.3772 0.5358 0.1107
-20.4114 0.0807 0.1146
-20.4180 -0.3754 0.1183
-20.4245 -0.8321 0.1221
-20.4311 -1.2899 0.1259
-20.4377 -1.7494 0.1298
-20.4443 -2.2109 0.1338
-20.4509 -2.6750 0.1379
-20.4576 -3.1420 0.1421
-20.4643 -3.6126 0.1463
-20.4711 -4.0873 0.1507
-20.3898 -4.5468 0.1545
-20.4840 -5.0506 0.1597
-20.4910 -5.5405 0.1643
-20.4981 -6.0369 0.1691
-20.5053 -6.5401 0.1740
-20.5126 -7.0509 0.1791
-20.5201 -7.5700 0.1843
-20.5277 -8.0981 0.1896
-20.5354 -8.6361 0.1951
-20.5433 -9.1846 0.2008
-20.5513 -9.7446 0.2067
-20.4747 -10.2746 0.2118
-20.5666 -10.9023 0.2190
-20.5752 -11.5027 0.2255
-20.5840 -12.1189 0.2322
-20.5931 -12.7520 0.2392
-20.6025 -13.4035 0.2464
-20.6121 -14.0748 0.2539
-20.6221 -14.7676 0.2618
-20.6029 -15.4615 0.2696
-20.6416 -16.2237 0.2785
-20.6526 -16.9920 0.2874
-20.6641 -17.7901 0.2968
-20.6760 -18.6205 0.3066
-20.6885 -19.4859 0.3169
-20.7015 -20.3897 0.3278
-19.1982 -19.7731 0.3144
-18.3768 -19.7931 0.3114
-19.4312 -21.8896 0.3410
-19.4565 -22.9299 0.3539
-18.7462 -23.1203 0.3537
-18.1261 -23.4053 0.3551
-19.5418 -26.4324 0.3978
-18.8454 -26.7189 0.3991
-18.7239 -27.8470 0.4131
-20.8732 -32.5928 0.4802
-20.8977 -34.2943 0.5021
-20.9241 -36.1298 0.5258
-20.9514 -38.1155 0.5515
-20.9825 -40.2779 0.5797
-20.9604 -42.5276 0.6091
-16.5183 -37.6699 0.5346
17.0101 -44.0420 0.6196
16.9844 -38.7328 0.5492
17.4649 -33.5253 0.4821
24.3354 -39.9357 0.5840
25.2004 -39.3496 0.5790
24.7647 -22.3027 0.3666
24.8487 -21.3928 0.3562
26.0365 -21.4217 0.3617
43.1717 -22.8853 0.4585
43.6552 -21.9068 0.4505
7.6082 -2.0572 0.0608
48.3672 -11.9254 0.3757
48.3965 -10.7920 0.3653
25.1853 -5.0285 0.1847
25.1994 -4.4485 0.1795
25.2135 -3.8725 0.1744
48.4987 -6.3434 0.3257
43.6141 -4.7165 0.2843
48.4512 -4.1472 0.3065
48.5141 -3.0630 0.2976
48.4877 -1.9754 0.2884
48.4613 -0.8909 0.2794
48.4350 0.1916 0.2705
48.3196 1.2706 0.2613
48.3736 2.3541 0.2531
48.3443 3.4364 0.2446
48.3150 4.5208 0.2362
48.2857 5.6084 0.2279
48.2856 6.7044 0.2199
9.8393 1.8173 0.0416
48.0219 12.2438 0.1800
44.2453 12.3396 0.1588
44.0541 13.3536 0.1512
26.5103 12.8276 0.0623
25.6271 13.1145 0.0563
25.6451 13.8550 0.0524
26.8811 30.7667 -0.0176
26.0678 31.2165 -0.0223
17.0993 28.5641 -0.0424
15.3566 33.6858 -0.0625
14.9502 34.8354 -0.0668
14.5516 36.1113 -0.0713
14.1305 37.4588 -0.0759
13.6848 38.8854 -0.0806
13.2006 40.3670 -0.0855
12.6971 41.9785 -0.0907
12.1593 43.6998 -0.0960
11.5787 45.5272 -0.1016
10.9593 47.5096 -0.1075
-23.4879 39.8396 -0.0595
-21.8357 33.5196 -0.0437
-24.7250 34.4831 -0.0379
-24.2130 32.2241 -0.0317
-23.6199 30.0147 -0.0259
-23.0777 28.0149 -0.0205
-22.5936 26.2117 -0.0155
-22.1525 24.5684 -0.0109
-18.6642 19.7925 -0.0057
-21.3707 21.6717 -0.0025
-21.0271 20.3916 0.0013
-20.7082 19.2037 0.0049
-20.4112 18.0974 0.0084
-20.3367 17.2356 0.0118
-20.1829 16.3450 0.0151
-20.1933 15.6197 0.0185
-20.2033 14.9184 0.0218
-20.2130 14.2391 0.0250
-20.2224 13.5803 0.0283
-20.2315 12.9403 0.0315
-20.2404 12.3179 0.0347
-20.2490 11.7116 0.0379
-20.2562 11.1195 0.0410
-20.2645 10.5421 0.0442
-20.2725 9.9774 0.0473
-20.2804 9.4246 0.0504
-20.2882 8.8828 0.0536
-20.2958 8.3511 0.0567
-20.3032 7.8287 0.0599
-20.3106 7.3148 0.0630
-20.3178 6.8087 0.0662
-20.3249 6.3098 0.0694
-20.2444 5.7924 0.0723
-20.3375 5.3307 0.0758
-20.3444 4.8496 0.0791
-20.3512 4.3733 0.0823
-20.3580 3.9012 0.0856
-20.3647 3.4329 0.0890
-20.3713 2.9678 0.0923
-20.3779 2.5053 0.0957
-20.3845 2.0452 0.0992
-20.3911 1.5868 0.1027
-20.3976 1.1297 0.1062
-20.3753 0.6724 0.1097
-20.4095 0.2175 0.1135
-20.4160 -0.2385 0.1172
-20.4226 -0.6950 0.1209
-20.4291 -1.1524 0.1248
-20.4357 -1.6114 0.1286
-20.4423 -2.0722 0.1326
-20.4489 -2.5355 0.1367
-20.4556 -3.0016 0.1408
-20.4623 -3.4711 0.1450
-20.4691 -3.9444 0.1494
-20.4759 -4.4222 0.1538
-20.4541 -4.8981 0.1581
-20.4889 -5.3930 0.1629
-20.4960 -5.8873 0.1677
-20.5032 -6.3884 0.1725
-20.5104 -6.8969 0.1776
-20.5179 -7.4133 0.1827
-20.5254 -7.9387 0.1880
-20.5331 -8.4735 0.1935
-20.5409 -9.0188 0.1991
-20.5489 -9.5753 0.2049
-20.5278 -10.1295 0.2106
-20.5640 -10.7250 0.2171
-20.5726 -11.3210 0.2235
-20.5813 -11.9323 0.2301
-20.5904 -12.5602 0.2370
-20.5996 -13.2061 0.2442
-20.6092 -13.8713 0.2517
-20.6190 -14.5574 0.2594
-20.5558 -15.2119 0.2665
-20.6384 -15.9986 0.2759
-20.6493 -16.7586 0.2847
-20.6606 -17.5476 0.2939
-20.6724 -18.3679 0.3036
-20.6847 -19.2225 0.3138
-20.6975 -20.1143 0.3245
-20.6687 -21.0040 0.3350
-18.6198 -19.7872 0.3123
-19.4239 -21.5881 0.3373
-19.4488 -22.6118 0.3500
-19.0160 -23.1343 0.3548
-18.3730 -23.3986 0.3558
-19.5326 -26.0529 0.3930
-19.1247 -26.7328 0.4002
-20.8451 -30.5576 0.4542
-20.8662 -32.1061 0.4739
-20.8901 -33.7706 0.4953
-20.9159 -35.5641 0.5185
-20.9426 -37.5018 0.5436
-20.9729 -39.6094 0.5710
-21.0060 -41.9095 0.6011
7.4149 -45.7049 0.6280
10.2822 -29.1101 0.4077
17.1777 -33.5201 0.4813
24.3211 -40.5211 0.5915
24.8243 -39.3404 0.5778
24.7575 -22.5985 0.3700
24.7812 -21.6254 0.3587
25.6733 -21.4129 0.3600
43.1628 -23.2523 0.4623
43.1923 -22.0381 0.4496
7.9014 -2.0044 0.0619
48.3878 -11.1308 0.3684
48.4169 -10.0047 0.3581
25.1952 -4.6221 0.1810
25.2093 -4.0449 0.1759
25.2233 -3.4713 0.1709
43.6069 -5.0116 0.2868
43.6308 -4.0293 0.2785
48.5221 -3.3901 0.3004
48.4956 -2.3013 0.2912
48.4693 -1.2159 0.2821
48.4429 -0.1330 0.2732
48.4166 0.9486 0.2644
48.3823 2.0297 0.2557
48.3531 3.1115 0.2471
48.3238 4.1952 0.2387
48.2945 5.2818 0.2304
48.2651 6.3723 0.2222
9.8638 1.7536 0.0422
44.0462 13.0295 0.1533
25.6218 12.8958 0.0575
25.6396 13.6309 0.0536
25.6580 14.3847 0.0496
27.2390 30.7580 -0.0163
26.0611 30.7867 -0.0207
26.0932 32.2589 -0.0260
17.4215 28.6648 -0.0418
16.6598 28.8440 -0.0445
15.6766 33.7859 -0.0621
15.0658 34.4654 -0.0655
14.6734 35.7212 -0.0699
14.2594 37.0465 -0.0745
13.8213 38.4486 -0.0792
13.3455 39.9031 -0.0840
12.8515 41.4842 -0.0891
12.3244 43.1711 -0.0944
8.8965 34.0248 -0.0756
11.1500 46.8993 -0.1057
-24.4039 32.9354 -0.0336
-23.7911 30.6527 -0.0276
-23.1843 28.5318 -0.0220
-22.7340 26.7348 -0.0170
-22.2807 25.0459 -0.0123
-18.5007 19.8843 -0.0067
-21.4791 22.0755 -0.0037
-21.1274 20.7652 0.0002
-20.8015 19.5511 0.0039
-20.4982 18.4213 0.0074
-20.0827 17.2529 0.0107
-20.1512 16.5441 0.0141
-20.1902 15.8348 0.0175
-20.2003 15.1264 0.0208
-20.2101 14.4407 0.0241
-20.2196 13.7759 0.0273
-20.2288 13.1304 0.0305
-20.2378 12.5028 0.0337
-20.2465 11.8918 0.0369
-20.2263 11.2801 0.0400
-20.2620 10.7139 0.0432
-20.2701 10.1455 0.0464
-20.2781 9.5893 0.0495
-20.2859 9.0443 0.0526
-20.2935 8.5096 0.0558
-20.3010 7.9844 0.0589
-20.3084 7.4680 0.0621
-20.3156 6.9598 0.0652
-20.3228 6.4588 0.0684
-20.3009 5.9561 0.0715
-20.3355 5.4760 0.0748
-20.3423 4.9934 0.0781
-20.3492 4.5157 0.0813
-20.3559 4.0425 0.0846
-20.3627 3.5731 0.0880
-20.3693 3.1070 0.0913
-20.3759 2.6438 0.0947
-20.3825 2.1830 0.0982
-20.3891 1.7241 0.1016
-20.3956 1.2667 0.1052
-20.3733 0.8090 0.1086
-20.4075 0.3542 0.1124
-20.4141 -0.1017 0.1160
-20.4206 -0.5580 0.1198
-20.4271 -1.0151 0.1236
-20.4337 -1.4736 0.1275
-20.4403 -1.9338 0.1314
-20.4469 -2.3962 0.1355
-20.4536 -2.8614 0.1396
-20.4603 -3.3298 0.1438
-20.4671 -3.8019 0.1480
-20.4739 -4.2783 0.1524
-20.4520 -4.7528 0.1567
-20.4868 -5.2458 0.1615
-20.4938 -5.7383 0.1662
-20.5010 -6.2373 0.1711
-20.5083 -6.7435 0.1760
-20.5156 -7.2575 0.1811
-20.5231 -7.7802 0.1864
-20.5308 -8.3121 0.1918
-20.5385 -8.8542 0.1974
-20.5465 -9.4072 0.2031
-20.4660 -9.9291 0.2082
-20.5615 -10.5491 0.2152
-20.5700 -11.1407 0.2215
-19.4909 -11.1264 0.2161
-20.5876 -12.3700 0.2349
-20.5968 -13.0103 0.2420
-20.6063 -13.6695 0.2494
-20.6161 -14.3492 0.2570
-20.6261 -15.0511 0.2650
-20.5477 -15.7089 0.2722
-20.6460 -16.5276 0.2820
-20.6572 -17.3076 0.2911
-20.6688 -18.1183 0.3007
-20.6810 -18.9623 0.3107
-20.6936 -19.8427 0.3212
-20.6776 -20.7334 0.3318
-18.8656 -19.7812 0.3132
-18.0618 -19.8058 0.3104
-19.4412 -22.2991 0.3461
-19.2719 -23.1281 0.3557
-18.6574 -23.4359 0.3573
-19.5004 -25.6502 0.3878
-19.3920 -26.7262 0.4010
-20.8387 -30.1126 0.4485
-20.8310 -31.5866 0.4672
-20.8828 -33.2583 0.4887
-20.9080 -35.0114 0.5113
-20.8438 -36.7442 0.5334
-20.9635 -38.9580 0.5625
-20.9958 -41.1974 0.5918
-20.1688 -41.8605 0.5984
17.4741 -44.0677 0.6210
17.4019 -38.7400 0.5503
17.0718 -33.8711 0.4856
24.4517 -39.3313 0.5766
24.7502 -22.8978 0.3736
24.7742 -21.9136 0.3620
25.3159 -21.4042 0.3583
43.1836 -22.3994 0.4533
7.6626 -1.9986 0.0605
48.3790 -11.4707 0.3715
48.4082 -10.3414 0.3612
25.1910 -4.7960 0.1826
25.2051 -4.2176 0.1774
25.2191 -3.6430 0.1724
43.5997 -5.3070 0.2893
43.6237 -4.3236 0.2810
48.4406 -3.7106 0.3027
48.5035 -2.6274 0.2939
48.4771 -1.5411 0.2848
48.4508 -0.4578 0.2758
48.4245 0.6241 0.2670
48.3019 1.7021 0.2578
48.3619 2.7867 0.2497
48.3326 3.8698 0.2412
48.3033 4.9553 0.2329
48.2739 6.0446 0.2247
48.1554 7.1254 0.2161
9.9556 1.7011 0.0431
9.8533 1.9111 0.0410
44.0383 12.7070 0.1553
44.0647 13.7879 0.1485
25.9450 12.8413 0.0594
25.6342 13.4084 0.0548
25.6525 14.1564 0.0508
26.4100 30.7782 -0.0194
26.0822 31.8070 -0.0244
16.7497 28.5560 -0.0434
15.0842 33.8872 -0.0637
14.7933 35.3377 -0.0685
14.3860 36.6413 -0.0731
13.9553 38.0196 -0.0778
13.4396 39.3072 -0.0821
13.0030 40.9994 -0.0875
12.4863 42.6531 -0.0928
11.9158 44.3554 -0.0981
11.3365 46.3024 -0.1039
10.6981 48.3454 -0.1099
-24.6015 33.6716 -0.0355
-23.9681 31.3118 -0.0293
-23.3514 29.1342 -0.0236
-22.8785 27.2730 -0.0185
-22.4124 25.5366 -0.0136
-21.9867 23.9507 -0.0092
-21.5534 22.4509 -0.0049
-21.2301 21.1478 -0.0010
-20.8967 19.9059 0.0028
-20.5869 18.7519 0.0063
-20.2522 17.6356 0.0097
-20.1492 16.7697 0.0131
-20.1871 16.0519 0.0165
-20.1973 15.3364 0.0198
-20.2072 14.6441 0.0231
-20.2168 13.9732 0.0263
-20.2261 13.3220 0.0296
-20.2351 12.6893 0.0328
-20.2439 12.0735 0.0359
-20.2237 11.4570 0.0391
-20.2596 10.8870 0.0423
-20.2677 10.3148 0.0454
-20.2757 9.7550 0.0486
-20.2835 9.2067 0.0517
-20.2912 8.6690 0.0548
-20.2988 8.1410 0.0580
-20.3062 7.6221 0.0611
-20.3135 7.1114 0.0643
-20.3206 6.6083 0.0675
-20.2988 6.1034 0.0706
-20.3334 5.6218 0.0739
-20.3403 5.1376 0.0771
-20.3471 4.6585 0.0804
-20.3539 4.1840 0.0836
-20.3606 3.7135 0.0870
-20.3673 3.2465 0.0903
-20.3740 2.7826 0.0937
-20.3806 2.3211 0.0971
-20.3871 1.8617 0.1006
-20.3937 1.4038 0.1041
-20.4002 0.9471 0.1077
-20.3779 0.4903 0.1111
-20.4121 0.0351 0.1149
-20.4186 -0.4210 0.1187
-20.4252 -0.8778 0.1224
-20.4317 -1.3358 0.1263
-20.4383 -1.7955 0.1302
-20.4449 -2.2572 0.1342
-20.4516 -2.7215 0.1383
-20.4583 -3.1889 0.1425
-20.4650 -3.6599 0.1468
-20.4718 -4.1350 0.1511
-20.4499 -4.6082 0.1554
-20.4847 -5.0993 0.1601
-20.4917 -5.5900 0.1648
-20.4988 -6.0868 0.1696
-20.5061 -6.5908 0.1745
-20.5134 -7.1024 0.1796
-20.5209 -7.6224 0.1848
-20.5284 -8.1514 0.1902
-20.5362 -8.6904 0.1957
-20.5441 -9.2400 0.2014
-20.5521 -9.8013 0.2073
-20.4718 -10.3304 0.2124
-20.5674 -10.9617 0.2196
-19.6671 -11.0528 0.2161
-20.5849 -12.1814 0.2329
-20.5940 -12.8164 0.2399
-20.6034 -13.4698 0.2471
-20.6131 -14.1431 0.2547
-20.6231 -14.8382 0.2626
-20.6040 -15.5344 0.2704
-20.6427 -16.2993 0.2794
-20.6537 -17.0706 0.2884
-20.6653 -17.8718 0.2978
-20.6773 -18.7053 0.3076
-20.6897 -19.5744 0.3180
-20.7028 -20.4823 0.3289
-19.1146 -19.7751 0.3141
-18.2965 -19.7950 0.3111
-19.4180 -21.9734 0.3420
-19.4591 -23.0371 0.3552
-18.6435 -23.0989 0.3530
-18.1223 -23.5088 0.3563
-19.5449 -26.5606 0.3994
-18.7411 -26.6976 0.3985
-18.6362 -27.8507 0.4128
-20.8756 -32.7575 0.4823
-20.9002 -34.4716 0.5043
-20.9268 -36.3215 0.5283
-20.9544 -38.3235 0.5543
-20.9858 -40.5048 0.5827
-16.4328 -37.7036 0.5349
17.1461 -44.1004 0.6207
17.0884 -38.7343 0.5495
17.5611 -33.5270 0.4823
24.3401 -39.7434 0.5815
25.3265 -39.3526 0.5795
24.7671 -22.2048 0.3654
24.9647 -21.3956 0.3567
43.1747 -22.7634 0.4572
43.9122 -21.9131 0.4519
7.6089 -2.0392 0.0606
48.3702 -11.8116 0.3746
48.3994 -10.6793 0.3642
25.1867 -4.9703 0.1841
