ply
format ascii 1.0
element vertex 1985
property float32 x
property float32 y
property float32 z
end_header
-27.2665 3.8120 -4.2500
-27.2648 3.1926 -4.2324
-27.2631 2.5766 -4.2170
-27.2614 1.9632 -4.2038
-27.2658 1.3522 -4.1936
-27.2641 0.7422 -4.1847
-27.2624 0.1331 -4.1778
-27.2608 -0.4759 -4.1730
-27.2591 -1.0852 -4.1703
-27.2574 -1.6955 -4.1696
-27.5440 -2.3318 -4.2152
-31.0139 -3.3246 -4.7505
-46.8654 -10.4035 -7.2669
-41.5317 -10.1976 -6.4657
-37.8228 -10.1875 -5.9151
-36.2783 -10.6456 -5.7025
-36.1068 -11.4768 -5.7076
-36.1044 -12.3701 -5.7426
-36.1019 -13.2769 -5.7811
-36.0994 -14.1987 -5.8232
-36.0968 -15.1366 -5.8690
-36.0942 -16.0921 -5.9187
-35.8140 -16.9354 -5.9265
-33.8273 -16.9300 -5.6525
-32.0115 -16.9251 -5.4048
-30.9699 -17.2696 -5.2869
-30.9674 -18.1860 -5.3486
-29.7813 -18.3955 -5.2077
-28.5753 -18.5442 -5.0625
-27.3363 -18.6202 -4.9103
-27.2031 -19.4322 -4.9579
-27.2005 -20.3622 -5.0338
-27.1979 -21.3237 -5.1150
-27.1952 -22.3193 -5.2018
-27.1924 -23.3518 -5.2944
-27.1954 -24.4297 -5.3947
-27.1924 -25.5461 -5.5007
-27.1892 -26.7101 -5.6141
-27.3178 -28.0614 -5.7633
8.0443 -42.4233 -6.2577
8.8468 -41.5663 -6.1605
9.8202 -41.5637 -6.1928
10.7278 -41.2680 -6.1848
10.7182 -37.7514 -5.6941
7.9994 -25.9570 -3.9425
7.9941 -24.0221 -3.6763
7.9895 -22.3326 -3.4456
8.1167 -21.1854 -3.2972
8.4877 -20.7557 -3.2605
8.9788 -20.6304 -3.2732
9.5310 -20.6289 -3.3076
10.0947 -20.6274 -3.3445
10.6707 -20.6258 -3.3840
11.2601 -20.6242 -3.4261
11.8640 -20.6225 -3.4712
12.4834 -20.6208 -3.5192
13.1198 -20.6191 -3.5704
13.7744 -20.6173 -3.6250
14.6396 -20.8880 -3.7318
15.8778 -21.6120 -3.9264
16.3178 -21.2028 -3.9202
15.8315 -19.6478 -3.7001
15.9186 -18.8777 -3.6240
15.8269 -17.9408 -3.5140
15.8247 -17.1512 -3.4306
15.8227 -16.3992 -3.3530
15.7666 -15.6276 -3.2693
15.9082 -15.0793 -3.2310
15.8170 -14.3365 -3.1496
15.8153 -13.7047 -3.0906
16.0776 -13.3155 -3.0860
16.8259 -13.3135 -3.1749
17.4907 -13.2157 -3.2471
18.4566 -13.3091 -3.3739
19.3493 -13.3066 -3.4855
20.3953 -13.3655 -3.6231
21.3206 -13.3012 -3.7378
5.4463 -3.2312 -0.9429
5.5258 -3.1137 -0.9455
24.8963 -13.3057 -4.2126
26.2565 -13.2878 -4.3963
27.7701 -13.2837 -4.6041
29.4308 -13.2791 -4.8346
30.8536 -13.1002 -5.0248
34.7362 -13.8419 -5.6119
34.8490 -12.9931 -5.5884
37.3581 -12.9863 -5.9498
39.7506 -12.8307 -6.2910
8.8710 -0.5916 -1.3571
8.8705 -0.3928 -1.3570
8.8699 -0.1945 -1.3576
8.8694 0.0037 -1.3588
8.8688 0.2018 -1.3608
8.8683 0.4001 -1.3634
8.8677 0.5988 -1.3667
8.8672 0.7981 -1.3707
8.8667 0.9981 -1.3754
8.8661 1.1992 -1.3808
8.8656 1.4014 -1.3869
8.8650 1.6051 -1.3937
8.8644 1.8104 -1.4013
8.8639 2.0176 -1.4097
8.8633 2.2268 -1.4188
8.8627 2.4384 -1.4288
8.8621 2.6526 -1.4396
8.8790 2.8753 -1.4540
8.8868 3.0988 -1.4680
10.3704 3.8782 -1.7289
10.3696 4.1443 -1.7457
10.3302 4.3987 -1.7572
10.3294 4.6737 -1.7763
10.3286 4.9543 -1.7967
10.3278 5.2410 -1.8185
10.3270 5.5342 -1.8416
10.3000 5.8197 -1.8615
10.2992 6.1268 -1.8876
8.8686 5.5478 -1.6494
10.2975 6.7664 -1.9447
10.2965 7.1003 -1.9760
10.2956 7.4446 -2.0092
10.2946 7.8001 -2.0445
10.2936 8.1679 -2.0820
10.2926 8.5488 -2.1219
10.1173 8.7927 -2.1277
9.6706 8.7915 -2.0764
9.2453 8.7904 -2.0285
8.8398 8.7893 -1.9838
8.4521 8.7882 -1.9421
8.0919 8.7991 -1.9056
8.1105 9.2250 -1.9596
8.1093 9.6505 -2.0125
8.1081 10.0991 -2.0693
6.7345 8.7835 -1.7697
8.1054 11.0758 -2.1960
8.1039 11.6098 -2.2670
8.1672 12.2763 -2.3624
8.1655 12.8897 -2.4463
8.1637 13.5477 -2.5374
6.6620 11.6366 -2.1523
6.6559 12.2535 -2.2396
8.2101 15.9552 -2.8835
8.2076 16.8671 -3.0160
8.2049 17.8662 -3.1626
5.4911 16.6426 -2.8252
14.3265 46.9224 -7.9118
13.1860 46.9193 -7.8622
12.0599 46.9162 -7.8169
-27.2083 24.1852 -5.7809
-36.2873 14.9747 -6.1402
-36.1763 13.9913 -6.0602
-36.1738 13.0689 -6.0026
-20.1289 6.7677 -3.3104
-36.1689 11.2677 -5.8987
-31.0413 8.9145 -5.0229
-27.3721 7.2029 -4.3969
-27.2739 6.5292 -4.3515
-27.2721 5.8879 -4.3240
-27.2704 5.2528 -4.2989
-27.2687 4.6233 -4.2761
-27.2670 3.9986 -4.2557
-27.2653 3.3781 -4.2375
-27.2636 2.7611 -4.2214
-27.2619 2.1469 -4.2076
-27.2663 1.5355 -4.1967
-27.2646 0.9251 -4.1871
-27.2629 0.3157 -4.1796
-27.2613 -0.2932 -4.1742
-27.2596 -0.9023 -4.1708
-27.2579 -1.5123 -4.1696
-27.3680 -2.1323 -4.1875
-31.0145 -3.1146 -4.7491
-31.0126 -3.8157 -4.7548
-43.5769 -10.3908 -6.7756
-38.8685 -10.1903 -6.0700
-36.4372 -10.4277 -5.7184
-36.1076 -11.2113 -5.6977
-36.1051 -12.1007 -5.7317
-36.1027 -13.0034 -5.7692
-36.1002 -13.9205 -5.8102
-36.0976 -14.8534 -5.8549
-36.0950 -15.8035 -5.9034
-36.0924 -16.7722 -5.9559
-34.4042 -16.9316 -5.7318
-32.5398 -16.9265 -5.4766
-30.9706 -16.9991 -5.2692
-30.9681 -17.9086 -5.3296
-30.2342 -18.3967 -5.2670
-28.8653 -18.4590 -5.0935
-27.4937 -18.4591 -4.9178
-27.2038 -19.1589 -4.9360
-27.2013 -20.0800 -5.0105
-27.1987 -21.0319 -5.0901
-27.1960 -22.0169 -5.1751
-27.1932 -23.0380 -5.2660
-27.1963 -24.1035 -5.3643
-27.1933 -25.2063 -5.4681
-27.1902 -26.3556 -5.5792
-27.1869 -27.5555 -5.6982
8.0488 -44.0554 -6.4899
8.5775 -41.6685 -6.1665
9.5272 -41.5645 -6.1827
10.5077 -41.5618 -6.2175
10.7209 -38.7463 -5.8326
8.0012 -26.5938 -4.0306
7.9956 -24.5745 -3.7521
7.9908 -22.8166 -3.5115
8.0303 -21.3873 -3.3197
8.3611 -20.8431 -3.2649
8.8152 -20.6309 -3.2633
9.3642 -20.6294 -3.2970
9.9244 -20.6278 -3.3331
10.4965 -20.6263 -3.3718
11.0818 -20.6247 -3.4132
11.6812 -20.6230 -3.4573
12.2959 -20.6214 -3.5045
12.9271 -20.6196 -3.5547
13.5760 -20.6179 -3.6082
14.2471 -20.6202 -3.6660
15.7732 -21.7737 -3.9356
16.1685 -21.3022 -3.9176
15.8323 -19.9202 -3.7304
15.7757 -18.9644 -3.6194
15.7843 -18.1359 -3.5306
15.8254 -17.3840 -3.4550
15.8233 -16.6211 -3.3757
15.8213 -15.8932 -3.3017
15.9088 -15.2833 -3.2509
15.8176 -14.5311 -3.1682
15.8158 -13.8916 -3.1079
15.8610 -13.3161 -3.0605
16.4778 -13.2185 -3.1249
17.3750 -13.3120 -3.2411
18.1661 -13.2854 -3.3359
18.9765 -13.2383 -3.4332
20.1017 -13.3663 -3.5856
21.0074 -13.3021 -3.6972
5.4699 -3.2949 -0.9505
5.4842 -3.1389 -0.9416
24.5894 -13.3541 -4.1743
25.8281 -13.2890 -4.3379
27.3015 -13.2849 -4.5395
28.9157 -13.2805 -4.7629
30.2916 -13.1018 -4.9458
34.7369 -14.1125 -5.6252
34.7345 -13.2160 -5.5821
36.9457 -13.1209 -5.8959
38.9265 -12.8532 -6.1719
8.8712 -0.6513 -1.3572
8.8706 -0.4524 -1.3569
8.8701 -0.2540 -1.3573
8.8695 -0.0558 -1.3584
8.8690 0.1424 -1.3601
8.8684 0.3406 -1.3625
8.8679 0.5391 -1.3656
8.8674 0.7382 -1.3694
8.8668 0.9380 -1.3739
8.8663 1.1388 -1.3791
8.8657 1.3406 -1.3850
8.8652 1.5438 -1.3916
8.8646 1.7486 -1.3990
8.8640 1.9552 -1.4071
8.8635 2.1638 -1.4160
8.8629 2.3746 -1.4257
8.8623 2.5880 -1.4362
8.8617 2.8042 -1.4476
8.8844 3.0314 -1.4637
8.8927 3.2578 -1.4784
10.3699 4.0640 -1.7406
10.3304 4.3172 -1.7516
10.3296 4.5906 -1.7704
10.3289 4.8695 -1.7905
10.3281 5.1543 -1.8118
10.3273 5.4455 -1.8345
10.3003 5.7290 -1.8540
10.2995 6.0338 -1.8796
10.2986 6.3467 -1.9068
10.2977 6.6682 -1.9357
10.2968 6.9991 -1.9664
10.2959 7.3402 -1.9990
10.2949 7.6922 -2.0337
10.2939 8.0562 -2.0705
10.2929 8.4331 -2.1096
10.2559 8.7931 -2.1438
9.8022 8.7919 -2.0914
9.3707 8.7907 -2.0425
8.9595 8.7896 -1.9969
8.5666 8.7885 -1.9543
8.1906 8.7875 -1.9144
8.1108 9.1015 -1.9444
8.1097 9.5205 -1.9962
8.1084 9.9619 -2.0518
8.1072 10.4282 -2.1115
8.1058 10.9219 -2.1758
8.1044 11.4461 -2.2451
8.1029 12.0043 -2.3200
8.1660 12.7013 -2.4204
8.1642 13.3454 -2.5093
6.6752 11.4804 -2.1313
6.6565 12.0609 -2.2122
8.2108 15.6969 -2.8462
8.2084 16.5850 -2.9748
8.2057 17.5565 -3.1170
5.6198 16.6563 -2.8335
14.6717 46.9233 -7.9275
13.5266 46.9202 -7.8766
12.3963 46.9171 -7.8300
11.3639 47.2652 -7.8460
-36.5806 15.3835 -6.2092
-36.1771 14.2711 -6.0783
-36.1745 13.3440 -6.0194
-36.1720 12.4322 -5.9645
-36.1696 11.5344 -5.9133
-36.1672 10.6495 -5.8658
-27.6038 7.4621 -4.4436
-27.2744 6.7229 -4.3602
-27.2726 6.0795 -4.3320
-27.2709 5.4427 -4.3062
-27.2692 4.8115 -4.2827
-27.2675 4.1855 -4.2616
-27.2658 3.5638 -4.2427
-27.2641 2.9458 -4.2260
-27.2624 2.3309 -4.2115
-27.2668 1.7189 -4.2000
-27.2651 1.1081 -4.1898
-27.2634 0.4985 -4.1817
-27.2618 -0.1105 -4.1756
-27.2601 -0.7195 -4.1716
-27.2584 -1.3292 -4.1697
-27.2691 -1.9409 -4.1718
-31.0150 -2.9049 -4.7478
-31.0131 -3.6050 -4.7528
-44.9307 -10.3960 -6.9776
-39.9692 -10.1933 -6.2334
-36.7113 -10.2407 -5.7526
-36.1429 -10.9574 -5.6936
-36.1059 -11.8325 -5.7212
-36.1034 -12.7311 -5.7576
-36.1009 -13.6438 -5.7975
-36.0984 -14.5719 -5.8411
-36.0958 -15.5166 -5.8884
-36.0932 -16.4796 -5.9397
-34.9971 -16.9332 -5.8135
-33.0818 -16.9280 -5.5505
-31.3277 -16.9232 -5.3123
-30.9689 -17.6334 -5.3110
-30.4870 -18.2719 -5.2913
-29.1925 -18.3939 -5.1311
-20.0598 -13.2740 -3.5732
-27.2046 -18.8882 -4.9147
-27.2021 -19.8006 -4.9877
-27.1995 -20.7430 -5.0657
-27.1968 -21.7178 -5.1490
-27.1941 -22.7277 -5.2381
-27.1912 -23.7758 -5.3333
-27.1942 -24.8708 -5.4362
-27.1911 -26.0058 -5.5451
-27.1879 -27.1899 -5.6616
-28.1194 -29.4055 -5.9854
-19.9857 -33.3485 -5.6753
5.6141 -43.1459 -6.3023
8.1178 -46.1793 -6.7942
8.3222 -41.8447 -6.1837
9.2351 -41.5653 -6.1730
5.6783 -23.1097 -3.4511
10.7237 -39.7908 -5.9783
8.0030 -27.2598 -4.1228
7.9972 -25.1502 -3.8313
7.9922 -23.3197 -3.5801
7.9878 -21.7149 -3.3617
8.2340 -20.9307 -3.2695
8.6560 -20.6395 -3.2549
9.1984 -20.6298 -3.2866
9.7550 -20.6283 -3.3220
10.3235 -20.6267 -3.3600
10.9048 -20.6252 -3.4005
11.4999 -20.6235 -3.4438
12.1098 -20.6219 -3.4900
12.7359 -20.6202 -3.5393
13.3794 -20.6184 -3.5918
14.0417 -20.6166 -3.6478
15.2529 -21.3549 -3.8405
16.0193 -21.4016 -3.9152
15.8330 -20.1973 -3.7615
15.8306 -19.2916 -3.6606
15.9176 -18.5382 -3.5872
15.8260 -17.6203 -3.4800
15.8239 -16.8461 -3.3989
15.8219 -16.1081 -3.3234
15.9093 -15.4900 -3.2713
15.7640 -14.6777 -3.1761
15.8163 -14.0807 -3.1255
15.8147 -13.4588 -3.0680
16.3720 -13.3147 -3.1208
17.1370 -13.3127 -3.2123
17.9470 -13.3105 -3.3110
18.8070 -13.3081 -3.4175
19.7227 -13.3056 -3.5327
20.6577 -13.2753 -3.6500
21.6328 -13.2292 -3.7733
5.4680 -3.1784 -0.9422
5.5925 -3.0859 -0.9526
25.4104 -13.2901 -4.2812
26.8456 -13.2862 -4.4769
28.4154 -13.2819 -4.6934
29.8282 -13.1391 -4.8827
34.7377 -14.3846 -5.6388
34.7352 -13.4833 -5.5947
36.2967 -13.1648 -5.8042
38.4534 -12.9833 -6.1084
47.8698 -9.2882 -7.3921
8.8708 -0.5120 -1.3570
8.8702 -0.3134 -1.3571
8.8697 -0.1152 -1.3580
8.8692 0.0829 -1.3595
8.8686 0.2811 -1.3617
8.8681 0.4795 -1.3646
8.8675 0.6784 -1.3682
8.8670 0.8780 -1.3725
8.8664 1.0784 -1.3774
8.8659 1.2799 -1.3831
8.8653 1.4827 -1.3895
8.8648 1.6870 -1.3967
8.8642 1.8930 -1.4046
8.8636 2.1010 -1.4132
8.8631 2.3111 -1.4227
8.8625 2.5237 -1.4330
8.8619 2.7391 -1.4441
8.8820 2.9642 -1.4595
8.8901 3.1894 -1.4738
10.3701 3.9841 -1.7355
10.3306 4.2361 -1.7462
10.3299 4.5080 -1.7647
10.3291 4.7852 -1.7843
10.3283 5.0682 -1.8053
10.3275 5.3574 -1.8276
10.3005 5.6391 -1.8466
10.2997 5.9416 -1.8717
10.2989 6.2519 -1.8985
8.8568 5.6512 -1.6572
10.2971 6.8988 -1.9570
10.2962 7.2367 -1.9890
10.2952 7.5854 -2.0231
10.2942 7.9457 -2.0592
10.2932 8.3186 -2.0976
10.2922 8.7052 -2.1385
9.9359 8.7922 -2.1067
9.4980 8.7911 -2.0568
9.0808 8.7899 -2.0103
8.6826 8.7888 -1.9668
8.3017 8.7878 -1.9261
8.1111 8.9799 -1.9296
8.1100 9.3926 -1.9803
8.1088 9.8270 -2.0347
8.1076 10.2856 -2.0932
6.6652 8.8561 -1.7727
8.1048 11.2854 -2.2238
8.1033 11.8331 -2.2969
8.1665 12.5167 -2.3951
8.1648 13.1473 -2.4818
6.6881 11.3270 -2.1107
6.6570 11.8728 -2.1854
6.6552 12.5178 -2.2775
8.2091 16.3103 -2.9349
8.2065 17.2556 -3.0728
8.1203 18.1073 -3.1929
16.9919 45.9105 -7.8869
15.0183 46.9243 -7.9437
13.8685 46.9211 -7.8914
12.7339 46.9180 -7.8435
11.6132 46.9150 -7.7999
-36.1778 14.5525 -6.0967
-36.1753 13.6205 -6.0367
-36.1728 12.7042 -5.9806
-20.1730 6.5824 -3.3063
-36.1679 10.9137 -5.8797
-31.0405 8.6147 -5.0078
-27.2749 6.9173 -4.3691
-27.2732 6.2718 -4.3402
-27.2714 5.6331 -4.3137
-27.2697 5.0003 -4.2895
-27.2680 4.3728 -4.2677
-27.2663 3.7499 -4.2481
-27.2646 3.1309 -4.2308
-27.2629 2.5151 -4.2156
-27.2673 1.9024 -4.2035
-27.2656 1.2911 -4.1926
-27.2639 0.6812 -4.1839
-27.2623 0.0721 -4.1772
-27.2606 -0.5368 -4.1726
-27.2589 -1.1462 -4.1701
-27.2573 -1.7566 -4.1697
-27.6301 -2.4013 -4.2286
-31.0137 -3.3947 -4.7511
-46.3667 -10.4016 -7.1923
-41.1302 -10.1965 -6.4059
-37.4861 -10.1865 -5.8653
-36.2444 -10.7236 -5.7002
-36.1066 -11.5655 -5.7109
-36.1041 -12.4601 -5.7463
-36.1017 -13.3684 -5.7851
-36.0991 -14.2918 -5.8276
-36.0966 -15.2314 -5.8738
-36.0940 -16.1887 -5.9239
-35.6068 -16.9349 -5.8978
-33.6383 -16.9295 -5.6266
-31.8385 -16.9246 -5.3814
-30.9696 -17.3602 -5.2929
-30.9574 -18.2732 -5.3533
-29.6325 -18.3951 -5.1883
-20.2037 -13.1756 -3.5842
-27.3018 -18.6861 -4.9110
-27.2028 -19.5239 -4.9652
-27.2003 -20.4570 -5.0417
-27.1976 -21.4218 -5.1234
-27.1949 -22.4208 -5.2107
-27.1921 -23.4571 -5.3040
-27.1951 -24.5393 -5.4050
-27.1921 -25.6603 -5.5116
-27.1889 -26.8293 -5.6258
-27.9500 -28.8394 -5.9097
-20.1885 -33.1811 -5.6708
8.1121 -42.2649 -6.2372
8.9437 -41.5661 -6.1635
5.5322 -23.1833 -3.4561
10.7267 -40.8892 -6.1318
10.7173 -37.4303 -5.6495
7.9989 -25.7508 -3.9141
7.9936 -23.8429 -3.6517
7.9891 -22.1752 -3.4242
8.1452 -21.1187 -3.2898
8.5299 -20.7266 -3.2591
9.0335 -20.6303 -3.2765
9.5869 -20.6287 -3.3112
10.1517 -20.6272 -3.3483
10.7290 -20.6256 -3.3881
11.3199 -20.6240 -3.4305
11.9252 -20.6224 -3.4758
12.5463 -20.6207 -3.5242
13.1845 -20.6189 -3.5757
13.8409 -20.6171 -3.6306
14.9322 -21.2046 -3.7946
15.9125 -21.5584 -3.9234
16.3916 -21.2006 -3.9269
15.8313 -19.5580 -3.6901
15.9183 -18.7921 -3.6147
15.8266 -17.8601 -3.5054
15.8245 -17.0744 -3.4226
15.8225 -16.3259 -3.3455
15.7664 -15.5578 -3.2623
15.9080 -15.0118 -3.2244
15.8169 -14.2722 -3.1436
15.8152 -13.6429 -3.0849
16.1506 -13.3153 -3.0946
16.9030 -13.3133 -3.1841
17.6990 -13.3111 -3.2806
18.5434 -13.3088 -3.3847
19.4418 -13.3064 -3.4972
20.4946 -13.3652 -3.6358
21.4265 -13.3010 -3.7515
5.4517 -3.2180 -0.9427
5.5424 -3.1068 -0.9472
24.8962 -13.2342 -4.2080
26.4018 -13.2874 -4.4162
27.9292 -13.2832 -4.6261
29.6059 -13.2787 -4.8590
31.0449 -13.0997 -5.0518
34.7360 -13.7520 -5.6075
35.0865 -12.9925 -5.6225
37.6268 -12.9855 -5.9886
40.0539 -12.8299 -6.3352
8.8709 -0.5717 -1.3570
8.8704 -0.3730 -1.3570
8.8699 -0.1746 -1.3577
8.8693 0.0235 -1.3590
8.8688 0.2216 -1.3610
8.8682 0.4200 -1.3637
8.8677 0.6187 -1.3670
8.8671 0.8181 -1.3711
8.8666 1.0182 -1.3759
8.8661 1.2193 -1.3813
8.8655 1.4217 -1.3875
8.8649 1.6255 -1.3945
8.8644 1.8310 -1.4021
8.8638 2.0384 -1.4106
8.8632 2.2479 -1.4198
8.8627 2.4597 -1.4298
8.8621 2.6742 -1.4407
8.8797 2.8975 -1.4554
8.8876 3.1214 -1.4694
10.3703 3.9046 -1.7305
10.3308 4.1556 -1.7410
10.3301 4.4259 -1.7590
10.3293 4.7015 -1.7783
10.3286 4.9827 -1.7988
10.3278 5.2700 -1.8207
10.3270 5.5639 -1.8440
10.3000 5.8500 -1.8640
10.2991 6.1580 -1.8903
8.8565 5.5678 -1.6496
10.2974 6.7994 -1.9478
10.2965 7.1343 -1.9792
10.2955 7.4796 -2.0126
10.2945 7.8364 -2.0481
10.2935 8.2054 -2.0859
10.2925 8.5877 -2.1260
10.0716 8.7926 -2.1224
9.6271 8.7914 -2.0714
9.2039 8.7903 -2.0239
8.8002 8.7892 -1.9795
8.4143 8.7881 -1.9381
8.0685 8.8132 -1.9049
8.1103 9.2666 -1.9647
8.1092 9.6943 -2.0180
8.1079 10.1453 -2.0752
6.7033 8.7834 -1.7668
8.1053 11.1278 -2.2029
8.1038 11.6651 -2.2744
8.1670 12.3358 -2.3705
8.1653 12.9534 -2.4551
8.1567 13.6049 -2.5449
6.6576 11.6894 -2.1595
6.6558 12.3188 -2.2490
8.2098 16.0429 -2.8962
8.2073 16.9629 -3.0300
8.2046 17.9714 -3.1781
5.4548 16.6576 -2.8258
14.2117 46.9221 -7.9066
13.0727 46.9190 -7.8574
11.9480 46.9159 -7.8126
-27.2460 24.1099 -5.7769
-36.2372 14.8593 -6.1254
-36.1760 13.8984 -6.0543
-36.1735 12.9775 -5.9970
-20.1046 6.7096 -3.3036
-36.1686 11.1790 -5.8939
-31.0411 8.8394 -5.0191
-27.3325 7.1272 -4.3874
-27.2737 6.4647 -4.3486
-27.2720 5.8240 -4.3214
-27.2702 5.1895 -4.2965
-27.2685 4.5605 -4.2740
-27.2668 3.9363 -4.2538
-27.2651 3.3161 -4.2357
-27.2634 2.6995 -4.2199
-27.2618 2.0857 -4.2063
-27.2661 1.4744 -4.1957
-27.2644 0.8642 -4.1863
-27.2628 0.2549 -4.1790
-27.2611 -0.3541 -4.1738
-27.2594 -0.9633 -4.1706
-27.2578 -1.5733 -4.1696
-27.4011 -2.1965 -4.1928
-31.0143 -3.1846 -4.7495
-31.0124 -3.8860 -4.7555
-47.8807 -10.4048 -7.4188
-42.3565 -10.1998 -6.5885
-38.5136 -10.1894 -6.0174
-36.3464 -10.4896 -5.7071
-36.1073 -11.2998 -5.7010
-36.1049 -12.1905 -5.7353
-36.1024 -13.0943 -5.7731
-36.0999 -14.0130 -5.8145
-36.0974 -14.9476 -5.8595
-36.0948 -15.8995 -5.9084
-36.0921 -16.8701 -5.9614
-34.2103 -16.9310 -5.7051
-32.3622 -16.9260 -5.4524
-30.9704 -17.0891 -5.2750
-30.9679 -18.0009 -5.3359
-30.0821 -18.3963 -5.2470
-28.8577 -18.5450 -5.0989
-27.4331 -18.5074 -4.9138
-27.2036 -19.2498 -4.9433
-27.2010 -20.1739 -5.0183
-27.1984 -21.1289 -5.0984
-27.1957 -22.1174 -5.1839
-27.1930 -23.1423 -5.2754
-27.1960 -24.2119 -5.3743
-27.1930 -25.3193 -5.4789
-27.1899 -26.4732 -5.5907
-27.1866 -27.6784 -5.7105
8.0473 -43.4981 -6.4106
8.6622 -41.6101 -6.1608
9.6248 -41.5642 -6.1860
10.6063 -41.5615 -6.2212
10.7200 -38.4092 -5.7856
8.0006 -26.3783 -4.0007
7.9951 -24.3877 -3.7264
7.9904 -22.6531 -3.4892
8.0592 -21.3197 -3.3122
8.4033 -20.8139 -3.2634
8.8697 -20.6307 -3.2666
9.4197 -20.6292 -3.3005
9.9810 -20.6277 -3.3369
10.5545 -20.6261 -3.3758
11.1411 -20.6245 -3.4175
11.7420 -20.6229 -3.4619
12.3582 -20.6212 -3.5093
12.9911 -20.6195 -3.5599
13.6419 -20.6177 -3.6138
14.3764 -20.7084 -3.6877
15.8081 -21.7197 -3.9325
16.2182 -21.2691 -3.9185
15.8320 -19.8289 -3.7202
15.8285 -18.9417 -3.6221
15.8273 -18.1035 -3.5314
15.8251 -17.3060 -3.4468
15.8231 -16.5467 -3.3681
15.8211 -15.8222 -3.2946
15.9086 -15.2150 -3.2442
15.8174 -14.4659 -3.1619
15.8157 -13.8290 -3.1021
15.9329 -13.3159 -3.0690
16.6730 -13.3139 -3.1566
17.4554 -13.3118 -3.2509
18.1659 -13.2231 -3.3308
19.0285 -13.2115 -3.4376
20.1989 -13.3660 -3.5980
21.1110 -13.3018 -3.7106
5.4607 -3.2728 -0.9477
5.4927 -3.1275 -0.9420
24.7201 -13.3537 -4.1918
25.9696 -13.2886 -4.3572
27.4563 -13.2845 -4.5609
29.0858 -13.2801 -4.7865
30.4772 -13.1012 -4.9718
34.7367 -14.0221 -5.6207
34.7343 -13.1272 -5.5780
36.9455 -13.0280 -5.8919
39.1569 -12.8323 -6.2046
8.8711 -0.6314 -1.3572
8.8706 -0.4325 -1.3569
8.8700 -0.2341 -1.3574
8.8695 -0.0359 -1.3585
8.8689 0.1622 -1.3603
8.8684 0.3604 -1.3628
8.8679 0.5590 -1.3660
8.8673 0.7582 -1.3698
8.8668 0.9581 -1.3744
8.8662 1.1589 -1.3796
8.8657 1.3609 -1.3856
8.8651 1.5643 -1.3923
8.8646 1.7692 -1.3997
8.8640 1.9759 -1.4079
8.8634 2.1848 -1.4169
8.8628 2.3959 -1.4267
8.8623 2.6095 -1.4373
8.8617 2.8260 -1.4488
8.8852 3.0538 -1.4651
10.3705 3.8255 -1.7257
10.3698 4.0907 -1.7423
10.3303 4.3443 -1.7535
10.3296 4.6183 -1.7724
10.3288 4.8977 -1.7925
10.3280 5.1831 -1.8140
10.3272 5.4750 -1.8369
10.3002 5.7592 -1.8565
10.2994 6.0648 -1.8822
10.2985 6.3784 -1.9096
10.2976 6.7009 -1.9387
10.2967 7.0328 -1.9696
10.2958 7.3749 -2.0024
10.2948 7.7281 -2.0373
10.2938 8.0933 -2.0743
10.2928 8.4715 -2.1137
10.2095 8.7930 -2.1384
9.7581 8.7918 -2.0863
9.3288 8.7906 -2.0378
8.8651 8.7359 -1.9804
8.5283 8.7884 -1.9502
8.1539 8.7874 -1.9106
8.1107 9.1425 -1.9494
8.1095 9.5636 -2.0016
8.1083 10.0074 -2.0576
6.7972 8.7837 -1.7756
8.1057 10.9729 -2.1825
8.1042 11.5004 -2.2523
8.1027 12.0622 -2.3278
8.1658 12.7637 -2.4290
8.1641 13.4124 -2.5186
6.6709 11.5322 -2.1383
6.6563 12.1247 -2.2212
8.2106 15.7822 -2.8585
8.2081 16.6781 -2.9884
8.2054 17.6587 -3.1320
5.5716 16.6362 -2.8281
14.5564 46.9230 -7.9223
13.4129 46.9199 -7.8717
12.2840 46.9168 -7.8256
11.3626 47.7297 -7.9190
-36.3882 15.2069 -6.1701
-36.1768 14.1776 -6.0722
-36.1743 13.2520 -6.0138
-36.1718 12.3419 -5.9592
-36.1693 11.4454 -5.9084
-36.1669 10.5617 -5.8612
-27.4792 7.3625 -4.4204
-27.2742 6.6583 -4.3572
-27.2725 6.0156 -4.3293
-27.2707 5.3793 -4.3037
-27.2690 4.7487 -4.2805
-27.2673 4.1231 -4.2596
-27.2656 3.5018 -4.2409
-27.2639 2.8842 -4.2245
-27.2623 2.2696 -4.2102
-27.2666 1.6577 -4.1989
-27.2649 1.0470 -4.1889
-27.2633 0.4375 -4.1809
-27.2616 -0.1714 -4.1751
-27.2599 -0.7805 -4.1713
-27.2583 -1.3903 -4.1697
-27.3020 -2.0046 -4.1770
-31.0149 -2.9749 -4.7482
-31.0129 -3.6752 -4.7535
-44.4708 -10.3942 -6.9089
-39.5959 -10.1923 -6.1779
-36.6196 -10.3032 -5.7411
-36.1090 -11.0353 -5.6915
-36.1056 -11.9218 -5.7246
-36.1032 -12.8218 -5.7614
-36.1007 -13.7359 -5.8017
-36.0981 -14.6656 -5.8456
-36.0955 -15.6121 -5.8934
-36.0929 -16.5770 -5.9451
-34.7975 -16.9326 -5.7860
-32.8994 -16.9275 -5.5256
-31.1602 -16.9227 -5.2897
-30.9686 -17.7250 -5.3172
-30.4204 -18.3243 -5.2862
-28.8658 -18.2782 -5.0803
-20.0617 -13.3397 -3.5785
-27.2043 -18.9781 -4.9217
-27.2018 -19.8934 -4.9952
-27.1992 -20.8389 -5.0738
-27.1966 -21.8171 -5.1577
-27.1938 -22.8307 -5.2473
-27.1909 -23.8829 -5.3432
-27.1939 -24.9823 -5.4468
-27.1908 -26.1220 -5.5564
-27.1876 -27.3113 -5.6737
5.7075 -43.1111 -6.2991
8.0519 -45.2123 -6.6547
8.4075 -41.7858 -6.1779
9.3324 -41.5650 -6.1762
5.7393 -23.1348 -3.4568
10.7228 -39.4370 -5.9289
8.0024 -27.0345 -4.0916
7.9967 -24.9556 -3.8045
7.9918 -23.1499 -3.5569
7.9874 -21.5652 -3.3415
8.2764 -20.9015 -3.2679
8.7067 -20.6311 -3.2568
9.2535 -20.6297 -3.2901
9.8114 -20.6281 -3.3257
10.3811 -20.6266 -3.3639
10.9637 -20.6250 -3.4047
11.5602 -20.6234 -3.4483
12.1717 -20.6217 -3.4948
12.7995 -20.6200 -3.5444
13.4448 -20.6182 -3.5973
14.1090 -20.6164 -3.6536
15.7618 -21.9636 -3.9566
16.0690 -21.3685 -3.9160
15.8328 -20.1043 -3.7511
15.8303 -19.2038 -3.6510
15.9174 -18.4545 -3.5781
15.8258 -17.5412 -3.4716
15.8237 -16.7708 -3.3911
15.8217 -16.0362 -3.3161
15.9091 -15.4208 -3.2644
15.7638 -14.6120 -3.1698
15.8162 -14.0175 -3.1196
15.8145 -13.3979 -3.0625
16.3828 -13.2629 -3.1175
17.2159 -13.3124 -3.2219
18.0307 -13.3102 -3.3213
18.8960 -13.3079 -3.4286
19.7926 -13.2886 -3.5403
20.6935 -13.2331 -3.6515
5.4886 -3.3397 -0.9561
5.4734 -3.1652 -0.9420
24.3312 -13.3548 -4.1396
25.5486 -13.2897 -4.2999
26.9964 -13.2858 -4.4976
28.5806 -13.2815 -4.7163
29.9265 -13.1028 -4.8945
34.7374 -14.2938 -5.6343
34.7350 -13.3941 -5.5905
36.5490 -13.1642 -5.8405
38.7362 -12.9825 -6.1494
8.8707 -0.4921 -1.3569
8.8702 -0.2936 -1.3572
8.8696 -0.0954 -1.3581
8.8691 0.1027 -1.3597
8.8686 0.3009 -1.3620
8.8680 0.4994 -1.3649
8.8675 0.6984 -1.3686
8.8669 0.8980 -1.3729
8.8664 1.0985 -1.3780
8.8658 1.3001 -1.3837
8.8653 1.5031 -1.3902
8.8647 1.7075 -1.3974
8.8642 1.9137 -1.4054
8.8636 2.1219 -1.4142
8.8630 2.3323 -1.4237
8.8624 2.5452 -1.4341
8.8618 2.7608 -1.4453
8.8828 2.9866 -1.4609
8.8910 3.2122 -1.4753
10.3700 4.0107 -1.7372
10.3305 4.2631 -1.7480
10.3298 4.5355 -1.7666
10.3290 4.8133 -1.7864
10.3282 5.0968 -1.8074
10.3274 5.3867 -1.8299
10.3004 5.6690 -1.8490
10.2996 5.9722 -1.8743
10.2988 6.2834 -1.9012
8.8835 5.6962 -1.6647
10.2970 6.9321 -1.9601
10.2961 7.2711 -1.9923
10.2951 7.6209 -2.0266
10.2941 7.9825 -2.0630
10.2931 8.3567 -2.1016
10.2920 8.7447 -2.1428
9.8911 8.7921 -2.1016
9.4553 8.7909 -2.0520
9.0402 8.7898 -2.0058
8.6438 8.7887 -1.9626
8.2645 8.7877 -1.9222
8.1110 9.0203 -1.9345
8.1099 9.4350 -1.9856
8.1087 9.8717 -2.0404
8.1074 10.3328 -2.0992
6.6867 8.9261 -1.7839
8.1047 11.3386 -2.2308
8.1032 11.8898 -2.3046
8.1663 12.5778 -2.4035
8.1646 13.2128 -2.4909
6.6838 11.3778 -2.1175
6.6568 11.9350 -2.1943
6.6550 12.5853 -2.2872
8.2089 16.4011 -2.9481
8.2063 17.3550 -3.0874
8.0861 18.1398 -3.1956
16.8744 45.9084 -7.8804
14.9024 46.9239 -7.9383
13.7544 46.9208 -7.8864
12.6213 46.9177 -7.8390
11.5019 46.9147 -7.7958
-36.1776 14.4585 -6.0905
-36.1750 13.5281 -6.0309
-36.1725 12.6133 -5.9752
-36.1701 11.7129 -5.9233
-36.1676 10.8255 -5.8750
-31.0403 8.5400 -5.0040
-27.2748 6.8524 -4.3661
-27.2730 6.2076 -4.3374
-27.2713 5.5695 -4.3111
-27.2695 4.9373 -4.2872
-27.2678 4.3103 -4.2656
-27.2661 3.6879 -4.2463
-27.2644 3.0692 -4.2292
-27.2628 2.4537 -4.2142
-27.2671 1.8412 -4.2023
-27.2654 1.2301 -4.1917
-27.2638 0.6203 -4.1831
-27.2621 0.0113 -4.1766
-27.2604 -0.5977 -4.1723
-27.2588 -1.2072 -4.1700
-27.2571 -1.8178 -4.1697
-28.0219 -2.4984 -4.2889
-31.0135 -3.4648 -4.7516
-45.8782 -10.3997 -7.1192
-40.7359 -10.1954 -6.3473
-37.1542 -10.1856 -5.8162
-36.2106 -10.8016 -5.6980
-36.1063 -11.6544 -5.7143
-36.1039 -12.5503 -5.7500
-36.1014 -13.4600 -5.7892
-36.0989 -14.3849 -5.8320
-36.0963 -15.3263 -5.8786
-36.0937 -16.2854 -5.9291
-35.4017 -16.9343 -5.8694
-33.4513 -16.9290 -5.6010
-31.6667 -16.9241 -5.3581
-30.9694 -17.4511 -5.2989
-30.7993 -18.2727 -5.3324
-29.4846 -18.3947 -5.1690
-20.1285 -13.1907 -3.5757
-27.2673 -18.7520 -4.9118
-27.2026 -19.6159 -4.9727
-27.2000 -20.5521 -5.0497
-27.1974 -21.5202 -5.1319
-27.1946 -22.5229 -5.2198
-27.1918 -23.5631 -5.3137
-27.1948 -24.6493 -5.4153
-27.1918 -25.7749 -5.5227
-27.1886 -26.9489 -5.6377
-27.9497 -28.9681 -5.9228
-20.0935 -33.1916 -5.6645
8.1219 -47.4432 -6.9744
8.1793 -42.1078 -6.2168
9.0407 -41.5658 -6.1667
5.5736 -23.1281 -3.4499
10.7257 -40.5166 -6.0797
8.0042 -27.7209 -4.1868
7.9983 -25.5476 -3.8860
7.9932 -23.6661 -3.6275
7.9887 -22.0198 -3.4031
8.1736 -21.0523 -3.2824
8.5720 -20.6975 -3.2577
9.0884 -20.6301 -3.2799
9.6429 -20.6286 -3.3148
10.2088 -20.6271 -3.3522
10.7875 -20.6255 -3.3922
11.3797 -20.6239 -3.4349
11.9866 -20.6222 -3.4805
12.6093 -20.6205 -3.5292
13.2492 -20.6188 -3.5810
13.9076 -20.6170 -3.6363
15.0030 -21.2044 -3.8008
15.9472 -21.5047 -3.9204
15.8335 -20.3846 -3.7826
15.8310 -19.4687 -3.6802
15.9181 -18.7070 -3.6054
15.8264 -17.7797 -3.4969
15.8243 -16.9979 -3.4147
15.8223 -16.2529 -3.3381
15.8270 -15.5480 -3.2680
15.9078 -14.9447 -3.2179
15.8167 -14.2081 -3.1375
15.8150 -13.5812 -3.0792
16.2240 -13.3152 -3.1032
16.9805 -13.3131 -3.1935
17.7812 -13.3109 -3.2906
18.6307 -13.3086 -3.3955
19.5348 -13.3061 -3.5089
20.5945 -13.3650 -3.6486
21.5331 -13.3007 -3.7654
5.4571 -3.2048 -0.9425
5.5590 -3.0999 -0.9490
25.1380 -13.2908 -4.2443
26.5485 -13.2870 -4.4362
28.0898 -13.2828 -4.6483
29.7812 -13.2774 -4.8835
31.2383 -13.0992 -5.0790
34.7357 -13.6622 -5.6032
35.8011 -13.1662 -5.7329
37.8990 -12.9848 -6.0280
8.8709 -0.5518 -1.3570
8.8704 -0.3531 -1.3570
8.8698 -0.1548 -1.3578
8.8693 0.0433 -1.3592
8.8687 0.2415 -1.3612
8.8682 0.4398 -1.3640
8.8676 0.6386 -1.3674
8.8671 0.8380 -1.3716
8.8665 1.0383 -1.3764
8.8660 1.2396 -1.3819
8.8654 1.4421 -1.3882
8.8649 1.6460 -1.3952
8.8643 1.8517 -1.4029
8.8638 2.0592 -1.4114
8.8632 2.2689 -1.4208
8.8626 2.4810 -1.4309
8.8620 2.6958 -1.4418
8.8805 2.9197 -1.4567
8.8885 3.1440 -1.4709
10.3702 3.9310 -1.7322
10.3307 4.1824 -1.7427
10.3300 4.4533 -1.7609
10.3293 4.7294 -1.7803
10.3285 5.0112 -1.8010
10.3277 5.2991 -1.8230
10.3007 5.5795 -1.8417
10.2999 5.8805 -1.8666
10.2990 6.1892 -1.8930
8.8544 5.5942 -1.6517
10.2973 6.8325 -1.9508
10.2964 7.1683 -1.9825
10.2954 7.5148 -2.0161
10.2944 7.8727 -2.0518
10.2934 8.2430 -2.0898
10.2924 8.6267 -2.1301
10.0261 8.7925 -2.1171
9.5838 8.7913 -2.0665
9.1627 8.7901 -2.0193
8.7608 8.7890 -1.9753
8.3766 8.7880 -1.9341
8.1113 8.8999 -1.9198
8.1102 9.3084 -1.9699
8.1091 9.7383 -2.0235
8.1078 10.1919 -2.0811
6.6722 8.7833 -1.7639
8.1051 11.1800 -2.2098
8.1036 11.7208 -2.2818
8.1668 12.3957 -2.3787
8.1651 13.0176 -2.4639
8.1247 13.6204 -2.5445
6.6573 11.7499 -2.1680
6.6556 12.3846 -2.2584
8.2096 16.1312 -2.9090
8.2071 17.0595 -3.0441
8.2043 18.0777 -3.1938
5.4257 16.6949 -2.8301
14.0971 46.9217 -7.9015
12.9596 46.9186 -7.8527
11.8362 46.9156 -7.8083
-27.3295 24.0750 -5.7827
-36.1873 14.7443 -6.1107
-36.1758 13.8056 -6.0484
-36.1733 12.8863 -5.9915
-20.1124 6.6623 -3.3020
-36.1684 11.0905 -5.8891
-31.0409 8.7644 -5.0153
-27.2931 7.0518 -4.3780
-27.2735 6.4004 -4.3458
-27.2718 5.7603 -4.3188
-27.2701 5.1264 -4.2942
-27.2683 4.4979 -4.2719
-27.2666 3.8741 -4.2519
-27.2649 3.2544 -4.2341
-27.2633 2.6380 -4.2185
-27.2616 2.0244 -4.2050
-27.2659 1.4132 -4.1947
-27.2643 0.8031 -4.1855
-27.2626 0.1939 -4.1784
-27.2609 -0.4151 -4.1734
-27.2593 -1.0243 -4.1704
-27.2576 -1.6344 -4.1696
-27.4586 -2.2628 -4.2018
-31.0141 -3.2546 -4.7500
-47.3739 -10.4055 -7.3430
-41.9403 -10.1987 -6.5265
-38.1653 -10.1884 -5.9658
-36.3122 -10.5676 -5.7048
-36.1071 -11.3883 -5.7042
-36.1046 -12.2802 -5.7389
-36.1022 -13.1857 -5.7771
-36.0997 -14.1059 -5.8188
-36.0971 -15.0422 -5.8643
-36.0945 -15.9958 -5.9136
-36.0228 -16.9360 -5.9555
-34.0176 -16.9305 -5.6786
-32.1862 -16.9255 -5.4285
-30.9701 -17.1792 -5.2809
-30.9676 -18.0933 -5.3422
-29.9312 -18.3959 -5.2273
-28.7160 -18.5446 -5.0807
-27.3727 -18.5557 -4.9099
-27.2033 -19.3408 -4.9506
-27.2008 -20.2679 -5.0260
-27.1982 -21.2261 -5.1067
-27.1955 -22.2182 -5.1928
-27.1927 -23.2468 -5.2849
-27.1957 -24.3206 -5.3845
-27.1927 -25.4325 -5.4898
-27.1895 -26.5915 -5.6024
-27.1862 -27.8020 -5.7230
8.0458 -42.9533 -6.3331
8.7499 -41.5666 -6.1574
9.7224 -41.5640 -6.1894
10.7051 -41.5613 -6.2249
10.7191 -38.0778 -5.7395
8.0000 -26.1661 -3.9714
7.9946 -24.2037 -3.7012
7.9900 -22.4919 -3.4673
8.0880 -21.2524 -3.3047
8.4456 -20.7847 -3.2620
8.9242 -20.6306 -3.2698
9.4753 -20.6290 -3.3040
10.0378 -20.6275 -3.3407
10.6126 -20.6259 -3.3799
11.2006 -20.6243 -3.4218
11.8030 -20.6227 -3.4665
12.4208 -20.6210 -3.5143
13.0555 -20.6193 -3.5651
13.7081 -20.6175 -3.6194
14.5074 -20.7978 -3.7096
15.8430 -21.6658 -3.9294
16.2680 -21.2359 -3.9194
15.8318 -19.7381 -3.7101
15.9003 -18.9416 -3.6292
15.8271 -18.0220 -3.5227
15.8249 -17.2285 -3.4387
15.8229 -16.4728 -3.3605
15.8209 -15.7516 -3.2875
15.9084 -15.1470 -3.2376
15.8172 -14.4011 -3.1558
15.8155 -13.7667 -3.0963
16.0051 -13.3157 -3.0774
16.7492 -13.3137 -3.1657
17.4566 -13.2512 -3.2460
18.2385 -13.2137 -3.3391
19.2576 -13.3069 -3.4740
20.2969 -13.3658 -3.6105
21.2156 -13.3015 -3.7241
5.4514 -3.2507 -0.9450
5.5092 -3.1206 -0.9437
24.8519 -13.3534 -4.2096
26.1124 -13.2882 -4.3766
27.6124 -13.2841 -4.5824
29.2575 -13.2796 -4.8104
30.6644 -13.1007 -4.9982
34.7365 -13.9319 -5.6163
34.7340 -13.0386 -5.5739
37.0930 -12.9870 -5.9115
39.4517 -12.8315 -6.2475
8.8711 -0.6115 -1.3571
8.8705 -0.4127 -1.3570
8.8700 -0.2143 -1.3575
8.8694 -0.0161 -1.3587
8.8689 0.1820 -1.3605
8.8683 0.3803 -1.3631
8.8678 0.5789 -1.3663
8.8673 0.7781 -1.3702
8.8667 0.9781 -1.3749
8.8662 1.1790 -1.3802
8.8656 1.3812 -1.3862
8.8651 1.5847 -1.3930
8.8645 1.7898 -1.4005
8.8639 1.9967 -1.4088
8.8634 2.2058 -1.4179
8.8628 2.4171 -1.4277
8.8622 2.6311 -1.4384
8.8616 2.8478 -1.4500
8.8860 3.0763 -1.4665
10.3704 3.8518 -1.7273
10.3697 4.1174 -1.7440
10.3302 4.3714 -1.7553
10.3295 4.6459 -1.7743
10.3287 4.9260 -1.7946
10.3279 5.2120 -1.8162
10.3271 5.5046 -1.8392
10.3001 5.7894 -1.8590
10.2993 6.0957 -1.8849
8.8806 5.5277 -1.6491
10.2975 6.7336 -1.9417
10.2966 7.0665 -1.9728
10.2957 7.4097 -2.0058
10.2947 7.7641 -2.0409
10.2937 8.1306 -2.0781
10.2927 8.5102 -2.1178
10.1632 8.7929 -2.1330
9.7142 8.7916 -2.0813
9.2869 8.7905 -2.0332
8.8503 8.7605 -1.9817
8.4901 8.7883 -1.9461
8.1173 8.7873 -1.9068
8.1106 9.1837 -1.9545
8.1094 9.6069 -2.0070
8.1082 10.0531 -2.0634
6.7658 8.7836 -1.7726
8.1056 11.0242 -2.1892
8.1041 11.5549 -2.2596
8.1026 12.1204 -2.3357
8.1657 12.8265 -2.4376
8.1639 13.4798 -2.5280
6.6665 11.5842 -2.1453
6.6561 12.1888 -2.2304
8.2103 15.8685 -2.8710
8.2079 16.7723 -3.0021
8.2051 17.7621 -3.1472
5.5275 16.6277 -2.8246
14.4414 46.9227 -7.9170
13.2994 46.9196 -7.8669
12.1719 46.9165 -7.8212
-36.3376 15.0905 -6.1551
-36.1765 14.0843 -6.0662
-36.1740 13.1604 -6.0081
-36.1715 12.2515 -5.9540
-36.1691 11.3564 -5.9035
-36.1667 10.4739 -5.8567
-27.4118 7.2788 -4.4065
-27.2741 6.5936 -4.3543
-27.2723 5.9516 -4.3266
-27.2706 5.3160 -4.3013
-27.2689 4.6860 -4.2783
-27.2671 4.0609 -4.2576
-27.2655 3.4400 -4.2392
-27.2638 2.8226 -4.2229
-27.2621 2.2083 -4.2088
-27.2664 1.5966 -4.1978
-27.2648 0.9861 -4.1880
-27.2631 0.3766 -4.1803
-27.2614 -0.2323 -4.1746
-27.2598 -0.8414 -4.1711
-27.2581 -1.4513 -4.1696
-27.3349 -2.0684 -4.1822
-31.0147 -3.0448 -4.7486
-31.0128 -3.7455 -4.7541
-44.0189 -10.3925 -6.8415
-39.2291 -10.1913 -6.1235
-36.5283 -10.3655 -5.7297
-36.1078 -11.1231 -5.6945
-36.1054 -12.0112 -5.7282
-36.1029 -12.9125 -5.7653
-36.1004 -13.8281 -5.8059
-36.0979 -14.7594 -5.8502
-36.0953 -15.7077 -5.8984
-36.0926 -16.6745 -5.9505
-34.6000 -16.9321 -5.7587
-32.7188 -16.9270 -5.5010
-30.9943 -16.9223 -5.2675
-30.9684 -17.8167 -5.3234
-30.3826 -18.3943 -5.2862
-28.8656 -18.3686 -5.0869
-27.5542 -18.4107 -4.9218
-27.2041 -19.0685 -4.9289
-27.2016 -19.9867 -5.0029
-27.1990 -20.9354 -5.0819
-27.1963 -21.9168 -5.1664
-27.1935 -22.9341 -5.2566
-27.1966 -23.9955 -5.3542
-27.1936 -25.0941 -5.4574
-27.1905 -26.2385 -5.5678
-27.1872 -27.4331 -5.6859
5.8182 -43.1989 -5.3148
8.0503 -44.6182 -5.5308
8.5074 -41.7926 -5.2043
9.4460 -41.6286 -5.2105
10.4269 -41.6248 -5.2397
10.8151 -39.4211 -4.9934
8.0017 -26.8071 -3.4188
7.9961 -24.7587 -3.1810
7.9913 -22.9775 -2.9757
8.0021 -21.4532 -2.8022
8.3443 -20.9320 -2.7593
8.7878 -20.6902 -2.7542
9.3107 -20.6295 -2.7748
9.8698 -20.6280 -2.8053
10.4410 -20.6264 -2.8380
11.0250 -20.6248 -2.8729
11.6232 -20.6232 -2.9102
12.2364 -20.6215 -2.9500
12.8660 -20.6198 -2.9925
13.5133 -20.6180 -3.0377
14.1797 -20.6162 -3.0859
15.7658 -21.8609 -3.3270
16.1212 -21.3337 -3.3036
15.8325 -20.0072 -3.1551
15.7759 -19.0463 -3.0612
15.7736 -18.2009 -2.9841
15.8256 -17.4579 -2.9224
15.8235 -16.6914 -2.8554
15.8215 -15.9603 -2.7930
15.7654 -15.2093 -2.7254
15.8177 -14.5924 -2.6804
15.8160 -13.9504 -2.6296
15.8143 -13.3334 -2.5821
16.5266 -13.3143 -2.6523
17.1762 -13.2165 -2.7117
18.1206 -13.3100 -2.8165
18.9766 -13.2971 -2.9062
19.8156 -13.2355 -2.9924
20.9117 -13.3024 -3.1162
5.4778 -3.3151 -0.8061
5.4787 -3.1508 -0.7967
24.4693 -13.3544 -3.5184
25.6981 -13.2893 -3.6563
27.2853 -13.3467 -3.8438
28.5636 -13.1902 -3.9867
30.3962 -13.2214 -4.2059
32.4734 -13.2708 -4.4572
34.6484 -13.2649 -4.7204
35.0063 -12.5132 -4.7364
36.7951 -12.2333 -4.9471
8.8712 -0.6696 -1.1529
8.8707 -0.4706 -1.1529
8.8701 -0.2721 -1.1534
8.8696 -0.0739 -1.1545
8.8690 0.1242 -1.1561
8.8685 0.3224 -1.1584
8.8680 0.5209 -1.1612
8.8674 0.7200 -1.1646
8.8669 0.9197 -1.1686
8.8663 1.1203 -1.1732
8.8658 1.3221 -1.1784
8.8652 1.5251 -1.1842
8.8647 1.7298 -1.1907
8.8641 1.9362 -1.1978
8.8635 2.1446 -1.2055
8.8630 2.3552 -1.2140
8.8624 2.5683 -1.2231
8.8618 2.7842 -1.2330
8.8612 3.0031 -1.2436
8.8606 3.2253 -1.2550
8.8600 3.4512 -1.2671
8.8593 3.6810 -1.2802
8.8587 3.9151 -1.2941
8.8580 4.1538 -1.3089
8.8574 4.3975 -1.3246
8.8567 4.6467 -1.3414
8.8560 4.9017 -1.3592
8.8553 5.1632 -1.3781
8.8546 5.4314 -1.3982
8.8538 5.7071 -1.4196
8.8530 5.9908 -1.4422
8.8798 6.3028 -1.4709
10.2950 7.6589 -1.7351
10.2940 8.0217 -1.7667
10.2930 8.3973 -1.8002
10.2919 8.7868 -1.8359
9.8438 8.7920 -1.7924
9.4103 8.7908 -1.7506
8.9973 8.7897 -1.7116
8.6028 8.7886 -1.6752
8.2254 8.7876 -1.6411
8.1109 9.0631 -1.6598
8.1098 9.4800 -1.7041
8.1086 9.9192 -1.7515
8.1073 10.3829 -1.8025
8.1060 10.8737 -1.8573
8.1045 11.3948 -1.9164
8.1030 11.9495 -1.9803
8.1662 12.6421 -2.0658
8.1644 13.2817 -2.1415
8.1239 13.9033 -2.2135
6.6686 12.0219 -1.8910
8.0936 15.3923 -2.3936
8.2086 16.4961 -2.5377
6.6533 14.1554 -2.1555
6.6484 15.0077 -2.2633
14.7840 46.9236 -6.7999
13.6377 46.9205 -6.7562
-36.2389 14.3966 -5.1986
-36.2368 13.4664 -5.1471
-36.2348 12.5516 -5.0989
-36.2328 11.6511 -5.0540
-28.0705 8.3392 -3.8832
-28.0436 7.6537 -3.8497
-27.2746 6.7929 -3.7172
-27.2728 6.1489 -3.6923
-27.2711 5.5114 -3.6694
-27.2694 4.8797 -3.6484
-27.2677 4.2531 -3.6295
-27.2660 3.6310 -3.6125
-27.2643 3.0127 -3.5973
-27.2626 2.3975 -3.5841
-27.2669 1.7852 -3.5734
-27.2653 1.1743 -3.5638
-27.2636 0.5646 -3.5559
-27.2619 -0.0445 -3.5498
-27.2603 -0.6534 -3.5455
-27.2586 -1.2630 -3.5430
-27.2570 -1.8737 -3.5422
-28.0217 -2.5561 -3.6429
-28.0200 -3.1884 -3.6458
-45.1675 -10.3358 -5.9474
-40.3810 -10.1945 -5.3383
-37.0767 -10.2461 -4.9235
-36.2379 -10.8908 -4.8364
-36.1678 -11.7563 -4.8541
-36.1658 -12.6551 -4.8838
-36.1638 -13.5680 -4.9164
-36.1617 -14.4962 -4.9521
-36.1596 -15.4410 -4.9910
-37.5682 -17.0440 -5.2296
-35.3431 -16.9959 -4.9648
-33.4037 -16.9916 -4.7382
-31.6283 -16.9876 -4.5331
-30.9691 -17.5354 -4.4878
-30.8655 -18.3985 -4.5254
-28.0004 -17.5493 -4.1564
-20.0806 -13.2188 -3.0201
-27.2352 -18.8133 -4.1531
-27.2023 -19.7017 -4.2090
-27.1998 -20.6409 -4.2737
-27.1971 -21.6121 -4.3429
-27.1944 -22.6183 -4.4169
-27.1915 -23.6624 -4.4960
-27.1946 -24.7529 -4.5816
-27.1915 -25.8831 -4.6721
-27.1883 -27.0619 -4.7690
-20.0253 -33.2388 -4.7752
8.0552 -46.4219 -5.7471
8.2677 -42.0530 -5.2292
9.1532 -41.6274 -5.2020
5.6236 -23.1050 -2.9033
10.7888 -40.3829 -5.1053
8.0036 -27.4832 -3.4976
7.9977 -25.3425 -3.2486
7.9927 -23.4871 -3.0343
7.9882 -21.8620 -2.8481
8.2227 -21.0353 -2.7651
8.6386 -20.7234 -2.7503
9.1452 -20.6300 -2.7660
9.7009 -20.6284 -2.7959
10.2683 -20.6269 -2.8279
10.8484 -20.6253 -2.8622
11.4422 -20.6237 -2.8988
12.0508 -20.6220 -2.9378
12.6753 -20.6203 -2.9794
13.3172 -20.6186 -3.0238
13.9777 -20.6168 -3.0711
15.1244 -21.2702 -3.2207
15.9836 -21.4485 -3.3038
15.8333 -20.2858 -3.1813
15.8308 -19.3752 -3.0961
15.9179 -18.6178 -3.0340
15.8262 -17.6953 -2.9434
15.8241 -16.9175 -2.8750
15.8221 -16.1761 -2.8113
15.7660 -15.4150 -2.7424
15.7642 -14.7396 -2.6871
15.8165 -14.1403 -2.6445
15.8148 -13.5160 -2.5960
16.3027 -13.3149 -2.6297
16.9412 -13.2172 -2.6875
17.8694 -13.3107 -2.7903
18.7246 -13.3083 -2.8802
19.6350 -13.3058 -2.9774
20.6579 -13.3360 -3.0904
21.6329 -13.2909 -3.1951
5.4625 -3.1903 -0.7971
5.5764 -3.0920 -0.8045
25.2838 -13.2905 -3.6085
26.8310 -13.3480 -3.7908
28.2643 -13.2823 -3.9557
29.9752 -13.2776 -4.1582
31.8663 -13.2725 -4.3842
33.9700 -13.2668 -4.6381
35.0071 -12.7786 -4.7460
35.9946 -12.2355 -4.8484
47.8713 -9.3902 -6.2742
8.8708 -0.5302 -1.1528
8.8703 -0.3316 -1.1532
8.8698 -0.1333 -1.1541
8.8692 0.0648 -1.1556
8.8687 0.2629 -1.1576
8.8681 0.4613 -1.1603
8.8676 0.6602 -1.1635
8.8670 0.8597 -1.1673
8.8665 1.0600 -1.1717
8.8659 1.2614 -1.1768
8.8654 1.4641 -1.1824
8.8648 1.6682 -1.1887
8.8643 1.8740 -1.1956
8.8637 2.0818 -1.2031
8.8631 2.2917 -1.2114
8.8625 2.5041 -1.2203
8.8620 2.7191 -1.2299
8.8614 2.9371 -1.2403
8.8608 3.1583 -1.2515
8.8602 3.3831 -1.2634
8.8595 3.6116 -1.2762
8.8589 3.8444 -1.2898
8.8582 4.0817 -1.3043
8.8576 4.3238 -1.3198
8.8569 4.5713 -1.3363
8.8562 4.8246 -1.3537
8.8555 5.0840 -1.3723
8.8548 5.3502 -1.3921
8.8540 5.6236 -1.4130
8.8533 5.9048 -1.4353
8.8751 6.2104 -1.4626
10.2953 7.5525 -1.7260
10.2943 7.9116 -1.7570
10.2933 8.2832 -1.7900
10.2923 8.6684 -1.8250
9.9780 8.7924 -1.8055
9.5381 8.7912 -1.7629
9.1192 8.7900 -1.7231
8.7193 8.7889 -1.6859
8.3369 8.7879 -1.6511
8.1112 8.9421 -1.6471
8.1101 9.3527 -1.6905
8.1089 9.7849 -1.7369
8.1077 10.2410 -1.7868
6.6653 8.8172 -1.5133
8.1050 11.2351 -1.8982
8.1035 11.7794 -1.9606
8.1667 12.4588 -2.0443
8.1649 13.0851 -2.1182
8.1245 13.6926 -2.1881
8.1225 14.4141 -2.2754
8.0943 15.1461 -2.3633
8.2093 16.2238 -2.5038
6.6693 13.9458 -2.1299
6.6491 14.7416 -2.2295
5.4011 16.7499 -2.4322
13.9800 46.9214 -6.7689
-36.2395 14.6788 -5.2147
-36.2375 13.7438 -5.1622
-36.2354 12.8245 -5.1130
-20.1273 6.6213 -2.8147
-28.2026 8.5845 -3.9110
-28.0441 7.8562 -3.8585
-27.2751 6.9876 -3.7251
-27.2734 6.3414 -3.6995
-27.2716 5.7020 -3.6760
-27.2699 5.0686 -3.6545
-27.2682 4.4406 -3.6350
-27.2665 3.8172 -3.6174
-27.2648 3.1978 -3.6017
-27.2631 2.5818 -3.5879
-27.2614 1.9684 -3.5759
-27.2658 1.3574 -3.5665
-27.2641 0.7474 -3.5581
-27.2624 0.1382 -3.5515
-27.2608 -0.4707 -3.5466
-27.2591 -1.0800 -3.5436
-27.2575 -1.6903 -3.5423
-27.5368 -2.3260 -3.5793
-28.0205 -2.9984 -3.6447
-28.2981 -3.6689 -3.6852
-46.6188 -10.3397 -6.1319
-41.5650 -10.1977 -5.4880
-38.0880 -10.2514 -5.0507
-36.3387 -10.6562 -4.8423
-36.1684 -11.4892 -4.8458
-36.1664 -12.3841 -4.8746
-36.1644 -13.2926 -4.9063
-36.1623 -14.2161 -4.9410
-36.1602 -15.1558 -4.9790
-36.1581 -16.1131 -5.0202
-35.9606 -16.9972 -5.0374
-33.9672 -16.9928 -4.8038
-32.1450 -16.9888 -4.5925
-30.9699 -17.2629 -4.4728
-30.9674 -18.1792 -4.5241
-28.1055 -17.3542 -4.1563
-28.5852 -18.5442 -4.2820
-27.3387 -18.6156 -4.1513
-27.2031 -19.4259 -4.1904
-27.2006 -20.3558 -4.2539
-27.1979 -21.3172 -4.3217
-27.1952 -22.3127 -4.3942
-27.1924 -23.3450 -4.4717
-27.1955 -24.4228 -4.5556
-27.1924 -25.5391 -4.6443
-27.1892 -26.7029 -4.7392
-27.3097 -28.0457 -4.8630
8.0605 -48.3726 -5.9813
8.0454 -42.4207 -5.2677
8.8611 -41.6257 -5.1938
9.8371 -41.6271 -5.2218
10.7913 -41.5044 -5.2372
8.0055 -28.1914 -3.5804
7.9994 -25.9518 -3.3193
7.9941 -24.0173 -3.0953
7.9895 -22.3281 -2.9013
8.1175 -21.1834 -2.7769
8.5128 -20.8127 -2.7541
9.0056 -20.6878 -2.7651
9.5330 -20.6289 -2.7867
10.0968 -20.6274 -2.8181
10.6730 -20.6258 -2.8517
11.2626 -20.6242 -2.8875
11.8666 -20.6225 -2.9258
12.4862 -20.6208 -2.9667
13.1227 -20.6191 -3.0102
13.7775 -20.6173 -3.0566
14.6461 -20.8924 -3.1478
15.8795 -21.6093 -3.3113
16.3204 -21.2010 -3.3067
15.8315 -19.6430 -3.1210
15.9186 -18.8730 -3.0573
15.8269 -17.9363 -2.9649
15.8247 -17.1468 -2.8950
15.8227 -16.3949 -2.8299
15.7666 -15.6234 -2.7597
15.7647 -14.9392 -2.7033
15.8170 -14.3325 -2.6596
15.8153 -13.7007 -2.6102
16.0824 -13.3155 -2.6075
16.7162 -13.2227 -2.6649
17.4961 -13.2157 -2.7447
18.4626 -13.3090 -2.8524
19.3558 -13.3066 -2.9474
20.4023 -13.3655 -3.0644
21.3282 -13.3012 -3.1620
5.4462 -3.2299 -0.7975
5.5264 -3.1129 -0.7999
24.8963 -13.3003 -3.5644
26.1577 -13.2323 -3.7066
27.7822 -13.2836 -3.8990
29.4212 -13.2687 -4.0919
31.1147 -13.2047 -4.2912
33.3143 -13.2685 -4.5587
34.8677 -12.9931 -4.7369
35.2248 -12.2376 -4.7536
39.7749 -12.8306 -5.3351
8.8710 -0.5899 -1.1528
8.8705 -0.3912 -1.1530
8.8699 -0.1928 -1.1537
8.8694 0.0054 -1.1551
8.8688 0.2035 -1.1570
8.8683 0.4018 -1.1594
8.8677 0.6005 -1.1625
8.8672 0.7998 -1.1661
8.8667 0.9998 -1.1704
8.8661 1.2009 -1.1752
8.8656 1.4031 -1.1806
8.8650 1.6068 -1.1867
8.8644 1.8121 -1.1934
8.8639 2.0193 -1.2008
8.8633 2.2285 -1.2088
8.8627 2.4401 -1.2175
8.8621 2.6543 -1.2270
8.8615 2.8714 -1.2371
8.8609 3.0916 -1.2480
8.8603 3.3153 -1.2597
8.8597 3.5426 -1.2723
8.8591 3.7741 -1.2856
8.8584 4.0100 -1.2999
8.8578 4.2506 -1.3151
8.8571 4.4965 -1.3312
8.8564 4.7480 -1.3484
8.8557 5.0055 -1.3666
8.8550 5.2696 -1.3860
8.8543 5.5408 -1.4066
8.8535 5.8196 -1.4285
8.8704 6.1189 -1.4546
10.2956 7.4470 -1.7171
10.2946 7.8026 -1.7475
10.2936 8.1704 -1.7799
10.2926 8.5514 -1.8142
10.1144 8.7927 -1.8189
9.6678 8.7915 -1.7754
9.2428 8.7904 -1.7347
8.8374 8.7893 -1.6968
8.4499 8.7882 -1.6613
8.0905 8.7999 -1.6304
8.1105 9.2273 -1.6771
8.1093 9.6529 -1.7226
8.1081 10.1016 -1.7715
6.7329 8.7835 -1.5148
8.1054 11.0784 -1.8804
8.1039 11.6125 -1.9414
8.1671 12.2791 -2.0233
8.1655 12.8926 -2.0954
8.1637 13.5507 -2.1737
8.1231 14.1918 -2.2484
8.1210 14.9540 -2.3413
8.2101 15.9586 -2.4708
8.2076 16.8706 -2.5845
6.6499 14.4831 -2.1967
5.4897 16.6416 -2.4215
14.3236 46.9224 -6.7820
13.1958 46.9632 -6.7461
-27.2037 24.1880 -4.9431
-36.3710 15.0167 -5.2500
-36.2381 14.0226 -5.1776
-36.2360 13.0987 -5.1274
-20.1285 6.7716 -2.8223
-36.2320 11.2945 -5.0369
-28.0447 8.0595 -3.8675
-27.3754 7.2091 -3.7469
-27.2739 6.5345 -3.7070
-27.2721 5.8931 -3.6829
-27.2704 5.2580 -3.6607
-27.2687 4.6285 -3.6406
-27.2670 4.0038 -3.6225
-27.2653 3.3833 -3.6062
-27.2636 2.7663 -3.5918
-27.2619 2.1521 -3.5793
-27.2663 1.5406 -3.5693
-27.2646 0.9303 -3.5604
-27.2629 0.3209 -3.5533
-27.2613 -0.2880 -3.5479
-27.2596 -0.8972 -3.5443
-27.2580 -1.5071 -3.5425
-27.3652 -2.1269 -3.5566
-28.0210 -2.8087 -3.6438
-28.1599 -3.4594 -3.6657
-48.1617 -10.3440 -6.3283
-43.3609 -10.3309 -5.7182
-39.1371 -10.2531 -5.1828
-36.5235 -10.4452 -4.8595
-36.1690 -11.2232 -4.8377
-36.1670 -12.1142 -4.8656
-36.1650 -13.0186 -4.8964
-36.1629 -13.9374 -4.9303
-36.1609 -14.8721 -4.9673
-36.1588 -15.8240 -5.0075
-37.5671 -17.4497 -5.2481
-34.5461 -16.9941 -4.8714
-32.6752 -16.9900 -4.6537
-30.9706 -16.9925 -4.4581
-30.9681 -17.9019 -4.5083
-28.2189 -17.1642 -4.1575
-27.9739 -17.8826 -4.1739
-27.4979 -18.4557 -4.1582
-27.2038 -19.1526 -4.1722
-27.2013 -20.0737 -4.2344
-27.1987 -21.0254 -4.3009
-27.1960 -22.0103 -4.3719
-27.1933 -23.0313 -4.4479
-27.1963 -24.0966 -4.5301
-27.1933 -25.1993 -4.6170
-27.1902 -26.3485 -4.7101
-27.1869 -27.5482 -4.8097
8.0487 -44.0468 -5.4623
8.5922 -41.7323 -5.1993
9.5437 -41.6282 -5.2133
10.5255 -41.6244 -5.2428
10.9097 -39.4209 -4.9966
8.0011 -26.5885 -3.3933
7.9956 -24.5695 -3.1591
7.9908 -22.8120 -2.9567
8.0311 -21.3853 -2.7958
8.3866 -20.9024 -2.7580
8.8425 -20.6905 -2.7570
9.3662 -20.6293 -2.7777
9.9264 -20.6278 -2.8085
10.4988 -20.6263 -2.8413
11.0842 -20.6247 -2.8765
11.6838 -20.6230 -2.9141
12.2986 -20.6214 -2.9541
12.9299 -20.6196 -2.9969
13.5791 -20.6179 -3.0424
14.2533 -20.6245 -3.0922
15.7749 -21.7710 -3.3189
16.1710 -21.3005 -3.3044
15.8323 -19.9153 -3.1465
15.7757 -18.9597 -3.0532
15.7883 -18.1359 -2.9795
15.8253 -17.3796 -2.9155
15.8233 -16.6167 -2.8490
15.8213 -15.8890 -2.7870
15.7653 -15.1413 -2.7198
15.8176 -14.5270 -2.6751
15.8158 -13.8876 -2.6247
15.8657 -13.3161 -2.5859
16.6020 -13.3141 -2.6599
17.2555 -13.2163 -2.7198
18.1661 -13.2811 -2.8193
18.9765 -13.2339 -2.9020
20.1085 -13.3663 -3.0325
21.0148 -13.3021 -3.1275
5.4684 -3.2928 -0.8037
5.4841 -3.1376 -0.7965
24.5991 -13.3540 -3.5332
25.8387 -13.2889 -3.6725
27.4394 -13.3463 -3.8618
29.0209 -13.3228 -4.0469
30.5598 -13.2114 -4.2250
32.6802 -13.2703 -4.4822
34.7345 -13.2090 -4.7287
35.0164 -12.4287 -4.7347
39.3804 -12.9952 -5.2915
8.8712 -0.6496 -1.1529
8.8706 -0.4507 -1.1529
8.8701 -0.2523 -1.1535
8.8695 -0.0541 -1.1546
8.8690 0.1440 -1.1563
8.8684 0.3423 -1.1586
8.8679 0.5408 -1.1615
8.8674 0.7399 -1.1650
8.8668 0.9397 -1.1690
8.8663 1.1404 -1.1737
8.8657 1.3423 -1.1789
8.8652 1.5455 -1.1848
8.8646 1.7503 -1.1913
8.8640 1.9569 -1.1985
8.8635 2.1655 -1.2063
8.8629 2.3764 -1.2148
8.8623 2.5898 -1.2241
8.8617 2.8060 -1.2340
8.8611 3.0252 -1.2447
8.8605 3.2478 -1.2561
8.8599 3.4740 -1.2684
8.8593 3.7042 -1.2815
8.8586 3.9387 -1.2955
8.8580 4.1779 -1.3104
8.8573 4.4222 -1.3263
8.8566 4.6719 -1.3431
8.8559 4.9276 -1.3610
8.8552 5.1897 -1.3801
8.8545 5.4587 -1.4003
8.8537 5.7351 -1.4218
8.8530 6.0197 -1.4446
8.8814 6.3338 -1.4736
10.2949 7.6947 -1.7382
10.2939 8.0587 -1.7700
10.2929 8.4356 -1.8037
10.2529 8.7931 -1.8326
9.7994 8.7919 -1.7881
9.3681 8.7907 -1.7466
8.9570 8.7896 -1.7079
8.5643 8.7885 -1.6717
8.1885 8.7875 -1.6378
8.1108 9.1039 -1.6641
8.1096 9.5229 -1.7086
8.1084 9.9644 -1.7564
6.8523 8.8161 -1.5279
8.1058 10.9245 -1.8630
8.1044 11.4487 -1.9226
8.1029 12.0070 -1.9870
8.1660 12.7041 -2.0731
8.1642 13.3483 -2.1495
8.1237 13.9746 -2.2221
6.6565 12.0634 -1.8953
8.0934 15.4758 -2.4040
8.2084 16.5884 -2.5492
6.6505 14.2321 -2.1650
6.6482 15.0983 -2.2748
5.6178 16.6538 -2.4284
14.6688 46.9233 -6.7954
13.5239 46.9202 -6.7521
-36.6093 15.4031 -5.3013
-36.2387 14.3028 -5.1933
-36.2366 13.3743 -5.1421
-36.2346 12.4610 -5.0943
-36.2326 11.5617 -5.0496
-28.0452 8.2635 -3.8767
-27.6141 7.4702 -3.7879
-27.2744 6.7282 -3.7147
-27.2727 6.0848 -3.6899
-27.2709 5.4479 -3.6672
-27.2692 4.8168 -3.6465
-27.2675 4.1907 -3.6277
-27.2658 3.5690 -3.6109
-27.2641 2.9510 -3.5959
-27.2624 2.3361 -3.5828
-27.2668 1.7240 -3.5724
-27.2651 1.1132 -3.5629
-27.2634 0.5036 -3.5552
-27.2618 -0.1054 -3.5493
-27.2601 -0.7144 -3.5452
-27.2585 -1.3240 -3.5428
-27.2663 -1.9355 -3.5435
-28.0215 -2.6192 -3.6431
-28.0515 -3.2554 -3.6503
-44.7024 -10.3345 -5.8884
-40.0001 -10.1934 -5.2902
-36.7927 -10.2561 -4.8881
-36.2044 -10.9689 -4.8345
-36.1676 -11.8456 -4.8569
-36.1656 -12.7458 -4.8869
-36.1636 -13.6601 -4.9198
-36.1615 -14.5899 -4.9558
-36.1594 -15.5365 -4.9951
-37.5679 -17.1451 -5.2341
-35.1410 -16.9954 -4.9411
-33.2191 -16.9912 -4.7168
-31.4588 -16.9873 -4.5136
-30.9689 -17.6266 -4.4929
-28.4485 -17.0439 -4.1760
-27.9746 -17.6203 -4.1579
-20.0595 -13.2693 -3.0210
-27.2046 -18.8820 -4.1544
-27.2021 -19.7943 -4.2153
-27.1995 -20.7365 -4.2804
-27.1969 -21.7112 -4.3501
-27.1941 -22.7211 -4.4246
-27.1912 -23.7689 -4.5042
-27.1943 -24.8638 -4.5903
-27.1912 -25.9987 -4.6815
-27.1879 -27.1827 -4.7791
5.6145 -43.1408 -5.3043
8.0535 -45.8048 -5.6731
8.3363 -41.9075 -5.2136
9.2508 -41.6280 -5.2048
5.6789 -23.1077 -2.9053
10.7880 -40.0216 -5.0629
8.0030 -27.2543 -3.4709
7.9972 -25.1451 -3.2257
7.9922 -23.3150 -3.0145
7.9878 -21.7105 -2.8308
8.2617 -20.9968 -2.7626
8.6805 -20.6936 -2.7491
9.2003 -20.6298 -2.7689
9.7571 -20.6283 -2.7990
10.3257 -20.6267 -2.8312
10.9071 -20.6251 -2.8657
11.5024 -20.6235 -2.9026
12.1125 -20.6219 -2.9418
12.7387 -20.6202 -2.9838
13.3824 -20.6184 -3.0284
14.0449 -20.6166 -3.0760
15.2596 -21.3593 -3.2396
16.0218 -21.4000 -3.3022
15.8330 -20.1924 -3.1725
15.8305 -19.2869 -3.0879
15.9176 -18.5336 -3.0264
15.8260 -17.6158 -2.9364
15.8239 -16.8417 -2.8684
15.8219 -16.1038 -2.8051
15.7658 -15.3461 -2.7367
15.7640 -14.6736 -2.6817
15.8163 -14.0767 -2.6395
15.8146 -13.4548 -2.5913
