ply
format ascii 1.0
element vertex 2173
property float32 x
property float32 y
property float32 z
end_header
-0.0514 1.7043 0.7892
-0.0895 1.7027 0.7892
-0.1275 1.7003 0.7893
-0.1654 1.6971 0.7893
-0.2033 1.6931 0.7893
-0.2411 1.6882 0.7894
-0.2787 1.6825 0.7894
-0.3163 1.6759 0.7895
-0.3536 1.6686 0.7895
-0.3908 1.6604 0.7896
-0.4279 1.6514 0.7896
-0.4647 1.6416 0.7897
-0.5013 1.6310 0.7898
-0.5377 1.6196 0.7899
-0.5737 1.6073 0.7900
-0.6096 1.5943 0.7901
-0.6451 1.5805 0.7902
-0.6804 1.5659 0.7903
-0.7153 1.5506 0.7904
-0.7498 1.5345 0.7906
-0.7841 1.5176 0.7907
-0.8179 1.5000 0.7908
-2.2929 3.9903 2.1303
-2.3826 3.9400 2.1313
-2.4712 3.8878 2.1324
-2.5588 3.8336 2.1335
-2.6452 3.7775 2.1346
-2.7304 3.7195 2.1358
-2.8144 3.6597 2.1370
-2.8972 3.5981 2.1383
-2.9786 3.5346 2.1396
-3.0587 3.4694 2.1409
-3.1375 3.4024 2.1423
-3.2148 3.3337 2.1437
-3.2906 3.2632 2.1452
-3.3650 3.1911 2.1466
-3.4379 3.1174 2.1481
-3.5092 3.0420 2.1497
-3.5789 2.9650 2.1513
-3.6469 2.8865 2.1529
-3.7133 2.8065 2.1545
-3.7780 2.7249 2.1562
-3.8409 2.6419 2.1579
-3.9021 2.5575 2.1596
-3.9614 2.4718 2.1614
-4.0190 2.3847 2.1632
-4.0747 2.2962 2.1650
-4.1284 2.2065 2.1668
-4.1802 2.1156 2.1687
-4.2301 2.0234 2.1705
-4.2781 1.9301 2.1725
-4.3239 1.8357 2.1744
-4.3677 1.7403 2.1763
-4.4096 1.6438 2.1783
-4.4492 1.5463 2.1803
-4.4868 1.4479 2.1823
-4.5222 1.3486 2.1844
-4.5555 1.2484 2.1864
-4.5866 1.1475 2.1885
-4.6154 1.0457 2.1906
-4.6421 0.9433 2.1927
-4.6665 0.8402 2.1948
-4.6886 0.7364 2.1969
-4.7084 0.6322 2.1990
-4.7260 0.5273 2.2012
-4.7413 0.4221 2.2033
-4.7542 0.3164 2.2055
-4.7647 0.2103 2.2077
-4.7729 0.1040 2.2099
-4.7788 -0.0027 2.2120
-4.7823 -0.1095 2.2142
-4.7834 -0.2165 2.2164
-4.7820 -0.3236 2.2186
-4.7783 -0.4308 2.2208
-4.7723 -0.5379 2.2230
-4.7638 -0.6450 2.2252
-4.7529 -0.7520 2.2274
-4.7395 -0.8587 2.2296
-4.7238 -0.9654 2.2317
-4.7056 -1.0717 2.2339
-4.6851 -1.1776 2.2361
-4.6621 -1.2832 2.2383
-4.6367 -1.3883 2.2404
-4.6089 -1.4930 2.2426
-4.5788 -1.5971 2.2447
-4.5463 -1.7005 2.2468
-4.5114 -1.8033 2.2489
-4.4741 -1.9054 2.2510
-4.4345 -2.0067 2.2531
-4.3926 -2.1072 2.2551
-4.3484 -2.2067 2.2572
-4.3019 -2.3054 2.2592
-4.2530 -2.4030 2.2612
-4.2020 -2.4996 2.2632
-4.1487 -2.5950 2.2651
-4.0932 -2.6893 2.2670
-4.0355 -2.7824 2.2690
-3.9756 -2.8743 2.2708
-3.9137 -2.9647 2.2727
-3.8495 -3.0539 2.2745
-3.7833 -3.1416 2.2763
-3.7151 -3.2278 2.2781
-3.6449 -3.3125 2.2798
-3.5727 -3.3956 2.2815
-3.4985 -3.4771 2.2832
-3.4224 -3.5569 2.2848
-3.3444 -3.6350 2.2864
-3.2647 -3.7113 2.2880
-3.1831 -3.7858 2.2895
-3.0997 -3.8585 2.2910
-3.0147 -3.9292 2.2924
-2.9280 -3.9980 2.2938
-2.8396 -4.0649 2.2952
-2.7497 -4.1296 2.2965
-2.6583 -4.1924 2.2978
-2.5654 -4.2530 2.2991
-2.4711 -4.3115 2.3003
-0.8401 -1.5448 0.8140
-0.8055 -1.5634 0.8141
-0.7705 -1.5813 0.8142
-0.7352 -1.5984 0.8144
-0.6994 -1.6146 0.8145
-0.6632 -1.6301 0.8146
-0.6267 -1.6447 0.8147
-0.5899 -1.6585 0.8148
-0.5528 -1.6715 0.8149
-0.5154 -1.6836 0.8150
-0.4777 -1.6948 0.8151
-0.4398 -1.7052 0.8152
-0.4016 -1.7148 0.8152
-0.3632 -1.7235 0.8153
-0.3247 -1.7313 0.8154
-0.2860 -1.7382 0.8154
-0.2471 -1.7442 0.8154
-0.2081 -1.7494 0.8155
-0.1690 -1.7537 0.8155
-0.1298 -1.7571 0.8155
-0.0905 -1.7596 0.8156
-0.0512 -1.7612 0.8156
-0.0118 -1.7619 0.8156
0.0275 -1.7617 0.8156
0.0669 -1.7606 0.8156
0.1062 -1.7587 0.8155
0.1454 -1.7558 0.8155
0.1846 -1.7521 0.8155
0.2237 -1.7474 0.8155
0.2626 -1.7419 0.8154
0.3015 -1.7355 0.8154
0.3401 -1.7282 0.8153
0.3786 -1.7200 0.8152
0.4169 -1.7110 0.8152
0.4550 -1.7011 0.8151
0.4928 -1.6903 0.8150
0.5304 -1.6787 0.8149
0.5677 -1.6663 0.8148
0.6047 -1.6530 0.8147
0.6413 -1.6388 0.8146
0.6777 -1.6239 0.8145
0.7137 -1.6081 0.8144
0.7493 -1.5915 0.8142
0.7845 -1.5741 0.8141
0.8193 -1.5559 0.8140
2.4138 -4.3455 2.3010
2.5090 -4.2883 2.2998
2.6027 -4.2290 2.2986
2.6951 -4.1675 2.2973
2.7859 -4.1040 2.2960
2.8752 -4.0384 2.2947
2.9629 -3.9707 2.2933
3.0489 -3.9011 2.2919
3.1333 -3.8296 2.2904
3.2159 -3.7562 2.2889
3.2968 -3.6810 2.2874
3.3759 -3.6040 2.2858
3.4531 -3.5252 2.2842
3.5284 -3.4447 2.2825
3.6018 -3.3625 2.2808
3.6733 -3.2788 2.2791
3.7427 -3.1935 2.2774
3.8101 -3.1067 2.2756
3.8754 -3.0184 2.2738
3.9387 -2.9287 2.2719
3.9998 -2.8377 2.2701
4.0589 -2.7453 2.2682
4.1157 -2.6518 2.2663
4.1703 -2.5570 2.2643
4.2227 -2.4611 2.2624
4.2728 -2.3641 2.2604
4.3208 -2.2660 2.2584
4.3664 -2.1670 2.2563
4.4097 -2.0671 2.2543
4.4507 -1.9663 2.2522
4.4893 -1.8647 2.2502
4.5256 -1.7623 2.2481
4.5596 -1.6592 2.2460
4.5912 -1.5555 2.2438
4.6204 -1.4512 2.2417
4.6472 -1.3463 2.2395
4.6715 -1.2410 2.2374
4.6936 -1.1353 2.2352
4.7131 -1.0292 2.2330
4.7304 -0.9227 2.2309
4.7451 -0.8161 2.2287
4.7575 -0.7092 2.2265
4.7675 -0.6022 2.2243
4.7750 -0.4950 2.2221
4.7801 -0.3879 2.2199
4.7829 -0.2808 2.2177
4.7832 -0.1737 2.2155
4.7812 -0.0667 2.2133
4.7768 0.0400 2.2112
4.7699 0.1466 2.2090
4.7608 0.2528 2.2068
4.7493 0.3587 2.2046
4.7354 0.4642 2.2025
4.7193 0.5693 2.2003
4.7008 0.6739 2.1982
4.6800 0.7780 2.1960
4.6570 0.8815 2.1939
4.6317 0.9843 2.1918
4.6042 1.0865 2.1897
4.5744 1.1879 2.1877
4.5425 1.2886 2.1856
4.5083 1.3884 2.1835
4.4721 1.4874 2.1815
4.4336 1.5854 2.1795
4.3931 1.6825 2.1775
4.3505 1.7786 2.1756
4.3058 1.8736 2.1736
4.2591 1.9676 2.1717
4.2104 2.0604 2.1698
4.1597 2.1521 2.1679
4.1071 2.2425 2.1661
4.0526 2.3317 2.1642
3.9962 2.4197 2.1624
3.9379 2.5063 2.1607
3.8779 2.5915 2.1589
3.8160 2.6753 2.1572
3.7523 2.7577 2.1555
3.6870 2.8386 2.1539
3.6199 2.9181 2.1522
3.5512 2.9960 2.1506
3.4808 3.0723 2.1491
3.4089 3.1470 2.1475
3.3355 3.2201 2.1460
3.2605 3.2916 2.1446
3.1840 3.3613 2.1431
3.1062 3.4294 2.1418
3.0269 3.4957 2.1404
2.9462 3.5602 2.1391
2.8643 3.6230 2.1378
2.7810 3.6839 2.1365
2.6965 3.7429 2.1353
2.6108 3.8002 2.1342
2.5239 3.8555 2.1330
2.4359 3.9089 2.1319
2.3469 3.9603 2.1309
0.8380 1.4889 0.7908
0.8043 1.5070 0.7907
0.7704 1.5243 0.7906
0.7360 1.5409 0.7904
0.7013 1.5567 0.7903
0.6663 1.5718 0.7902
0.6309 1.5860 0.7901
0.5953 1.5995 0.7900
0.5593 1.6122 0.7899
0.5231 1.6241 0.7898
0.4866 1.6352 0.7897
0.4500 1.6455 0.7897
0.4131 1.6550 0.7896
0.3760 1.6637 0.7895
0.3387 1.6716 0.7895
0.3013 1.6786 0.7894
0.2637 1.6848 0.7894
0.2260 1.6902 0.7893
0.1881 1.6948 0.7893
0.1503 1.6985 0.7893
0.1123 1.7014 0.7892
0.0742 1.7034 0.7892
0.0362 1.7046 0.7892
-0.0019 1.7050 0.7892
-0.0400 1.7046 0.7892
-0.0780 1.7033 0.7892
-0.1161 1.7011 0.7893
-0.1540 1.6982 0.7893
-0.1919 1.6944 0.7893
-0.2297 1.6897 0.7894
-0.2674 1.6843 0.7894
-0.3050 1.6780 0.7894
-0.3424 1.6709 0.7895
-0.3797 1.6629 0.7896
-0.4168 1.6542 0.7896
-0.4537 1.6446 0.7897
-0.4903 1.6342 0.7898
-0.5268 1.6231 0.7899
-0.5629 1.6111 0.7900
-0.5989 1.5983 0.7901
-0.6345 1.5847 0.7902
-0.6698 1.5704 0.7903
-0.7048 1.5553 0.7904
-0.7395 1.5394 0.7905
-0.7738 1.5227 0.7906
-0.8078 1.5053 0.7908
-2.2658 4.0050 2.1300
-2.3558 3.9553 2.1310
-2.4448 3.9036 2.1320
-2.5326 3.8500 2.1331
-2.6194 3.7945 2.1343
-2.7050 3.7371 2.1355
-2.7894 3.6779 2.1367
-2.8725 3.6168 2.1379
-2.9543 3.5539 2.1392
-3.0348 3.4892 2.1405
-3.1140 3.4227 2.1419
-3.1917 3.3545 2.1433
-3.2680 3.2845 2.1447
-3.3429 3.2129 2.1462
-3.4162 3.1396 2.1477
-3.4879 3.0648 2.1492
-3.5581 2.9882 2.1508
-3.6266 2.9102 2.1524
-3.6935 2.8306 2.1540
-3.7587 2.7496 2.1557
-3.8222 2.6670 2.1574
-3.8839 2.5830 2.1591
-3.9438 2.4977 2.1608
-4.0019 2.4109 2.1626
-4.0581 2.3229 2.1644
-4.1125 2.2335 2.1662
-4.1649 2.1430 2.1681
-4.2154 2.0512 2.1700
-4.2639 1.9583 2.1719
-4.3104 1.8642 2.1738
-4.3548 1.7690 2.1758
-4.3972 1.6728 2.1777
-4.4375 1.5757 2.1797
-4.4757 1.4775 2.1817
-4.5118 1.3785 2.1838
-4.5457 1.2785 2.1858
-4.5775 1.1778 2.1879
-4.6070 1.0763 2.1899
-4.6343 0.9741 2.1920
-4.6594 0.8712 2.1941
-4.6822 0.7676 2.1963
-4.7027 0.6635 2.1984
-4.7210 0.5588 2.2005
-4.7369 0.4537 2.2027
-4.7506 0.3481 2.2049
-4.7618 0.2422 2.2070
-4.7707 0.1359 2.2092
-4.7773 0.0293 2.2114
-4.7815 -0.0774 2.2136
-4.7833 -0.1844 2.2158
-4.7827 -0.2915 2.2179
-4.7797 -0.3986 2.2201
-4.7743 -0.5058 2.2223
-4.7665 -0.6129 2.2245
-4.7564 -0.7199 2.2267
-4.7437 -0.8267 2.2289
-4.7287 -0.9334 2.2311
-4.7113 -1.0398 2.2333
-4.6915 -1.1459 2.2354
-4.6692 -1.2516 2.2376
-4.6446 -1.3569 2.2398
-4.6175 -1.4616 2.2419
-4.5881 -1.5659 2.2440
-4.5563 -1.6696 2.2462
-4.5221 -1.7726 2.2483
-4.4856 -1.8749 2.2504
-4.4467 -1.9764 2.2525
-4.4055 -2.0771 2.2545
-4.3619 -2.1770 2.2566
-4.3160 -2.2759 2.2586
-4.2679 -2.3738 2.2606
-4.2175 -2.4707 2.2626
-4.1649 -2.5665 2.2645
-4.1101 -2.6612 2.2665
-4.0531 -2.7547 2.2684
-3.9938 -2.8469 2.2703
-3.9325 -2.9378 2.2721
-3.8690 -3.0273 2.2740
-3.8034 -3.1154 2.2758
-3.7358 -3.2021 2.2775
-3.6662 -3.2872 2.2793
-3.5945 -3.3708 2.2810
-3.5210 -3.4528 2.2827
-3.4454 -3.5331 2.2843
-3.3681 -3.6117 2.2859
-3.2888 -3.6886 2.2875
-3.2077 -3.7637 2.2890
-3.1249 -3.8369 2.2905
-3.0404 -3.9082 2.2920
-2.9542 -3.9776 2.2934
-2.8663 -4.0450 2.2948
-2.7769 -4.1104 2.2961
-2.6859 -4.1738 2.2974
-2.5934 -4.2350 2.2987
-2.4995 -4.2942 2.2999
-2.4042 -4.3511 2.3011
-0.8160 -1.5579 0.8141
-0.7811 -1.5760 0.8142
-0.7458 -1.5933 0.8143
-0.7101 -1.6098 0.8144
-0.6741 -1.6255 0.8146
-0.6377 -1.6404 0.8147
-0.6010 -1.6544 0.8148
-0.5640 -1.6677 0.8149
-0.5267 -1.6800 0.8150
-0.4890 -1.6915 0.8151
-0.4512 -1.7022 0.8151
-0.4131 -1.7120 0.8152
-0.3748 -1.7210 0.8153
-0.3363 -1.7290 0.8153
-0.2976 -1.7362 0.8154
-0.2588 -1.7425 0.8154
-0.2198 -1.7480 0.8155
-0.1807 -1.7525 0.8155
-0.1415 -1.7562 0.8155
-0.1023 -1.7589 0.8156
-0.0630 -1.7608 0.8156
-0.0236 -1.7618 0.8156
0.0157 -1.7619 0.8156
0.0551 -1.7611 0.8156
0.0944 -1.7594 0.8155
0.1337 -1.7568 0.8155
0.1729 -1.7533 0.8155
0.2120 -1.7489 0.8155
0.2510 -1.7436 0.8154
0.2898 -1.7375 0.8154
0.3285 -1.7305 0.8153
0.3671 -1.7226 0.8153
0.4054 -1.7138 0.8152
0.4436 -1.7042 0.8151
0.4815 -1.6937 0.8150
0.5191 -1.6823 0.8149
0.5565 -1.6701 0.8149
0.5936 -1.6570 0.8147
0.6304 -1.6432 0.8146
0.6668 -1.6284 0.8145
0.7029 -1.6129 0.8144
0.7386 -1.5966 0.8143
0.7740 -1.5794 0.8142
0.8089 -1.5615 0.8140
2.3850 -4.3622 2.3013
2.4806 -4.3057 2.3001
2.5748 -4.2470 2.2989
2.6676 -4.1862 2.2977
2.7589 -4.1232 2.2964
2.8486 -4.0583 2.2951
2.9368 -3.9912 2.2937
3.0233 -3.9222 2.2923
3.1082 -3.8513 2.2908
3.1913 -3.7784 2.2893
3.2728 -3.7038 2.2878
3.3523 -3.6272 2.2863
3.4301 -3.5490 2.2846
3.5060 -3.4690 2.2830
3.5800 -3.3873 2.2813
3.6520 -3.3041 2.2796
3.7221 -3.2192 2.2779
3.7901 -3.1328 2.2761
3.8561 -3.0450 2.2743
3.9200 -2.9557 2.2725
3.9817 -2.8651 2.2706
4.0414 -2.7732 2.2688
4.0989 -2.6800 2.2669
4.1541 -2.5855 2.2649
4.2072 -2.4900 2.2630
4.2581 -2.3933 2.2610
4.3066 -2.2955 2.2590
4.3529 -2.1968 2.2570
4.3969 -2.0972 2.2549
4.4386 -1.9966 2.2529
4.4780 -1.8952 2.2508
4.5150 -1.7931 2.2487
4.5497 -1.6902 2.2466
4.5819 -1.5867 2.2445
4.6118 -1.4825 2.2423
4.6394 -1.3778 2.2402
4.6645 -1.2727 2.2380
4.6872 -1.1670 2.2359
4.7075 -1.0610 2.2337
4.7254 -0.9547 2.2315
4.7409 -0.8481 2.2293
4.7540 -0.7413 2.2272
4.7647 -0.6343 2.2250
4.7730 -0.5272 2.2228
4.7788 -0.4200 2.2206
4.7823 -0.3129 2.2184
4.7834 -0.2058 2.2162
4.7820 -0.0988 2.2140
4.7783 0.0080 2.2118
4.7722 0.1146 2.2096
4.7638 0.2210 2.2075
4.7530 0.3270 2.2053
4.7398 0.4326 2.2031
4.7244 0.5379 2.2010
4.7066 0.6426 2.1988
4.6865 0.7469 2.1967
4.6642 0.8505 2.1946
4.6395 0.9535 2.1925
4.6127 1.0559 2.1904
4.5836 1.1576 2.1883
4.5523 1.2585 2.1862
4.5188 1.3585 2.1842
4.4831 1.4578 2.1821
4.4453 1.5561 2.1801
4.4055 1.6535 2.1781
4.3635 1.7499 2.1761
4.3194 1.8452 2.1742
4.2734 1.9395 2.1723
4.2253 2.0327 2.1704
4.1752 2.1247 2.1685
4.1231 2.2155 2.1666
4.0692 2.3051 2.1648
4.0133 2.3934 2.1630
3.9556 2.4804 2.1612
3.8961 2.5661 2.1594
3.8347 2.6503 2.1577
3.7716 2.7331 2.1560
3.7067 2.8145 2.1543
3.6402 2.8944 2.1527
3.5720 2.9728 2.1511
3.5021 3.0496 2.1495
3.4307 3.1248 2.1480
3.3577 3.1984 2.1465
3.2831 3.2703 2.1450
3.2071 3.3406 2.1436
3.1297 3.4092 2.1422
3.0508 3.4760 2.1408
2.9706 3.5411 2.1395
2.8890 3.6043 2.1382
2.8061 3.6658 2.1369
2.7220 3.7254 2.1357
2.6366 3.7832 2.1345
2.5501 3.8391 2.1334
2.4624 3.8931 2.1323
2.3737 3.9451 2.1312
2.2839 3.9952 2.1302
0.8145 1.5016 0.7907
0.7806 1.5192 0.7906
0.7464 1.5360 0.7905
0.7118 1.5520 0.7904
0.6768 1.5673 0.7902
0.6415 1.5818 0.7901
0.6060 1.5956 0.7900
0.5701 1.6085 0.7899
0.5340 1.6206 0.7898
0.4976 1.6320 0.7898
0.4610 1.6425 0.7897
0.4241 1.6523 0.7896
0.3871 1.6612 0.7895
0.3499 1.6693 0.7895
0.3125 1.6766 0.7894
0.2750 1.6830 0.7894
0.2373 1.6887 0.7893
0.1995 1.6935 0.7893
0.1616 1.6974 0.7893
0.1237 1.7006 0.7893
0.0857 1.7029 0.7892
0.0476 1.7044 0.7892
0.0095 1.7050 0.7892
-0.0286 1.7048 0.7892
-0.0666 1.7037 0.7892
-0.1047 1.7019 0.7893
-0.1427 1.6991 0.7893
-0.1806 1.6956 0.7893
-0.2184 1.6912 0.7893
-0.2561 1.6860 0.7894
-0.2937 1.6800 0.7894
-0.3312 1.6731 0.7895
-0.3685 1.6654 0.7895
-0.4057 1.6569 0.7896
-0.4426 1.6476 0.7897
-0.4794 1.6374 0.7898
-0.5159 1.6265 0.7898
-0.5521 1.6148 0.7899
-0.5881 1.6022 0.7900
-0.6238 1.5889 0.7901
-0.6593 1.5748 0.7902
-0.6944 1.5599 0.7904
-0.7292 1.5442 0.7905
-0.7636 1.5278 0.7906
-0.7976 1.5106 0.7907
-2.2386 4.0195 2.1297
-2.3289 3.9704 2.1307
-2.4182 3.9193 2.1317
-2.5064 3.8663 2.1328
-2.5935 3.8114 2.1339
-2.6794 3.7545 2.1351
-2.7642 3.6958 2.1363
-2.8477 3.6353 2.1375
-2.9299 3.5729 2.1388
-3.0108 3.5088 2.1401
-3.0904 3.4428 2.1415
-3.1686 3.3751 2.1429
-3.2453 3.3057 2.1443
-3.3206 3.2346 2.1457
-3.3943 3.1618 2.1472
-3.4665 3.0874 2.1488
-3.5372 3.0114 2.1503
-3.6063 2.9338 2.1519
-3.6737 2.8547 2.1535
-3.7394 2.7740 2.1552
-3.8033 2.6919 2.1569
-3.8656 2.6084 2.1586
-3.9260 2.5234 2.1603
-3.9847 2.4371 2.1621
-4.0415 2.3494 2.1639
-4.0964 2.2605 2.1657
-4.1494 2.1703 2.1675
-4.2004 2.0788 2.1694
-4.2495 1.9863 2.1713
-4.2967 1.8925 2.1732
-4.3417 1.7977 2.1752
-4.3847 1.7018 2.1771
-4.4257 1.6049 2.1791
-4.4645 1.5070 2.1811
-4.5012 1.4083 2.1831
-4.5358 1.3086 2.1852
-4.5682 1.2081 2.1872
-4.5984 1.1068 2.1893
-4.6264 1.0048 2.1914
-4.6521 0.9021 2.1935
-4.6756 0.7987 2.1956
-4.6968 0.6948 2.1978
-4.7158 0.5903 2.1999
-4.7324 0.4853 2.2020
-4.7467 0.3799 2.2042
-4.7586 0.2740 2.2064
-4.7683 0.1678 2.2085
-4.7755 0.0613 2.2107
-4.7805 -0.0454 2.2129
-4.7830 -0.1523 2.2151
-4.7831 -0.2593 2.2173
-4.7808 -0.3665 2.2195
-4.7762 -0.4736 2.2217
-4.7691 -0.5808 2.2239
-4.7597 -0.6878 2.2261
-4.7478 -0.7947 2.2283
-4.7335 -0.9014 2.2304
-4.7168 -1.0079 2.2326
-4.6976 -1.1141 2.2348
-4.6761 -1.2199 2.2370
-4.6522 -1.3253 2.2391
-4.6259 -1.4303 2.2413
-4.5972 -1.5347 2.2434
-4.5661 -1.6385 2.2455
-4.5326 -1.7417 2.2476
-4.4967 -1.8443 2.2497
-4.4586 -1.9460 2.2518
-4.4180 -2.0470 2.2539
-4.3752 -2.1471 2.2559
-4.3301 -2.2463 2.2580
-4.2826 -2.3446 2.2600
-4.2329 -2.4418 2.2620
-4.1809 -2.5379 2.2639
-4.1268 -2.6329 2.2659
-4.0704 -2.7267 2.2678
-4.0118 -2.8193 2.2697
-3.9511 -2.9106 2.2716
-3.8882 -3.0006 2.2734
-3.8233 -3.0891 2.2752
-3.7563 -3.1762 2.2770
-3.6873 -3.2618 2.2788
-3.6162 -3.3459 2.2805
-3.5432 -3.4284 2.2822
-3.4683 -3.5092 2.2838
-3.3914 -3.5883 2.2855
-3.3128 -3.6657 2.2870
-3.2322 -3.7413 2.2886
-3.1499 -3.8151 2.2901
-3.0659 -3.8870 2.2916
-2.9802 -3.9570 2.2930
-2.8929 -4.0250 2.2944
-2.8039 -4.0910 2.2958
-2.7134 -4.1550 2.2971
-2.6213 -4.2169 2.2983
-2.5278 -4.2766 2.2996
-2.4329 -4.3343 2.3007
-0.8263 -1.5523 0.8140
-0.7916 -1.5707 0.8142
-0.7564 -1.5882 0.8143
-0.7209 -1.6050 0.8144
-0.6850 -1.6209 0.8145
-0.6487 -1.6360 0.8146
-0.6120 -1.6503 0.8147
-0.5751 -1.6638 0.8148
-0.5379 -1.6764 0.8149
-0.5004 -1.6882 0.8150
-0.4626 -1.6991 0.8151
-0.4245 -1.7092 0.8152
-0.3863 -1.7184 0.8153
-0.3479 -1.7267 0.8153
-0.3092 -1.7341 0.8154
-0.2704 -1.7407 0.8154
-0.2315 -1.7464 0.8155
-0.1924 -1.7512 0.8155
-0.1533 -1.7551 0.8155
-0.1140 -1.7582 0.8155
-0.0747 -1.7603 0.8156
-0.0354 -1.7616 0.8156
0.0039 -1.7619 0.8156
0.0433 -1.7614 0.8156
0.0826 -1.7600 0.8156
0.1219 -1.7576 0.8155
0.1611 -1.7544 0.8155
0.2003 -1.7503 0.8155
0.2393 -1.7453 0.8154
0.2782 -1.7394 0.8154
0.3169 -1.7327 0.8153
0.3555 -1.7250 0.8153
0.3939 -1.7165 0.8152
0.4322 -1.7071 0.8151
0.4701 -1.6969 0.8151
0.5079 -1.6858 0.8150
0.5453 -1.6738 0.8149
0.5825 -1.6610 0.8148
0.6194 -1.6474 0.8147
0.6559 -1.6329 0.8146
0.6921 -1.6177 0.8144
0.7280 -1.6016 0.8143
0.7634 -1.5846 0.8142
0.7985 -1.5669 0.8141
2.3561 -4.3788 2.3016
2.4520 -4.3229 2.3005
2.5467 -4.2649 2.2993
2.6399 -4.2047 2.2981
2.7316 -4.1423 2.2968
2.8218 -4.0780 2.2955
2.9105 -4.0115 2.2941
2.9975 -3.9431 2.2927
3.0829 -3.8728 2.2913
3.1666 -3.8005 2.2898
3.2485 -3.7263 2.2883
3.3287 -3.6504 2.2867
3.4070 -3.5726 2.2851
3.4834 -3.4932 2.2835
3.5580 -3.4120 2.2818
3.6306 -3.3292 2.2801
3.7012 -3.2448 2.2784
3.7699 -3.1589 2.2767
3.8365 -3.0715 2.2749
3.9010 -2.9827 2.2731
3.9634 -2.8925 2.2712
4.0237 -2.8009 2.2693
4.0818 -2.7081 2.2674
4.1378 -2.6140 2.2655
4.1915 -2.5188 2.2636
4.2431 -2.4224 2.2616
4.2923 -2.3250 2.2596
4.3393 -2.2265 2.2576
4.3840 -2.1272 2.2555
4.4263 -2.0269 2.2535
4.4664 -1.9257 2.2514
4.5041 -1.8238 2.2493
4.5395 -1.7211 2.2472
4.5725 -1.6178 2.2451
4.6031 -1.5138 2.2430
4.6313 -1.4093 2.2408
4.6572 -1.3043 2.2387
4.6806 -1.1988 2.2365
4.7017 -1.0929 2.2344
4.7203 -0.9866 2.2322
4.7365 -0.8801 2.2300
4.7504 -0.7733 2.2278
4.7618 -0.6664 2.2256
4.7707 -0.5593 2.2234
4.7774 -0.4522 2.2212
4.7815 -0.3450 2.2190
4.7833 -0.2379 2.2168
4.7827 -0.1309 2.2147
4.7797 -0.0240 2.2125
4.7743 0.0827 2.2103
4.7666 0.1891 2.2081
4.7565 0.2952 2.2059
4.7440 0.4010 2.2038
4.7293 0.5063 2.2016
4.7122 0.6112 2.1995
4.6928 0.7156 2.1973
4.6711 0.8195 2.1952
4.6472 0.9227 2.1931
4.6210 1.0253 2.1910
4.5925 1.1272 2.1889
4.5619 1.2283 2.1868
4.5290 1.3286 2.1848
4.4940 1.4281 2.1827
4.4569 1.5267 2.1807
4.4177 1.6244 2.1787
4.3763 1.7211 2.1767
4.3329 1.8168 2.1748
4.2874 1.9114 2.1728
4.2399 2.0049 2.1709
4.1904 2.0972 2.1690
4.1389 2.1884 2.1672
4.0856 2.2784 2.1653
4.0303 2.3671 2.1635
3.9731 2.4545 2.1617
3.9141 2.5405 2.1600
3.8533 2.6252 2.1582
3.7907 2.7084 2.1565
3.7264 2.7903 2.1548
3.6603 2.8706 2.1532
3.5926 2.9494 2.1516
3.5233 3.0267 2.1500
3.4523 3.1024 2.1484
3.3797 3.1765 2.1469
3.3057 3.2489 2.1454
3.2301 3.3197 2.1440
3.1531 3.3888 2.1426
3.0746 3.4561 2.1412
2.9948 3.5217 2.1399
2.9136 3.5855 2.1386
2.8311 3.6475 2.1373
2.7473 3.7077 2.1361
2.6623 3.7661 2.1349
2.5762 3.8225 2.1337
2.4889 3.8771 2.1326
2.4004 3.9297 2.1315
2.3109 3.9804 2.1305
0.8246 1.4962 0.7908
0.7908 1.5140 0.7906
0.7567 1.5310 0.7905
0.7222 1.5473 0.7904
0.6873 1.5628 0.7903
0.6522 1.5776 0.7902
0.6167 1.5915 0.7901
0.5809 1.6047 0.7900
0.5449 1.6171 0.7899
0.5086 1.6287 0.7898
0.4720 1.6395 0.7897
0.4352 1.6494 0.7896
0.3982 1.6586 0.7896
0.3611 1.6669 0.7895
0.3237 1.6745 0.7894
0.2862 1.6812 0.7894
0.2486 1.6871 0.7894
0.2108 1.6921 0.7893
0.1730 1.6963 0.7893
0.1351 1.6997 0.7893
0.0971 1.7023 0.7892
0.0590 1.7040 0.7892
0.0210 1.7049 0.7892
-0.0171 1.7049 0.7892
-0.0552 1.7041 0.7892
-0.0933 1.7025 0.7892
-0.1313 1.7000 0.7893
-0.1692 1.6967 0.7893
-0.2071 1.6926 0.7893
-0.2448 1.6877 0.7894
-0.2825 1.6819 0.7894
-0.3200 1.6752 0.7895
-0.3574 1.6678 0.7895
-0.3945 1.6595 0.7896
-0.4316 1.6505 0.7897
-0.4684 1.6406 0.7897
-0.5049 1.6299 0.7898
-0.5413 1.6184 0.7899
-0.5774 1.6061 0.7900
-0.6131 1.5930 0.7901
-0.6487 1.5791 0.7902
-0.6839 1.5644 0.7903
-0.7187 1.5490 0.7904
-0.7533 1.5328 0.7906
-0.7875 1.5159 0.7907
-0.8213 1.4981 0.7908
-2.3019 3.9854 2.1304
-2.3915 3.9349 2.1314
-2.4800 3.8824 2.1325
-2.5675 3.8280 2.1336
-2.6538 3.7718 2.1347
-2.7389 3.7137 2.1359
-2.8227 3.6537 2.1372
-2.9054 3.5918 2.1384
-2.9867 3.5282 2.1397
-3.0667 3.4628 2.1411
-3.1453 3.3956 2.1424
-3.2224 3.3267 2.1439
-3.2981 3.2561 2.1453
-3.3724 3.1838 2.1468
-3.4451 3.1099 2.1483
-3.5162 3.0343 2.1498
-3.5857 2.9572 2.1514
-3.6536 2.8785 2.1530
-3.7198 2.7984 2.1547
-3.7843 2.7167 2.1564
-3.8471 2.6336 2.1581
-3.9081 2.5490 2.1598
-3.9673 2.4631 2.1615
-4.0246 2.3759 2.1633
-4.0801 2.2873 2.1651
-4.1337 2.1975 2.1670
-4.1853 2.1064 2.1688
-4.2350 2.0142 2.1707
-4.2827 1.9208 2.1726
-4.3284 1.8263 2.1746
-4.3720 1.7307 2.1765
-4.4136 1.6341 2.1785
-4.4531 1.5365 2.1805
-4.4904 1.4380 2.1825
-4.5257 1.3386 2.1846
-4.5587 1.2384 2.1866
-4.5895 1.1373 2.1887
-4.6182 1.0355 2.1908
-4.6446 0.9330 2.1929
-4.6688 0.8298 2.1950
-4.6907 0.7260 2.1971
-4.7103 0.6217 2.1993
-4.7276 0.5168 2.2014
-4.7427 0.4115 2.2036
-4.7553 0.3058 2.2057
-4.7657 0.1997 2.2079
-4.7736 0.0933 2.2101
-4.7792 -0.0134 2.2123
-4.7825 -0.1202 2.2144
-4.7833 -0.2272 2.2166
-4.7818 -0.3343 2.2188
-4.7778 -0.4415 2.2210
-4.7715 -0.5486 2.2232
-4.7627 -0.6557 2.2254
-4.7516 -0.7627 2.2276
-4.7380 -0.8694 2.2298
-4.7220 -0.9760 2.2320
-4.7037 -1.0823 2.2341
-4.6828 -1.1882 2.2363
-4.6596 -1.2937 2.2385
-4.6340 -1.3988 2.2406
-4.6060 -1.5034 2.2428
-4.5756 -1.6074 2.2449
-4.5429 -1.7109 2.2470
-4.5078 -1.8136 2.2491
-4.4703 -1.9156 2.2512
-4.4305 -2.0168 2.2533
-4.3883 -2.1172 2.2553
-4.3438 -2.2167 2.2574
-4.2971 -2.3152 2.2594
-4.2480 -2.4127 2.2614
-4.1968 -2.5092 2.2634
-4.1433 -2.6045 2.2653
-4.0875 -2.6987 2.2672
-4.0296 -2.7917 2.2691
-3.9696 -2.8834 2.2710
-3.9073 -2.9737 2.2729
-3.8430 -3.0627 2.2747
-3.7766 -3.1503 2.2765
-3.7082 -3.2363 2.2782
-3.6377 -3.3209 2.2800
-3.5653 -3.4038 2.2817
-3.4910 -3.4851 2.2833
-3.4147 -3.5648 2.2850
-3.3365 -3.6427 2.2866
-3.2566 -3.7188 2.2881
-3.1748 -3.7932 2.2897
-3.0913 -3.8656 2.2911
-3.0061 -3.9362 2.2926
-2.9192 -4.0048 2.2940
-2.8308 -4.0714 2.2953
-2.7407 -4.1360 2.2967
-2.6491 -4.1985 2.2980
-2.5560 -4.2589 2.2992
-2.4615 -4.3172 2.3004
-0.8367 -1.5467 0.8140
-0.8020 -1.5652 0.8141
-0.7670 -1.5830 0.8142
-0.7316 -1.6000 0.8144
-0.6958 -1.6162 0.8145
-0.6596 -1.6316 0.8146
-0.6231 -1.6461 0.8147
-0.5862 -1.6598 0.8148
-0.5491 -1.6727 0.8149
-0.5116 -1.6847 0.8150
-0.4739 -1.6959 0.8151
-0.4360 -1.7062 0.8152
-0.3978 -1.7157 0.8152
-0.3594 -1.7243 0.8153
-0.3208 -1.7320 0.8154
-0.2821 -1.7388 0.8154
-0.2432 -1.7448 0.8155
-0.2042 -1.7499 0.8155
-0.1650 -1.7541 0.8155
-0.1258 -1.7574 0.8155
-0.0865 -1.7598 0.8156
-0.0472 -1.7613 0.8156
-0.0079 -1.7619 0.8156
0.0315 -1.7616 0.8156
0.0708 -1.7605 0.8156
0.1101 -1.7584 0.8155
0.1494 -1.7555 0.8155
0.1885 -1.7516 0.8155
0.2276 -1.7469 0.8154
0.2665 -1.7413 0.8154
0.3053 -1.7348 0.8154
0.3440 -1.7274 0.8153
0.3825 -1.7192 0.8152
0.4207 -1.7101 0.8152
0.4588 -1.7001 0.8151
0.4966 -1.6892 0.8150
0.5341 -1.6775 0.8149
0.5714 -1.6650 0.8148
0.6083 -1.6516 0.8147
0.6450 -1.6374 0.8146
0.6813 -1.6223 0.8145
0.7172 -1.6065 0.8144
0.7528 -1.5898 0.8142
0.7880 -1.5723 0.8141
0.8228 -1.5541 0.8140
2.4234 -4.3399 2.3008
2.5184 -4.2825 2.2997
2.6121 -4.2229 2.2984
2.7042 -4.1613 2.2972
2.7949 -4.0975 2.2959
2.8840 -4.0317 2.2945
2.9716 -3.9639 2.2931
3.0575 -3.8941 2.2917
3.1416 -3.8224 2.2902
3.2241 -3.7488 2.2887
3.3048 -3.6733 2.2872
3.3837 -3.5961 2.2856
3.4607 -3.5172 2.2840
3.5358 -3.4365 2.2823
3.6090 -3.3542 2.2807
3.6803 -3.2703 2.2789
3.7495 -3.1848 2.2772
3.8167 -3.0979 2.2754
3.8819 -3.0095 2.2736
3.9449 -2.9197 2.2718
4.0059 -2.8285 2.2699
4.0646 -2.7360 2.2680
4.1213 -2.6423 2.2661
4.1757 -2.5474 2.2641
4.2278 -2.4514 2.2622
4.2778 -2.3543 2.2602
4.3254 -2.2562 2.2582
4.3708 -2.1571 2.2561
4.4139 -2.0571 2.2541
4.4546 -1.9562 2.2520
4.4931 -1.8544 2.2499
4.5291 -1.7520 2.2479
4.5629 -1.6489 2.2457
4.5942 -1.5451 2.2436
4.6231 -1.4407 2.2415
4.6497 -1.3358 2.2393
4.6739 -1.2305 2.2372
4.6956 -1.1247 2.2350
4.7150 -1.0185 2.2328
4.7319 -0.9121 2.2307
4.7465 -0.8054 2.2285
4.7586 -0.6985 2.2263
4.7683 -0.5914 2.2241
4.7756 -0.4843 2.2219
4.7805 -0.3772 2.2197
4.7830 -0.2700 2.2175
4.7831 -0.1630 2.2153
4.7808 -0.0561 2.2131
4.7761 0.0507 2.2109
4.7691 0.1572 2.2088
4.7598 0.2634 2.2066
4.7480 0.3693 2.2044
4.7340 0.4748 2.2023
4.7175 0.5798 2.2001
4.6989 0.6844 2.1980
4.6778 0.7884 2.1958
4.6546 0.8918 2.1937
4.6290 0.9946 2.1916
4.6013 1.0967 2.1895
4.5713 1.1980 2.1874
4.5391 1.2986 2.1854
4.5048 1.3983 2.1833
4.4683 1.4972 2.1813
4.4297 1.5952 2.1793
4.3889 1.6922 2.1773
4.3461 1.7881 2.1754
4.3012 1.8831 2.1734
4.2543 1.9769 2.1715
4.2055 2.0697 2.1696
4.1546 2.1612 2.1677
4.1018 2.2515 2.1659
4.0471 2.3406 2.1640
3.9904 2.4284 2.1623
3.9320 2.5148 2.1605
3.8717 2.5999 2.1587
3.8097 2.6836 2.1570
3.7458 2.7659 2.1553
3.6803 2.8466 2.1537
3.6131 2.9259 2.1521
3.5442 3.0037 2.1505
3.4737 3.0799 2.1489
3.4017 3.1544 2.1474
3.3281 3.2274 2.1459
3.2529 3.2986 2.1444
3.1763 3.3682 2.1430
3.0983 3.4361 2.1416
3.0189 3.5022 2.1403
2.9381 3.5666 2.1389
2.8560 3.6291 2.1377
2.7726 3.6899 2.1364
2.6880 3.7488 2.1352
2.6021 3.8058 2.1340
2.5152 3.8609 2.1329
2.4271 3.9141 2.1318
2.3379 3.9654 2.1308
0.8346 1.4907 0.7908
0.8010 1.5087 0.7907
0.7669 1.5260 0.7906
0.7325 1.5425 0.7904
0.6978 1.5583 0.7903
0.6627 1.5732 0.7902
0.6274 1.5874 0.7901
0.5917 1.6008 0.7900
0.5557 1.6134 0.7899
0.5195 1.6253 0.7898
0.4830 1.6363 0.7897
0.4463 1.6465 0.7897
0.4094 1.6559 0.7896
0.3722 1.6645 0.7895
0.3349 1.6723 0.7895
0.2975 1.6793 0.7894
0.2599 1.6854 0.7894
0.2222 1.6907 0.7893
0.1844 1.6952 0.7893
0.1464 1.6988 0.7893
0.1085 1.7016 0.7892
0.0704 1.7036 0.7892
0.0324 1.7047 0.7892
-0.0057 1.7050 0.7892
-0.0438 1.7045 0.7892
-0.0819 1.7031 0.7892
-0.1199 1.7009 0.7893
-0.1578 1.6978 0.7893
-0.1957 1.6939 0.7893
-0.2335 1.6892 0.7894
-0.2712 1.6837 0.7894
-0.3088 1.6773 0.7894
-0.3462 1.6701 0.7895
-0.3834 1.6621 0.7896
-0.4205 1.6533 0.7896
-0.4573 1.6436 0.7897
-0.4940 1.6332 0.7898
-0.5304 1.6219 0.7899
-0.5666 1.6098 0.7900
-0.6024 1.5970 0.7901
-0.6380 1.5833 0.7902
-0.6733 1.5689 0.7903
-0.7083 1.5537 0.7904
-0.7430 1.5377 0.7905
-0.7773 1.5210 0.7907
-0.8112 1.5035 0.7908
-2.2749 4.0001 2.1301
-2.3647 3.9502 2.1311
-2.4536 3.8984 2.1322
-2.5414 3.8446 2.1333
-2.6280 3.7889 2.1344
-2.7135 3.7313 2.1356
-2.7977 3.6718 2.1368
-2.8807 3.6106 2.1380
-2.9624 3.5475 2.1393
-3.0428 3.4826 2.1407
-3.1218 3.4159 2.1420
-3.1995 3.3475 2.1434
-3.2756 3.2774 2.1449
-3.3503 3.2057 2.1463
-3.4234 3.1322 2.1478
-3.4950 3.0572 2.1494
-3.5651 2.9805 2.1509
-3.6334 2.9023 2.1526
-3.7002 2.8226 2.1542
-3.7652 2.7413 2.1558
-3.8285 2.6587 2.1575
-3.8900 2.5746 2.1593
-3.9497 2.4890 2.1610
-4.0076 2.4022 2.1628
-4.0636 2.3140 2.1646
-4.1178 2.2245 2.1664
-4.1700 2.1339 2.1683
-4.2203 2.0419 2.1702
-4.2686 1.9489 2.1721
-4.3149 1.8547 2.1740
-4.3592 1.7595 2.1760
-4.4014 1.6632 2.1779
-4.4415 1.5659 2.1799
-4.4794 1.4677 2.1819
-4.5153 1.3685 2.1840
-4.5490 1.2685 2.1860
-4.5805 1.1677 2.1881
-4.6098 1.0661 2.1902
-4.6369 0.9638 2.1922
-4.6618 0.8608 2.1944
-4.6844 0.7572 2.1965
-4.7047 0.6530 2.1986
-4.7227 0.5483 2.2008
-4.7384 0.4432 2.2029
-4.7517 0.3376 2.2051
-4.7628 0.2316 2.2072
-4.7715 0.1253 2.2094
-4.7778 0.0187 2.2116
-4.7818 -0.0881 2.2138
-4.7833 -0.1951 2.2160
-4.7825 -0.3022 2.2182
-4.7793 -0.4093 2.2204
-4.7737 -0.5165 2.2226
-4.7656 -0.6236 2.2247
-4.7552 -0.7306 2.2269
-4.7424 -0.8374 2.2291
-4.7271 -0.9441 2.2313
-4.7094 -1.0504 2.2335
-4.6893 -1.1565 2.2357
-4.6668 -1.2621 2.2378
-4.6420 -1.3674 2.2400
-4.6147 -1.4721 2.2421
-4.5850 -1.5763 2.2443
-4.5530 -1.6799 2.2464
-4.5185 -1.7828 2.2485
-4.4818 -1.8851 2.2506
-4.4427 -1.9865 2.2527
-4.4012 -2.0872 2.2547
-4.3574 -2.1869 2.2568
-4.3113 -2.2857 2.2588
-4.2630 -2.3836 2.2608
-4.2124 -2.4804 2.2628
-4.1595 -2.5761 2.2647
-4.1045 -2.6706 2.2667
-4.0472 -2.7639 2.2686
-3.9878 -2.8560 2.2705
-3.9262 -2.9468 2.2723
-3.8625 -3.0362 2.2742
-3.7968 -3.1241 2.2760
-3.7289 -3.2107 2.2777
-3.6591 -3.2957 2.2795
-3.5873 -3.3791 2.2812
-3.5135 -3.4609 2.2828
-3.4378 -3.5411 2.2845
-3.3602 -3.6195 2.2861
-3.2808 -3.6962 2.2877
-3.1995 -3.7711 2.2892
-3.1165 -3.8441 2.2907
-3.0318 -3.9152 2.2922
-2.9454 -3.9844 2.2936
-2.8575 -4.0516 2.2949
-2.7679 -4.1168 2.2963
-2.6767 -4.1800 2.2976
-2.5841 -4.2410 2.2988
-2.4901 -4.2999 2.3000
-2.3946 -4.3567 2.3012
-0.8125 -1.5598 0.8141
-0.7776 -1.5778 0.8142
-0.7423 -1.5950 0.8143
-0.7066 -1.6114 0.8145
-0.6705 -1.6270 0.8146
-0.6341 -1.6418 0.8147
-0.5973 -1.6558 0.8148
-0.5603 -1.6689 0.8149
-0.5229 -1.6812 0.8150
-0.4853 -1.6926 0.8151
-0.4474 -1.7032 0.8151
-0.4093 -1.7129 0.8152
-0.3709 -1.7218 0.8153
-0.3324 -1.7298 0.8153
-0.2937 -1.7369 0.8154
-0.2549 -1.7431 0.8154
-0.2159 -1.7485 0.8155
-0.1768 -1.7529 0.8155
-0.1376 -1.7565 0.8155
-0.0983 -1.7591 0.8156
-0.0590 -1.7609 0.8156
-0.0197 -1.7618 0.8156
0.0197 -1.7618 0.8156
0.0590 -1.7609 0.8156
0.0983 -1.7591 0.8155
0.1376 -1.7564 0.8155
0.1768 -1.7529 0.8155
0.2159 -1.7484 0.8155
0.2549 -1.7431 0.8154
0.2937 -1.7368 0.8154
0.3324 -1.7297 0.8153
0.3709 -1.7217 0.8153
0.4093 -1.7129 0.8152
0.4474 -1.7032 0.8151
0.4852 -1.6926 0.8150
0.5229 -1.6811 0.8149
0.5602 -1.6688 0.8148
0.5973 -1.6557 0.8147
0.6340 -1.6417 0.8146
0.6704 -1.6269 0.8145
0.7065 -1.6113 0.8144
0.7422 -1.5949 0.8143
0.7775 -1.5777 0.8141
0.8124 -1.5596 0.8140
2.3946 -4.3567 2.3012
2.4901 -4.2999 2.3000
2.5841 -4.2410 2.2988
2.6768 -4.1800 2.2976
2.7679 -4.1168 2.2963
2.8575 -4.0516 2.2949
2.9455 -3.9844 2.2936
3.0319 -3.9152 2.2921
3.1166 -3.8441 2.2907
3.1996 -3.7710 2.2892
3.2808 -3.6962 2.2877
3.3602 -3.6195 2.2861
3.4378 -3.5410 2.2845
3.5135 -3.4609 2.2828
3.5873 -3.3791 2.2812
3.6591 -3.2957 2.2795
3.7290 -3.2106 2.2777
3.7968 -3.1241 2.2759
3.8625 -3.0361 2.2741
3.9263 -2.9468 2.2723
3.9878 -2.8560 2.2705
4.0472 -2.7639 2.2686
4.1045 -2.6706 2.2667
4.1596 -2.5760 2.2647
4.2124 -2.4804 2.2628
4.2630 -2.3836 2.2608
4.3114 -2.2857 2.2588
4.3575 -2.1869 2.2568
4.4012 -2.0871 2.2547
4.4427 -1.9865 2.2527
4.4818 -1.8851 2.2506
4.5186 -1.7828 2.2485
4.5530 -1.6799 2.2464
4.5850 -1.5763 2.2443
4.6147 -1.4721 2.2421
4.6420 -1.3674 2.2400
4.6669 -1.2621 2.2378
4.6894 -1.1565 2.2357
4.7094 -1.0504 2.2335
4.7271 -0.9440 2.2313
4.7424 -0.8374 2.2291
4.7552 -0.7306 2.2269
4.7656 -0.6236 2.2247
4.7737 -0.5165 2.2226
4.7793 -0.4093 2.2204
4.7825 -0.3022 2.2182
4.7834 -0.1951 2.2160
4.7818 -0.0881 2.2138
4.7778 0.0187 2.2116
4.7715 0.1253 2.2094
4.7628 0.2316 2.2072
4.7518 0.3376 2.2051
4.7384 0.4432 2.2029
4.7227 0.5484 2.2007
4.7047 0.6531 2.1986
4.6844 0.7572 2.1965
4.6618 0.8608 2.1943
4.6369 0.9638 2.1922
4.6098 1.0661 2.1901
4.5806 1.1677 2.1881
4.5490 1.2685 2.1860
4.5153 1.3685 2.1840
4.4795 1.4677 2.1819
4.4414 1.5659 2.1799
4.4014 1.6632 2.1779
4.3592 1.7595 2.1759
4.3149 1.8547 2.1740
4.2686 1.9489 2.1721
4.2203 2.0420 2.1702
4.1700 2.1339 2.1683
4.1178 2.2245 2.1664
4.0637 2.3140 2.1646
4.0076 2.4022 2.1628
3.9497 2.4890 2.1610
3.8900 2.5746 2.1593
3.8285 2.6587 2.1575
3.7652 2.7413 2.1558
3.7002 2.8226 2.1542
3.6334 2.9023 2.1525
3.5650 2.9805 2.1509
3.4951 3.0572 2.1494
3.4234 3.1322 2.1478
3.3503 3.2057 2.1463
3.2756 3.2774 2.1449
3.1994 3.3475 2.1434
3.1219 3.4159 2.1420
3.0428 3.4826 2.1407
2.9624 3.5475 2.1393
2.8807 3.6106 2.1380
2.7977 3.6718 2.1368
2.7135 3.7313 2.1356
2.6280 3.7889 2.1344
2.5414 3.8446 2.1333
2.4536 3.8983 2.1322
2.3648 3.9502 2.1311
0.8446 1.4852 0.7909
0.8111 1.5034 0.7907
0.7772 1.5209 0.7906
0.7429 1.5376 0.7905
0.7083 1.5536 0.7903
0.6733 1.5688 0.7902
0.6380 1.5832 0.7901
0.6024 1.5969 0.7900
0.5665 1.6097 0.7899
0.5304 1.6218 0.7898
0.4940 1.6331 0.7898
0.4573 1.6435 0.7897
0.4205 1.6532 0.7896
0.3834 1.6620 0.7895
0.3462 1.6701 0.7895
0.3087 1.6773 0.7894
0.2712 1.6836 0.7894
0.2335 1.6892 0.7893
0.1957 1.6939 0.7893
0.1578 1.6978 0.7893
0.1199 1.7008 0.7893
0.0818 1.7031 0.7892
0.0438 1.7045 0.7892
0.0057 1.7050 0.7892
-0.0324 1.7047 0.7892
-0.0704 1.7036 0.7892
-0.1085 1.7016 0.7893
-0.1464 1.6988 0.7893
-0.1844 1.6952 0.7893
-0.2222 1.6907 0.7893
-0.2599 1.6854 0.7894
-0.2975 1.6793 0.7894
-0.3350 1.6724 0.7895
-0.3723 1.6646 0.7895
-0.4094 1.6560 0.7896
-0.4463 1.6466 0.7897
-0.4830 1.6364 0.7898
-0.5195 1.6254 0.7899
-0.5557 1.6135 0.7899
-0.5917 1.6009 0.7900
-0.6274 1.5875 0.7901
-0.6628 1.5733 0.7903
-0.6979 1.5584 0.7904
-0.7326 1.5426 0.7905
-0.7670 1.5261 0.7906
-0.8010 1.5089 0.7907
-2.2477 4.0147 2.1298
-2.3379 3.9654 2.1308
-2.4270 3.9141 2.1318
-2.5152 3.8609 2.1329
-2.6021 3.8058 2.1340
-2.6880 3.7488 2.1352
-2.7726 3.6899 2.1364
-2.8560 3.6292 2.1377
-2.9380 3.5666 2.1389
-3.0189 3.5022 2.1403
-3.0983 3.4361 2.1416
-3.1763 3.3682 2.1430
-3.2529 3.2987 2.1444
-3.3280 3.2274 2.1459
-3.4017 3.1544 2.1474
-3.4737 3.0799 2.1489
-3.5442 3.0037 2.1505
-3.6131 2.9259 2.1521
-3.6803 2.8466 2.1537
-3.7458 2.7659 2.1553
-3.8097 2.6836 2.1570
-3.8717 2.5999 2.1587
-3.9320 2.5148 2.1605
-3.9905 2.4284 2.1623
-4.0470 2.3406 2.1641
-4.1017 2.2515 2.1659
-4.1546 2.1612 2.1677
-4.2054 2.0696 2.1696
-4.2543 1.9769 2.1715
-4.3012 1.8831 2.1734
-4.3461 1.7882 2.1754
-4.3889 1.6922 2.1773
-4.4296 1.5952 2.1793
-4.4683 1.4972 2.1813
-4.5048 1.3983 2.1833
-4.5391 1.2986 2.1854
-4.5713 1.1980 2.1874
-4.6013 1.0967 2.1895
-4.6290 0.9946 2.1916
-4.6546 0.8918 2.1937
-4.6778 0.7884 2.1958
-4.6988 0.6844 2.1980
-4.7175 0.5798 2.2001
-4.7339 0.4748 2.2023
-4.7480 0.3693 2.2044
-4.7597 0.2634 2.2066
-4.7691 0.1572 2.2088
-4.7762 0.0507 2.2109
-4.7808 -0.0560 2.2131
-4.7831 -0.1630 2.2153
-4.7830 -0.2701 2.2175
-4.7805 -0.3772 2.2197
-4.7756 -0.4843 2.2219
-4.7683 -0.5915 2.2241
-4.7586 -0.6985 2.2263
-4.7464 -0.8054 2.2285
-4.7319 -0.9121 2.2307
-4.7150 -1.0185 2.2328
-4.6956 -1.1247 2.2350
-4.6739 -1.2305 2.2372
-4.6497 -1.3359 2.2393
-4.6231 -1.4407 2.2415
-4.5941 -1.5451 2.2436
-4.5629 -1.6489 2.2457
-4.5291 -1.7520 2.2479
-4.4931 -1.8545 2.2500
-4.4546 -1.9562 2.2520
-4.4138 -2.0570 2.2541
-4.3708 -2.1571 2.2562
-4.3254 -2.2562 2.2582
-4.2778 -2.3543 2.2602
-4.2278 -2.4514 2.2622
-4.1756 -2.5475 2.2641
-4.1212 -2.6424 2.2661
-4.0646 -2.7361 2.2680
-4.0058 -2.8285 2.2699
-3.9449 -2.9197 2.2718
-3.8818 -3.0095 2.2736
-3.8167 -3.0979 2.2754
-3.7495 -3.1849 2.2772
-3.6803 -3.2703 2.2789
-3.6090 -3.3542 2.2807
-3.5358 -3.4365 2.2823
-3.4607 -3.5172 2.2840
-3.3836 -3.5962 2.2856
-3.3048 -3.6734 2.2872
-3.2241 -3.7488 2.2887
-3.1416 -3.8224 2.2902
-3.0574 -3.8941 2.2917
-2.9716 -3.9639 2.2931
-2.8840 -4.0317 2.2945
-2.7949 -4.0975 2.2959
-2.7042 -4.1613 2.2972
-2.6121 -4.2229 2.2985
-2.5184 -4.2825 2.2997
-2.4234 -4.3399 2.3008
-0.8229 -1.5542 0.8140
-0.7881 -1.5725 0.8142
-0.7529 -1.5899 0.8143
-0.7173 -1.6066 0.8144
-0.6813 -1.6224 0.8145
-0.6450 -1.6375 0.8147
-0.6084 -1.6517 0.8148
-0.5714 -1.6651 0.8149
-0.5341 -1.6776 0.8150
-0.4966 -1.6893 0.8150
-0.4588 -1.7001 0.8151
-0.4207 -1.7101 0.8152
-0.3825 -1.7192 0.8153
-0.3440 -1.7275 0.8153
-0.3053 -1.7348 0.8154
-0.2665 -1.7413 0.8154
-0.2276 -1.7469 0.8155
-0.1885 -1.7517 0.8155
-0.1494 -1.7555 0.8155
-0.1101 -1.7584 0.8155
-0.0708 -1.7605 0.8156
-0.0315 -1.7617 0.8156
0.0079 -1.7619 0.8156
0.0472 -1.7613 0.8156
0.0866 -1.7598 0.8156
0.1258 -1.7573 0.8155
0.1650 -1.7540 0.8155
0.2042 -1.7498 0.8155
0.2432 -1.7448 0.8154
0.2821 -1.7388 0.8154
0.3208 -1.7319 0.8153
0.3594 -1.7242 0.8153
0.3978 -1.7156 0.8152
0.4360 -1.7062 0.8151
0.4739 -1.6958 0.8150
0.5116 -1.6846 0.8150
0.5490 -1.6726 0.8149
0.5862 -1.6597 0.8148
0.6230 -1.6460 0.8147
0.6596 -1.6314 0.8146
0.6957 -1.6161 0.8144
0.7315 -1.5999 0.8143
0.7670 -1.5829 0.8142
0.8020 -1.5651 0.8140
2.3657 -4.3733 2.3015
2.4616 -4.3172 2.3004
2.5561 -4.2589 2.2992
2.6491 -4.1985 2.2979
2.7407 -4.1360 2.2967
2.8307 -4.0714 2.2953
2.9192 -4.0048 2.2940
3.0061 -3.9362 2.2926
3.0913 -3.8656 2.2911
3.1748 -3.7932 2.2896
3.2566 -3.7188 2.2881
3.3366 -3.6427 2.2866
3.4147 -3.5648 2.2850
3.4910 -3.4851 2.2833
3.5654 -3.4038 2.2817
3.6378 -3.3208 2.2800
3.7082 -3.2363 2.2782
3.7767 -3.1502 2.2765
3.8431 -3.0627 2.2747
3.9074 -2.9737 2.2729
3.9696 -2.8834 2.2710
4.0296 -2.7917 2.2691
4.0875 -2.6987 2.2672
4.1433 -2.6045 2.2653
4.1968 -2.5092 2.2634
4.2481 -2.4127 2.2614
4.2971 -2.3152 2.2594
4.3439 -2.2166 2.2574
4.3883 -2.1172 2.2553
4.4304 -2.0168 2.2533
4.4703 -1.9156 2.2512
4.5078 -1.8136 2.2491
4.5429 -1.7108 2.2470
4.5757 -1.6074 2.2449
4.6060 -1.5034 2.2428
4.6340 -1.3988 2.2406
4.6596 -1.2937 2.2385
4.6829 -1.1882 2.2363
4.7037 -1.0822 2.2341
4.7221 -0.9760 2.2320
4.7381 -0.8694 2.2298
4.7516 -0.7626 2.2276
4.7628 -0.6557 2.2254
4.7715 -0.5486 2.2232
4.7779 -0.4415 2.2210
4.7818 -0.3343 2.2188
4.7833 -0.2272 2.2166
4.7825 -0.1202 2.2144
4.7793 -0.0133 2.2122
4.7736 0.0933 2.2101
4.7657 0.1997 2.2079
4.7554 0.3058 2.2057
4.7427 0.4115 2.2035
4.7277 0.5169 2.2014
4.7103 0.6217 2.1992
4.6907 0.7260 2.1971
4.6688 0.8298 2.1950
4.6446 0.9330 2.1929
4.6182 1.0355 2.1908
4.5896 1.1373 2.1887
4.5587 1.2383 2.1866
4.5257 1.3386 2.1846
4.4905 1.4380 2.1825
4.4531 1.5365 2.1805
4.4136 1.6341 2.1785
4.3721 1.7307 2.1765
4.3284 1.8262 2.1746
4.2827 1.9208 2.1726
4.2350 2.0142 2.1707
4.1853 2.1064 2.1688
4.1337 2.1975 2.1670
4.0801 2.2873 2.1651
4.0246 2.3759 2.1633
3.9673 2.4631 2.1615
3.9081 2.5490 2.1598
3.8471 2.6336 2.1580
3.7843 2.7167 2.1563
3.7198 2.7984 2.1547
3.6536 2.8785 2.1530
3.5858 2.9572 2.1514
3.5162 3.0343 2.1498
3.4451 3.1099 2.1483
3.3724 3.1838 2.1468
3.2981 3.2561 2.1453
3.2225 3.3267 2.1439
3.1453 3.3956 2.1424
3.0667 3.4628 2.1411
2.9867 3.5282 2.1397
2.9054 3.5918 2.1384
2.8228 3.6537 2.1372
2.7389 3.7137 2.1359
2.6538 3.7718 2.1347
2.5675 3.8281 2.1336
2.4801 3.8824 2.1325
2.3915 3.9349 2.1314
2.3019 3.9853 2.1304
0.8212 1.4980 0.7908
0.7874 1.5157 0.7906
0.7532 1.5327 0.7905
0.7187 1.5489 0.7904
0.6838 1.5643 0.7903
0.6486 1.5790 0.7902
0.6131 1.5929 0.7901
0.5773 1.6060 0.7900
0.5412 1.6183 0.7899
0.5049 1.6298 0.7898
0.4683 1.6405 0.7897
0.4315 1.6504 0.7896
0.3945 1.6595 0.7896
0.3573 1.6677 0.7895
0.3200 1.6752 0.7894
0.2825 1.6818 0.7894
0.2448 1.6876 0.7893
0.2071 1.6926 0.7893
0.1692 1.6967 0.7893
0.1313 1.7000 0.7893
0.0933 1.7025 0.7892
0.0552 1.7041 0.7892
0.0171 1.7049 0.7892
-0.0210 1.7049 0.7892
-0.0590 1.7040 0.7892
-0.0971 1.7023 0.7892
-0.1351 1.6998 0.7893
-0.1730 1.6964 0.7893
-0.2108 1.6922 0.7893
-0.2486 1.6871 0.7894
-0.2862 1.6812 0.7894
-0.3237 1.6745 0.7895
-0.3611 1.6670 0.7895
-0.3983 1.6587 0.7896
-0.4353 1.6495 0.7897
-0.4720 1.6395 0.7897
-0.5086 1.6287 0.7898
-0.5449 1.6172 0.7899
-0.5809 1.6048 0.7900
-0.6167 1.5916 0.7901
-0.6522 1.5777 0.7902
-0.6874 1.5629 0.7903
-0.7222 1.5474 0.7905
-0.7567 1.5311 0.7906
-0.7909 1.5141 0.7907
-0.8246 1.4963 0.7908
-2.3109 3.9804 2.1305
-2.4004 3.9297 2.1315
-2.4889 3.8771 2.1326
-2.5762 3.8225 2.1337
-2.6624 3.7661 2.1349
-2.7473 3.7077 2.1361
-2.8311 3.6476 2.1373
-2.9136 3.5855 2.1386
-2.9948 3.5217 2.1399
-3.0746 3.4561 2.1412
-3.1530 3.3888 2.1426
-3.2301 3.3197 2.1440
-3.3057 3.2489 2.1455
-3.3797 3.1765 2.1469
-3.4523 3.1024 2.1485
-3.5232 3.0267 2.1500
-3.5926 2.9494 2.1516
-3.6603 2.8706 2.1532
-3.7264 2.7903 2.1548
-3.7907 2.7084 2.1565
-3.8533 2.6252 2.1582
-3.9141 2.5405 2.1600
-3.9731 2.4544 2.1617
-4.0303 2.3671 2.1635
-4.0856 2.2784 2.1653
-4.1389 2.1884 2.1672
-4.1904 2.0972 2.1690
-4.2399 2.0049 2.1709
-4.2874 1.9114 2.1728
-4.3328 1.8167 2.1748
-4.3763 1.7211 2.1767
-4.4177 1.6243 2.1787
-4.4569 1.5267 2.1807
-4.4941 1.4281 2.1827
-4.5290 1.3286 2.1848
-4.5619 1.2283 2.1868
-4.5925 1.1272 2.1889
-4.6209 1.0253 2.1910
-4.6471 0.9227 2.1931
-4.6711 0.8195 2.1952
-4.6928 0.7156 2.1973
-4.7121 0.6112 2.1995
-4.7293 0.5063 2.2016
-4.7440 0.4010 2.2038
-4.7565 0.2952 2.2059
-4.7666 0.1891 2.2081
-4.7743 0.0827 2.2103
-4.7797 -0.0240 2.2125
-4.7827 -0.1309 2.2147
-4.7833 -0.2379 2.2169
-4.7815 -0.3450 2.2190
-4.7773 -0.4522 2.2212
-4.7707 -0.5593 2.2234
-4.7618 -0.6664 2.2256
-4.7504 -0.7733 2.2278
-4.7366 -0.8801 2.2300
-4.7203 -0.9866 2.2322
-4.7017 -1.0929 2.2344
-4.6806 -1.1988 2.2365
-4.6572 -1.3043 2.2387
-4.6313 -1.4093 2.2408
-4.6031 -1.5139 2.2430
-4.5725 -1.6178 2.2451
-4.5395 -1.7211 2.2472
-4.5041 -1.8238 2.2493
-4.4664 -1.9257 2.2514
-4.4264 -2.0269 2.2535
-4.3839 -2.1272 2.2555
-4.3392 -2.2266 2.2576
-4.2923 -2.3250 2.2596
-4.2430 -2.4224 2.2616
-4.1915 -2.5188 2.2636
-4.1378 -2.6140 2.2655
-4.0818 -2.7081 2.2674
-4.0237 -2.8009 2.2693
-3.9634 -2.8925 2.2712
-3.9010 -2.9827 2.2731
-3.8365 -3.0715 2.2749
-3.7699 -3.1589 2.2767
-3.7012 -3.2449 2.2784
-3.6306 -3.3292 2.2802
-3.5580 -3.4120 2.2818
-3.4834 -3.4932 2.2835
-3.4069 -3.5727 2.2851
-3.3286 -3.6504 2.2867
-3.2485 -3.7264 2.2883
-3.1666 -3.8005 2.2898
-3.0829 -3.8728 2.2913
-2.9975 -3.9431 2.2927
-2.9105 -4.0116 2.2941
-2.8218 -4.0780 2.2955
-2.7316 -4.1423 2.2968
-2.6399 -4.2047 2.2981
-2.5466 -4.2649 2.2993
-2.4520 -4.3229 2.3005
-0.8332 -1.5486 0.8140
-0.7986 -1.5671 0.8141
-0.7635 -1.5848 0.8143
-0.7280 -1.6017 0.8144
-0.6922 -1.6178 0.8145
-0.6560 -1.6331 0.8146
-0.6194 -1.6475 0.8147
-0.5825 -1.6611 0.8148
-0.5453 -1.6739 0.8149
-0.5079 -1.6859 0.8150
-0.4701 -1.6970 0.8151
-0.4322 -1.7072 0.8152
-0.3940 -1.7166 0.8152
-0.3555 -1.7251 0.8153
-0.3170 -1.7327 0.8154
-0.2782 -1.7395 0.8154
-0.2393 -1.7454 0.8155
-0.2003 -1.7503 0.8155
-0.1611 -1.7544 0.8155
-0.1219 -1.7577 0.8155
-0.0826 -1.7600 0.8156
-0.0433 -1.7614 0.8156
-0.0039 -1.7619 0.8156
0.0354 -1.7616 0.8156
0.0748 -1.7603 0.8156
0.1140 -1.7582 0.8155
0.1533 -1.7551 0.8155
0.1924 -1.7512 0.8155
0.2315 -1.7464 0.8154
0.2704 -1.7407 0.8154
0.3092 -1.7341 0.8153
0.3478 -1.7266 0.8153
0.3863 -1.7183 0.8152
0.4245 -1.7091 0.8152
0.4626 -1.6990 0.8151
0.5003 -1.6881 0.8150
0.5378 -1.6763 0.8149
0.5751 -1.6637 0.8148
0.6120 -1.6502 0.8147
0.6486 -1.6359 0.8146
0.6849 -1.6208 0.8145
0.7208 -1.6048 0.8143
0.7564 -1.5881 0.8142
0.7915 -1.5705 0.8141
0.8263 -1.5522 0.8139
2.4330 -4.3342 2.3007
2.5279 -4.2766 2.2995
2.6213 -4.2169 2.2983
2.7134 -4.1550 2.2971
2.8039 -4.0910 2.2957
2.8929 -4.0250 2.2944
2.9802 -3.9570 2.2930
3.0660 -3.8870 2.2916
3.1500 -3.8151 2.2901
3.2322 -3.7413 2.2886
3.3128 -3.6657 2.2870
3.3914 -3.5883 2.2855
3.4683 -3.5092 2.2838
3.5433 -3.4284 2.2822
3.6163 -3.3459 2.2805
3.6873 -3.2618 2.2788
3.7563 -3.1762 2.2770
3.8233 -3.0891 2.2752
3.8883 -3.0006 2.2734
3.9511 -2.9106 2.2716
4.0118 -2.8193 2.2697
4.0704 -2.7267 2.2678
4.1268 -2.6329 2.2659
4.1810 -2.5379 2.2639
4.2329 -2.4417 2.2620
4.2826 -2.3445 2.2600
4.3301 -2.2463 2.2580
4.3752 -2.1471 2.2559
4.4180 -2.0470 2.2539
4.4586 -1.9460 2.2518
4.4968 -1.8443 2.2497
4.5326 -1.7417 2.2476
4.5661 -1.6385 2.2455
4.5972 -1.5347 2.2434
4.6259 -1.4302 2.2413
4.6522 -1.3253 2.2391
4.6761 -1.2199 2.2370
4.6977 -1.1141 2.2348
4.7168 -1.0079 2.2326
4.7335 -0.9014 2.2304
4.7478 -0.7947 2.2282
4.7597 -0.6878 2.2261
4.7691 -0.5807 2.2239
4.7762 -0.4736 2.2217
4.7809 -0.3665 2.2195
4.7831 -0.2593 2.2173
4.7830 -0.1522 2.2151
4.7805 -0.0454 2.2129
4.7756 0.0613 2.2107
4.7683 0.1678 2.2085
4.7587 0.2740 2.2064
4.7467 0.3798 2.2042
4.7324 0.4853 2.2020
4.7158 0.5903 2.1999
4.6969 0.6948 2.1977
4.6756 0.7988 2.1956
4.6521 0.9021 2.1935
4.6264 1.0048 2.1914
4.5984 1.1068 2.1893
4.5682 1.2081 2.1872
4.5358 1.3086 2.1852
4.5012 1.4083 2.1831
4.4645 1.5071 2.1811
4.4257 1.6049 2.1791
4.3848 1.7018 2.1771
4.3417 1.7977 2.1752
4.2966 1.8925 2.1732
4.2496 1.9863 2.1713
4.2005 2.0788 2.1694
4.1494 2.1703 2.1675
4.0964 2.2605 2.1657
4.0415 2.3494 2.1639
3.9847 2.4371 2.1621
3.9261 2.5234 2.1603
3.8656 2.6084 2.1586
3.8033 2.6919 2.1569
3.7394 2.7740 2.1552
3.6737 2.8547 2.1535
3.6063 2.9338 2.1519
3.5372 3.0114 2.1503
3.4666 3.0874 2.1488
3.3943 3.1618 2.1472
3.3206 3.2346 2.1457
3.2453 3.3057 2.1443
3.1686 3.3751 2.1429
3.0904 3.4428 2.1415
3.0108 3.5088 2.1401
2.9299 3.5729 2.1388
2.8477 3.6353 2.1375
2.7642 3.6959 2.1363
2.6794 3.7545 2.1351
2.5935 3.8114 2.1339
2.5064 3.8663 2.1328
2.4182 3.9193 2.1317
2.3289 3.9704 2.1307
0.8313 1.4926 0.7908
0.7976 1.5105 0.7907
0.7635 1.5277 0.7905
0.7291 1.5441 0.7904
0.6943 1.5598 0.7903
0.6592 1.5747 0.7902
0.6238 1.5888 0.7901
0.5881 1.6021 0.7900
0.5521 1.6147 0.7899
0.5158 1.6264 0.7898
0.4793 1.6374 0.7897
0.4426 1.6475 0.7896
0.4057 1.6568 0.7896
0.3685 1.6653 0.7895
0.3312 1.6730 0.7895
0.2937 1.6799 0.7894
0.2561 1.6860 0.7894
0.2184 1.6912 0.7893
0.1806 1.6956 0.7893
0.1426 1.6991 0.7893
0.1047 1.7018 0.7892
0.0666 1.7037 0.7892
0.0286 1.7048 0.7892
-0.0095 1.7050 0.7892
-0.0476 1.7044 0.7892
-0.0856 1.7029 0.7892
-0.1237 1.7006 0.7893
-0.1616 1.6975 0.7893
-0.1995 1.6935 0.7893
-0.2373 1.6887 0.7894
-0.2750 1.6831 0.7894
-0.3125 1.6766 0.7895
-0.3499 1.6694 0.7895
-0.3871 1.6613 0.7896
-0.4242 1.6523 0.7896
-0.4610 1.6426 0.7897
-0.4976 1.6321 0.7898
-0.5340 1.6207 0.7899
-0.5702 1.6086 0.7900
-0.6060 1.5957 0.7901
-0.6416 1.5819 0.7902
-0.6769 1.5674 0.7903
-0.7118 1.5522 0.7904
-0.7464 1.5361 0.7905
-0.7807 1.5193 0.7907
-0.8145 1.5017 0.7908
-2.2839 3.9952 2.1302
-2.3737 3.9451 2.1312
-2.4624 3.8931 2.1323
-2.5501 3.8391 2.1334
-2.6366 3.7832 2.1345
-2.7219 3.7254 2.1357
-2.8061 3.6658 2.1369
-2.8890 3.6043 2.1382
-2.9705 3.5411 2.1395
-3.0508 3.4760 2.1408
-3.1297 3.4092 2.1422
-3.2071 3.3406 2.1436
-3.2831 3.2703 2.1450
-3.3576 3.1984 2.1465
-3.4307 3.1248 2.1480
-3.5021 3.0496 2.1495
-3.5720 2.9728 2.1511
-3.6402 2.8944 2.1527
-3.7068 2.8145 2.1543
-3.7716 2.7331 2.1560
-3.8347 2.6503 2.1577
-3.8960 2.5660 2.1594
-3.9556 2.4804 2.1612
-4.0133 2.3934 2.1630
-4.0692 2.3051 2.1648
-4.1231 2.2155 2.1666
-4.1751 2.1247 2.1685
-4.2252 2.0327 2.1704
-4.2733 1.9395 2.1723
-4.3194 1.8452 2.1742
-4.3635 1.7499 2.1761
-4.4055 1.6535 2.1781
-4.4454 1.5561 2.1801
-4.4831 1.4577 2.1821
-4.5188 1.3585 2.1842
-4.5523 1.2584 2.1862
-4.5836 1.1576 2.1883
-4.6127 1.0559 2.1904
-4.6395 0.9535 2.1925
-4.6641 0.8505 2.1946
-4.6865 0.7468 2.1967
-4.7066 0.6426 2.1988
-4.7243 0.5378 2.2010
-4.7398 0.4326 2.2031
-4.7530 0.3270 2.2053
-4.7638 0.2210 2.2075
-4.7722 0.1146 2.2096
-4.7783 0.0080 2.2118
-4.7820 -0.0988 2.2140
-4.7833 -0.2058 2.2162
-4.7823 -0.3129 2.2184
-4.7788 -0.4200 2.2206
-4.7730 -0.5272 2.2228
-4.7647 -0.6343 2.2250
-4.7540 -0.7413 2.2272
-4.7409 -0.8481 2.2293
-4.7254 -0.9547 2.2315
-4.7075 -1.0610 2.2337
-4.6872 -1.1671 2.2359
-4.6645 -1.2727 2.2380
-4.6394 -1.3779 2.2402
-4.6118 -1.4825 2.2423
-4.5819 -1.5867 2.2445
-4.5496 -1.6902 2.2466
-4.5150 -1.7931 2.2487
-4.4780 -1.8952 2.2508
-4.4386 -1.9966 2.2529
-4.3969 -2.0972 2.2549
-4.3529 -2.1968 2.2570
-4.3066 -2.2956 2.2590
-4.2580 -2.3933 2.2610
-4.2072 -2.4900 2.2630
-4.1541 -2.5856 2.2649
-4.0988 -2.6800 2.2669
-4.0414 -2.7732 2.2688
-3.9817 -2.8651 2.2706
-3.9200 -2.9558 2.2725
-3.8560 -3.0450 2.2743
-3.7901 -3.1329 2.2761
-3.7221 -3.2192 2.2779
-3.6520 -3.3041 2.2796
-3.5800 -3.3873 2.2813
-3.5060 -3.4690 2.2830
-3.4301 -3.5490 2.2847
-3.3523 -3.6272 2.2863
-3.2727 -3.7037 2.2878
-3.1913 -3.7785 2.2894
-3.1082 -3.8513 2.2908
-3.0233 -3.9222 2.2923
-2.9367 -3.9912 2.2937
-2.8486 -4.0582 2.2951
-2.7588 -4.1233 2.2964
-2.6675 -4.1862 2.2977
-2.5747 -4.2470 2.2989
-2.4805 -4.3057 2.3001
-0.8435 -1.5429 0.8139
-0.8090 -1.5616 0.8141
-0.7740 -1.5795 0.8142
-0.7387 -1.5967 0.8143
-0.7030 -1.6130 0.8145
-0.6669 -1.6286 0.8146
-0.6304 -1.6433 0.8147
-0.5936 -1.6571 0.8148
-0.5565 -1.6702 0.8149
-0.5191 -1.6824 0.8150
-0.4815 -1.6937 0.8151
-0.4436 -1.7042 0.8152
-0.4054 -1.7139 0.8152
-0.3671 -1.7226 0.8153
-0.3285 -1.7305 0.8153
-0.2898 -1.7376 0.8154
-0.2510 -1.7437 0.8154
-0.2120 -1.7489 0.8155
-0.1729 -1.7533 0.8155
-0.1337 -1.7568 0.8155
-0.0944 -1.7594 0.8156
-0.0551 -1.7611 0.8156
-0.0157 -1.7619 0.8156
0.0236 -1.7618 0.8156
0.0629 -1.7608 0.8156
0.1023 -1.7589 0.8155
0.1415 -1.7561 0.8155
0.1807 -1.7525 0.8155
0.2198 -1.7479 0.8155
0.2588 -1.7425 0.8154
0.2976 -1.7362 0.8154
0.3363 -1.7290 0.8153
0.3748 -1.7209 0.8152
0.4131 -1.7119 0.8152
0.4512 -1.7021 0.8151
0.4890 -1.6915 0.8150
0.5266 -1.6799 0.8149
0.5639 -1.6675 0.8148
0.6010 -1.6543 0.8147
0.6377 -1.6403 0.8146
0.6741 -1.6254 0.8145
0.7101 -1.6097 0.8144
0.7458 -1.5932 0.8143
0.7810 -1.5759 0.8141
0.8159 -1.5578 0.8140
2.4042 -4.3511 2.3011
2.4995 -4.2941 2.2999
2.5935 -4.2350 2.2987
2.6859 -4.1738 2.2974
2.7769 -4.1104 2.2961
2.8663 -4.0450 2.2948
2.9542 -3.9776 2.2934
3.0404 -3.9082 2.2920
3.1250 -3.8369 2.2905
3.2078 -3.7636 2.2890
3.2888 -3.6886 2.2875
3.3681 -3.6117 2.2859
3.4455 -3.5331 2.2843
3.5210 -3.4528 2.2827
3.5946 -3.3708 2.2810
3.6662 -3.2872 2.2793
3.7358 -3.2021 2.2775
3.8034 -3.1154 2.2758
3.8690 -3.0273 2.2740
3.9325 -2.9377 2.2721
3.9938 -2.8468 2.2703
4.0531 -2.7546 2.2684
4.1101 -2.6612 2.2665
4.1649 -2.5665 2.2645
4.2176 -2.4707 2.2626
4.2679 -2.3738 2.2606
4.3161 -2.2759 2.2586
4.3619 -2.1770 2.2566
4.4054 -2.0771 2.2545
4.4467 -1.9764 2.2524
4.4856 -1.8748 2.2504
4.5221 -1.7726 2.2483
4.5563 -1.6695 2.2462
4.5881 -1.5659 2.2440
4.6175 -1.4616 2.2419
4.6446 -1.3568 2.2398
4.6692 -1.2516 2.2376
4.6915 -1.1459 2.2354
4.7113 -1.0398 2.2333
4.7287 -0.9334 2.2311
4.7438 -0.8267 2.2289
4.7564 -0.7199 2.2267
