ply
format ascii 1.0
element vertex 2174
property float32 x
property float32 y
property float32 z
end_header
0.7275 1.4461 0.7793
0.6951 1.4617 0.7791
0.6623 1.4767 0.7788
0.6292 1.4909 0.7786
0.5959 1.5044 0.7784
0.5622 1.5171 0.7782
0.5283 1.5292 0.7780
0.4941 1.5404 0.7778
0.4596 1.5509 0.7777
0.4250 1.5606 0.7775
0.3901 1.5696 0.7774
0.3551 1.5778 0.7773
0.3199 1.5852 0.7771
0.2845 1.5919 0.7770
0.2490 1.5978 0.7769
0.2134 1.6029 0.7769
0.1777 1.6072 0.7768
0.1419 1.6107 0.7767
0.1060 1.6134 0.7767
0.0701 1.6153 0.7767
0.0342 1.6165 0.7767
-0.0018 1.6169 0.7767
-0.0378 1.6164 0.7767
-0.0737 1.6152 0.7767
-0.1096 1.6132 0.7767
-0.1455 1.6104 0.7768
-0.1813 1.6068 0.7768
-0.2170 1.6024 0.7769
-0.2526 1.5973 0.7770
-0.2881 1.5913 0.7771
-0.3234 1.5846 0.7772
-0.3586 1.5771 0.7773
-0.3936 1.5688 0.7774
-0.4285 1.5598 0.7776
-0.4631 1.5500 0.7777
-0.4975 1.5394 0.7779
-0.5317 1.5281 0.7781
-0.5656 1.5160 0.7783
-0.5993 1.5032 0.7785
-0.6326 1.4896 0.7787
-0.6657 1.4753 0.7789
-0.6984 1.4603 0.7792
-0.7308 1.4446 0.7794
-0.7629 1.4281 0.7797
-0.7946 1.4110 0.7800
-0.8259 1.3931 0.7802
-3.4230 5.4914 3.1182
-3.5428 5.4114 3.1176
-3.6606 5.3287 3.1170
-3.7766 5.2434 3.1163
-3.8904 5.1555 3.1157
-4.0022 5.0650 3.1150
-4.1118 4.9721 3.1143
-4.2193 4.8767 3.1136
-4.3244 4.7789 3.1128
-4.4273 4.6787 3.1120
-4.5277 4.5763 3.1113
-4.6258 4.4717 3.1105
-4.7214 4.3650 3.1097
-4.8145 4.2561 3.1088
-4.9051 4.1452 3.1080
-4.9930 4.0323 3.1071
-5.0783 3.9175 3.1062
-5.1609 3.8009 3.1054
-5.2408 3.6825 3.1045
-5.3179 3.5624 3.1035
-5.3922 3.4406 3.1026
-5.4638 3.3173 3.1017
-5.5314 3.1918 3.1002
-5.5961 3.0649 3.0986
-5.6578 2.9367 3.0970
-5.7165 2.8072 3.0954
-5.7723 2.6766 3.0938
-5.8250 2.5448 3.0922
-5.8746 2.4119 3.0906
-5.9212 2.2781 3.0889
-5.9647 2.1434 3.0873
-6.0052 2.0079 3.0856
-6.0425 1.8716 3.0839
-6.0767 1.7346 3.0822
-6.1077 1.5970 3.0805
-6.1357 1.4588 3.0788
-6.1605 1.3202 3.0771
-6.1822 1.1812 3.0754
-6.2007 1.0419 3.0737
-6.2160 0.9023 3.0720
-6.2283 0.7626 3.0703
-6.2373 0.6227 3.0685
-6.2433 0.4828 3.0668
-6.2461 0.3429 3.0651
-6.2458 0.2032 3.0634
-6.2424 0.0636 3.0617
-6.2358 -0.0758 3.0599
-6.2262 -0.2148 3.0582
-6.2135 -0.3535 3.0565
-6.1975 -0.4917 3.0547
-6.1780 -0.6293 3.0527
-6.1555 -0.7664 3.0507
-6.1300 -0.9027 3.0487
-6.1015 -1.0383 3.0467
-6.0701 -1.1731 3.0447
-6.0357 -1.3071 3.0428
-5.9984 -1.4401 3.0408
-5.9582 -1.5721 3.0389
-5.9152 -1.7031 3.0370
-5.8694 -1.8330 3.0351
-5.8207 -1.9617 3.0332
-5.7693 -2.0892 3.0313
-5.7152 -2.2154 3.0295
-5.6583 -2.3402 3.0276
-5.5988 -2.4637 3.0258
-5.5367 -2.5857 3.0240
-5.4720 -2.7062 3.0223
-5.4047 -2.8252 3.0205
-5.3350 -2.9425 3.0188
-5.2627 -3.0582 3.0171
-5.1880 -3.1722 3.0154
-5.1109 -3.2845 3.0138
-5.0314 -3.3949 3.0122
-4.9497 -3.5035 3.0106
-4.8657 -3.6102 3.0090
-4.7794 -3.7150 3.0075
-4.6910 -3.8178 3.0060
-4.6004 -3.9186 3.0045
-4.5078 -4.0172 3.0030
-4.4131 -4.1139 3.0016
-4.3164 -4.2083 3.0002
-4.2178 -4.3006 2.9989
-4.1173 -4.3907 2.9976
-4.0149 -4.4785 2.9963
-3.9108 -4.5640 2.9950
-3.8049 -4.6472 2.9938
-3.6972 -4.7280 2.9926
-3.5880 -4.8065 2.9915
-3.4771 -4.8826 2.9904
-3.3648 -4.9562 2.9893
-3.2509 -5.0273 2.9882
-3.1356 -5.0959 2.9872
-0.8339 -1.4259 0.8249
-0.8018 -1.4444 0.8252
-0.7693 -1.4622 0.8254
-0.7364 -1.4792 0.8257
-0.7032 -1.4955 0.8260
-0.6696 -1.5111 0.8262
-0.6356 -1.5258 0.8264
-0.6013 -1.5399 0.8267
-0.5666 -1.5531 0.8269
-0.5317 -1.5655 0.8271
-0.4965 -1.5772 0.8273
-0.4611 -1.5880 0.8274
-0.4254 -1.5981 0.8276
-0.3895 -1.6073 0.8277
-0.3533 -1.6157 0.8279
-0.3170 -1.6233 0.8280
-0.2806 -1.6301 0.8281
-0.2439 -1.6361 0.8282
-0.2072 -1.6412 0.8283
-0.1704 -1.6454 0.8283
-0.1334 -1.6489 0.8284
-0.0964 -1.6515 0.8284
-0.0593 -1.6533 0.8284
-0.0223 -1.6542 0.8285
0.0148 -1.6543 0.8285
0.0519 -1.6535 0.8284
0.0890 -1.6519 0.8284
0.1260 -1.6495 0.8284
0.1630 -1.6462 0.8283
0.1998 -1.6421 0.8283
0.2366 -1.6371 0.8282
0.2732 -1.6313 0.8281
0.3097 -1.6247 0.8280
0.3461 -1.6173 0.8279
0.3822 -1.6090 0.8277
0.4182 -1.5999 0.8276
0.4539 -1.5900 0.8274
0.4894 -1.5793 0.8272
0.5247 -1.5678 0.8271
0.5596 -1.5555 0.8269
0.5943 -1.5425 0.8267
0.6287 -1.5286 0.8264
0.6627 -1.5140 0.8262
0.6964 -1.4986 0.8260
0.7298 -1.4824 0.8257
0.7627 -1.4655 0.8254
0.7953 -1.4479 0.8252
0.8274 -1.4295 0.8249
3.1124 -5.1093 2.9870
3.2280 -5.0412 2.9880
3.3421 -4.9706 2.9891
3.4548 -4.8975 2.9901
3.5660 -4.8219 2.9913
3.6755 -4.7439 2.9924
3.7835 -4.6636 2.9936
3.8897 -4.5808 2.9948
3.9942 -4.4958 2.9960
4.0970 -4.4084 2.9973
4.1979 -4.3188 2.9986
4.2969 -4.2269 3.0000
4.3939 -4.1329 3.0014
4.4890 -4.0367 3.0028
4.5821 -3.9385 3.0042
4.6731 -3.8381 3.0057
4.6992 -3.6865 2.9676
4.7081 -3.5261 2.9215
4.7166 -3.3703 2.8782
4.7657 -3.2467 2.8619
4.8416 -3.1421 2.8635
4.9153 -3.0358 2.8650
4.9867 -2.9278 2.8666
5.0559 -2.8182 2.8682
5.1227 -2.7070 2.8698
5.1871 -2.5943 2.8715
5.2490 -2.4800 2.8732
5.3086 -2.3643 2.8749
5.3656 -2.2473 2.8766
5.4201 -2.1289 2.8783
5.4721 -2.0093 2.8801
5.5215 -1.8884 2.8818
5.5682 -1.7663 2.8836
5.6123 -1.6431 2.8854
5.6537 -1.5188 2.8873
5.6924 -1.3936 2.8891
5.7284 -1.2674 2.8909
5.7616 -1.1403 2.8928
5.7921 -1.0123 2.8947
5.8197 -0.8836 2.8966
5.8445 -0.7542 2.8985
5.8665 -0.6241 2.9004
5.8855 -0.4934 2.9023
5.9014 -0.3622 2.9040
5.9140 -0.2305 2.9056
5.9238 -0.0985 2.9073
5.9306 0.0339 2.9089
5.9344 0.1665 2.9105
5.9353 0.2993 2.9122
5.9332 0.4322 2.9138
5.9282 0.5651 2.9154
5.9201 0.6980 2.9171
5.9091 0.8309 2.9187
5.8951 0.9635 2.9203
5.8781 1.0960 2.9220
5.8581 1.2281 2.9236
5.8352 1.3599 2.9252
5.8092 1.4913 2.9268
5.7803 1.6221 2.9284
5.7484 1.7524 2.9301
5.7135 1.8821 2.9316
5.6757 2.0110 2.9332
5.6349 2.1392 2.9348
5.5912 2.2665 2.9364
5.5446 2.3929 2.9379
5.4951 2.5183 2.9395
5.4427 2.6427 2.9410
5.3875 2.7660 2.9425
5.3294 2.8881 2.9440
5.2685 3.0089 2.9455
5.2049 3.1284 2.9470
5.1384 3.2465 2.9484
5.0688 3.3629 2.9496
4.9960 3.4774 2.9505
4.9206 3.5902 2.9513
4.8426 3.7014 2.9522
4.7621 3.8109 2.9530
4.7157 3.9493 2.9770
4.7066 4.1235 3.0275
4.6969 4.3037 3.0811
4.6451 4.4505 3.1103
4.5476 4.5556 3.1111
4.4475 4.6584 3.1119
4.3452 4.7590 3.1127
4.2405 4.8573 3.1134
4.1335 4.9532 3.1141
4.0243 5.0466 3.1149
3.9130 5.1376 3.1155
3.7995 5.2260 3.1162
3.6840 5.3119 3.1169
3.5665 5.3951 3.1175
3.4471 5.4756 3.1181
0.8320 1.3893 0.7802
0.8008 1.4073 0.7799
0.7692 1.4246 0.7797
0.7372 1.4412 0.7794
0.7049 1.4571 0.7792
0.6722 1.4723 0.7789
0.6392 1.4867 0.7787
0.6059 1.5004 0.7785
0.5723 1.5134 0.7783
0.5385 1.5256 0.7781
0.5043 1.5371 0.7779
0.4700 1.5478 0.7777
0.4354 1.5578 0.7776
0.4006 1.5670 0.7774
0.3656 1.5754 0.7773
0.3305 1.5831 0.7772
0.2951 1.5900 0.7771
0.2597 1.5961 0.7770
0.2241 1.6014 0.7769
0.1884 1.6060 0.7768
0.1527 1.6097 0.7768
0.1168 1.6127 0.7767
0.0809 1.6149 0.7767
0.0450 1.6162 0.7767
0.0090 1.6168 0.7767
-0.0270 1.6166 0.7767
-0.0629 1.6157 0.7767
-0.0989 1.6139 0.7767
-0.1347 1.6113 0.7768
-0.1706 1.6080 0.7768
-0.2063 1.6038 0.7769
-0.2419 1.5989 0.7770
-0.2775 1.5932 0.7770
-0.3128 1.5867 0.7771
-0.3481 1.5794 0.7773
-0.3832 1.5714 0.7774
-0.4180 1.5626 0.7775
-0.4527 1.5530 0.7777
-0.4872 1.5426 0.7779
-0.5215 1.5315 0.7780
-0.5555 1.5197 0.7782
-0.5892 1.5071 0.7784
-0.6226 1.4938 0.7786
-0.6558 1.4797 0.7789
-0.6886 1.4649 0.7791
-0.7211 1.4494 0.7793
-0.7533 1.4331 0.7796
-0.7851 1.4162 0.7799
-0.8165 1.3985 0.7801
-3.3867 5.5149 3.1184
-3.5070 5.4357 3.1178
-3.6255 5.3538 3.1172
-3.7420 5.2693 3.1165
-3.8565 5.1821 3.1159
-3.9689 5.0924 3.1152
-4.0792 5.0002 3.1145
-4.1873 4.9055 3.1138
-4.2931 4.8085 3.1130
-4.3967 4.7090 3.1123
-4.4979 4.6073 3.1115
-4.5967 4.5033 3.1107
-4.6930 4.3972 3.1099
-4.7868 4.2890 3.1091
-4.8782 4.1787 3.1082
-4.9669 4.0664 3.1074
-5.0530 3.9522 3.1065
-5.1364 3.8361 3.1056
-5.2171 3.7182 3.1047
-5.2951 3.5986 3.1038
-5.3702 3.4773 3.1029
-5.4426 3.3544 3.1020
-5.5115 3.2296 3.1006
-5.5770 3.1031 3.0991
-5.6396 2.9753 3.0975
-5.6992 2.8462 3.0959
-5.7559 2.7159 3.0943
-5.8095 2.5844 3.0927
-5.8600 2.4519 3.0911
-5.9076 2.3184 3.0894
-5.9520 2.1839 3.0878
-5.9934 2.0486 3.0861
-6.0316 1.9125 3.0844
-6.0667 1.7758 3.0827
-6.0988 1.6383 3.0810
-6.1276 1.5003 3.0793
-6.1534 1.3619 3.0776
-6.1760 1.2230 3.0759
-6.1954 1.0837 3.0742
-6.2118 0.9442 3.0725
-6.2249 0.8045 3.0708
-6.2349 0.6647 3.0691
-6.2418 0.5248 3.0673
-6.2456 0.3849 3.0656
-6.2462 0.2451 3.0639
-6.2437 0.1054 3.0622
-6.2381 -0.0340 3.0605
-6.2294 -0.1732 3.0587
-6.2176 -0.3119 3.0570
-6.2027 -0.4503 3.0553
-6.1842 -0.5881 3.0533
-6.1626 -0.7253 3.0513
-6.1380 -0.8619 3.0493
-6.1104 -0.9977 3.0473
-6.0798 -1.1328 3.0453
-6.0463 -1.2670 3.0433
-6.0099 -1.4003 3.0414
-5.9706 -1.5326 3.0395
-5.9284 -1.6639 3.0375
-5.8834 -1.7941 3.0356
-5.8356 -1.9232 3.0337
-5.7850 -2.0510 3.0319
-5.7317 -2.1776 3.0300
-5.6757 -2.3029 3.0282
-5.6170 -2.4268 3.0264
-5.5556 -2.5492 3.0246
-5.4917 -2.6702 3.0228
-5.4252 -2.7897 3.0210
-5.3561 -2.9075 3.0193
-5.2846 -3.0237 3.0176
-5.2106 -3.1382 3.0159
-5.1343 -3.2510 3.0143
-5.0555 -3.3620 3.0126
-4.9745 -3.4711 3.0110
-4.8911 -3.5784 3.0095
-4.8055 -3.6838 3.0079
-4.7177 -3.7872 3.0064
-4.6278 -3.8885 3.0049
-4.5358 -3.9879 3.0035
-4.4417 -4.0851 3.0021
-4.3456 -4.1802 3.0007
-4.2476 -4.2731 2.9993
-4.1476 -4.3639 2.9980
-4.0458 -4.4524 2.9967
-3.9422 -4.5386 2.9954
-3.8368 -4.6225 2.9942
-3.7297 -4.7041 2.9930
-3.6209 -4.7832 2.9918
-3.5106 -4.8600 2.9907
-3.3986 -4.9343 2.9896
-3.2852 -5.0062 2.9886
-3.1703 -5.0756 2.9875
-0.8434 -1.4202 0.8248
-0.8115 -1.4389 0.8251
-0.7791 -1.4569 0.8254
-0.7464 -1.4742 0.8256
-0.7132 -1.4907 0.8259
-0.6797 -1.5065 0.8261
-0.6458 -1.5215 0.8264
-0.6116 -1.5357 0.8266
-0.5771 -1.5492 0.8268
-0.5422 -1.5619 0.8270
-0.5071 -1.5738 0.8272
-0.4717 -1.5849 0.8274
-0.4361 -1.5952 0.8275
-0.4003 -1.6046 0.8277
-0.3642 -1.6133 0.8278
-0.3279 -1.6211 0.8279
-0.2915 -1.6282 0.8281
-0.2549 -1.6344 0.8281
-0.2182 -1.6397 0.8282
-0.1814 -1.6443 0.8283
-0.1445 -1.6479 0.8284
-0.1075 -1.6508 0.8284
-0.0705 -1.6528 0.8284
-0.0334 -1.6540 0.8285
0.0037 -1.6543 0.8285
0.0408 -1.6538 0.8284
0.0779 -1.6525 0.8284
0.1149 -1.6503 0.8284
0.1519 -1.6472 0.8283
0.1888 -1.6434 0.8283
0.2256 -1.6387 0.8282
0.2623 -1.6331 0.8281
0.2988 -1.6268 0.8280
0.3352 -1.6196 0.8279
0.3714 -1.6116 0.8278
0.4074 -1.6027 0.8276
0.4432 -1.5931 0.8275
0.4788 -1.5826 0.8273
0.5141 -1.5714 0.8271
0.5492 -1.5593 0.8269
0.5840 -1.5465 0.8267
0.6184 -1.5328 0.8265
0.6526 -1.5184 0.8263
0.6864 -1.5033 0.8260
0.7198 -1.4873 0.8258
0.7529 -1.4707 0.8255
0.7856 -1.4532 0.8252
0.8178 -1.4351 0.8249
3.0774 -5.1293 2.9868
3.1934 -5.0619 2.9877
3.3080 -4.9920 2.9888
3.4212 -4.9197 2.9898
3.5328 -4.8448 2.9909
3.6428 -4.7676 2.9921
3.7513 -4.6879 2.9932
3.8580 -4.6059 2.9944
3.9631 -4.5215 2.9957
4.0664 -4.4349 2.9969
4.1678 -4.3459 2.9982
4.2674 -4.2547 2.9996
4.3650 -4.1614 3.0009
4.4607 -4.0658 3.0023
4.5544 -3.9682 3.0038
4.6460 -3.8684 3.0052
4.6964 -3.7355 2.9819
4.7055 -3.5737 2.9351
4.7141 -3.4166 2.8909
4.7425 -3.2778 2.8615
4.8190 -3.1737 2.8630
4.8934 -3.0679 2.8646
4.9655 -2.9604 2.8661
5.0354 -2.8512 2.8677
5.1029 -2.7405 2.8694
5.1680 -2.6282 2.8710
5.2307 -2.5144 2.8727
5.2910 -2.3992 2.8744
5.3488 -2.2826 2.8761
5.4040 -2.1646 2.8778
5.4568 -2.0453 2.8795
5.5069 -1.9248 2.8813
5.5545 -1.8030 2.8831
5.5993 -1.6802 2.8849
5.6416 -1.5562 2.8867
5.6811 -1.4313 2.8885
5.7179 -1.3053 2.8904
5.7520 -1.1785 2.8922
5.7832 -1.0508 2.8941
5.8117 -0.9223 2.8960
5.8374 -0.7931 2.8979
5.8602 -0.6632 2.8998
5.8801 -0.5327 2.9017
5.8970 -0.4016 2.9035
5.9105 -0.2701 2.9052
5.9211 -0.1381 2.9068
5.9288 -0.0058 2.9084
5.9336 0.1267 2.9100
5.9353 0.2594 2.9117
5.9342 0.3923 2.9133
5.9300 0.5252 2.9149
5.9229 0.6582 2.9166
5.9127 0.7910 2.9182
5.8996 0.9237 2.9198
5.8835 1.0563 2.9215
5.8644 1.1885 2.9231
5.8424 1.3204 2.9247
5.8173 1.4519 2.9264
5.7893 1.5829 2.9280
5.7583 1.7134 2.9296
5.7243 1.8432 2.9312
5.6873 1.9724 2.9328
5.6475 2.1008 2.9343
5.6046 2.2284 2.9359
5.5589 2.3551 2.9375
5.5103 2.4808 2.9390
5.4588 2.6055 2.9406
5.4044 2.7291 2.9421
5.3471 2.8516 2.9436
5.2871 2.9728 2.9451
5.2243 3.0927 2.9465
5.1586 3.2112 2.9480
5.0901 3.3282 2.9494
5.0181 3.4432 2.9502
4.9435 3.5566 2.9511
4.8663 3.6683 2.9519
4.7865 3.7782 2.9528
4.7215 3.9008 2.9645
4.7094 4.0706 3.0120
4.6999 4.2490 3.0646
4.6739 4.4186 3.1101
4.5771 4.5243 3.1109
4.4778 4.6278 3.1117
4.3761 4.7291 3.1124
4.2721 4.8281 3.1132
4.1658 4.9247 3.1139
4.0573 5.0189 3.1146
3.9466 5.1106 3.1153
3.8338 5.1998 3.1160
3.7188 5.2864 3.1167
3.6020 5.3704 3.1173
3.4831 5.4518 3.1179
0.8413 1.3838 0.7803
0.8102 1.4020 0.7800
0.7787 1.4195 0.7797
0.7468 1.4363 0.7795
0.7146 1.4524 0.7792
0.6820 1.4678 0.7790
0.6491 1.4825 0.7788
0.6159 1.4964 0.7785
0.5824 1.5096 0.7783
0.5486 1.5220 0.7781
0.5146 1.5337 0.7780
0.4803 1.5447 0.7778
0.4458 1.5549 0.7776
0.4111 1.5643 0.7775
0.3761 1.5730 0.7773
0.3410 1.5809 0.7772
0.3058 1.5880 0.7771
0.2703 1.5943 0.7770
0.2348 1.5999 0.7769
0.1991 1.6047 0.7768
0.1634 1.6087 0.7768
0.1276 1.6119 0.7767
0.0917 1.6143 0.7767
0.0557 1.6159 0.7767
0.0198 1.6167 0.7767
-0.0162 1.6168 0.7767
-0.0522 1.6160 0.7767
-0.0881 1.6145 0.7767
-0.1240 1.6122 0.7767
-0.1598 1.6090 0.7768
-0.1956 1.6051 0.7769
-0.2313 1.6004 0.7769
-0.2668 1.5950 0.7770
-0.3022 1.5887 0.7771
-0.3375 1.5817 0.7772
-0.3727 1.5739 0.7774
-0.4076 1.5653 0.7775
-0.4424 1.5559 0.7776
-0.4769 1.5458 0.7778
-0.5112 1.5350 0.7780
-0.5453 1.5233 0.7782
-0.5791 1.5110 0.7784
-0.6126 1.4978 0.7786
-0.6459 1.4840 0.7788
-0.6788 1.4694 0.7790
-0.7114 1.4541 0.7793
-0.7437 1.4381 0.7795
-0.7756 1.4213 0.7798
-0.8072 1.4039 0.7801
-3.3502 5.5381 3.1186
-3.4711 5.4597 3.1180
-3.5902 5.3787 3.1174
-3.7073 5.2949 3.1167
-3.8223 5.2086 3.1161
-3.9354 5.1196 3.1154
-4.0463 5.0281 3.1147
-4.1551 4.9342 3.1140
-4.2616 4.8378 3.1133
-4.3658 4.7391 3.1125
-4.4677 4.6380 3.1117
-4.5673 4.5348 3.1109
-4.6643 4.4293 3.1101
-4.7590 4.3217 3.1093
-4.8510 4.2120 3.1085
-4.9405 4.1003 3.1076
-5.0274 3.9866 3.1068
-5.1116 3.8711 3.1059
-5.1932 3.7538 3.1050
-5.2720 3.6346 3.1041
-5.3480 3.5139 3.1032
-5.4212 3.3915 3.1022
-5.4912 3.2673 3.1011
-5.5577 3.1412 3.0995
-5.6211 3.0138 3.0980
-5.6816 2.8851 3.0964
-5.7392 2.7551 3.0948
-5.7937 2.6240 3.0932
-5.8452 2.4917 3.0916
-5.8936 2.3585 3.0899
-5.9390 2.2243 3.0883
-5.9813 2.0893 3.0866
-6.0204 1.9534 3.0849
-6.0565 1.8169 3.0832
-6.0895 1.6796 3.0816
-6.1193 1.5418 3.0799
-6.1460 1.4034 3.0782
-6.1695 1.2647 3.0764
-6.1899 1.1255 3.0747
-6.2072 0.9861 3.0730
-6.2213 0.8464 3.0713
-6.2323 0.7066 3.0696
-6.2401 0.5667 3.0679
-6.2448 0.4268 3.0661
-6.2464 0.2870 3.0644
-6.2448 0.1473 3.0627
-6.2401 0.0078 3.0610
-6.2323 -0.1315 3.0593
-6.2215 -0.2704 3.0576
-6.2075 -0.4088 3.0558
-6.1900 -0.5468 3.0539
-6.1694 -0.6842 3.0519
-6.1457 -0.8210 3.0499
-6.1190 -0.9570 3.0479
-6.0893 -1.0923 3.0459
-6.0567 -1.2268 3.0439
-6.0211 -1.3604 3.0420
-5.9827 -1.4930 3.0400
-5.9414 -1.6247 3.0381
-5.8972 -1.7552 3.0362
-5.8502 -1.8846 3.0343
-5.8005 -2.0128 3.0324
-5.7480 -2.1398 3.0306
-5.6928 -2.2655 3.0287
-5.6349 -2.3898 3.0269
-5.5743 -2.5127 3.0251
-5.5111 -2.6341 3.0233
-5.4454 -2.7540 3.0216
-5.3771 -2.8723 3.0198
-5.3063 -2.9890 3.0181
-5.2331 -3.1040 3.0164
-5.1574 -3.2173 3.0148
-5.0794 -3.3289 3.0131
-4.9990 -3.4386 3.0115
-4.9164 -3.5464 3.0099
-4.8314 -3.6524 3.0084
-4.7443 -3.7564 3.0069
-4.6550 -3.8583 3.0054
-4.5636 -3.9583 3.0039
-4.4702 -4.0561 3.0025
-4.3747 -4.1519 3.0011
-4.2772 -4.2455 2.9997
-4.1778 -4.3369 2.9984
-4.0766 -4.4261 2.9971
-3.9735 -4.5130 2.9958
-3.8686 -4.5976 2.9945
-3.7620 -4.6798 2.9933
-3.6537 -4.7597 2.9922
-3.5439 -4.8372 2.9910
-3.4324 -4.9123 2.9899
-3.3194 -4.9849 2.9889
-3.2049 -5.0550 2.9878
-3.0891 -5.1226 2.9868
-0.8211 -1.4334 0.8250
-0.7889 -1.4516 0.8253
-0.7562 -1.4691 0.8256
-0.7232 -1.4858 0.8258
-0.6898 -1.5018 0.8261
-0.6560 -1.5171 0.8263
-0.6219 -1.5315 0.8265
-0.5874 -1.5452 0.8268
-0.5527 -1.5582 0.8270
-0.5177 -1.5703 0.8271
-0.4824 -1.5816 0.8273
-0.4468 -1.5921 0.8275
-0.4110 -1.6019 0.8276
-0.3750 -1.6108 0.8278
-0.3388 -1.6189 0.8279
-0.3025 -1.6261 0.8280
-0.2659 -1.6326 0.8281
-0.2293 -1.6382 0.8282
-0.1925 -1.6430 0.8283
-0.1556 -1.6469 0.8283
-0.1186 -1.6500 0.8284
-0.0816 -1.6523 0.8284
-0.0445 -1.6537 0.8284
-0.0074 -1.6543 0.8285
0.0297 -1.6541 0.8284
0.0668 -1.6530 0.8284
0.1038 -1.6510 0.8284
0.1408 -1.6482 0.8284
0.1777 -1.6446 0.8283
0.2146 -1.6402 0.8282
0.2513 -1.6349 0.8281
0.2879 -1.6288 0.8280
0.3243 -1.6218 0.8279
0.3606 -1.6141 0.8278
0.3966 -1.6055 0.8277
0.4325 -1.5961 0.8275
0.4682 -1.5858 0.8274
0.5036 -1.5748 0.8272
0.5387 -1.5630 0.8270
0.5736 -1.5504 0.8268
0.6081 -1.5370 0.8266
0.6424 -1.5228 0.8263
0.6763 -1.5079 0.8261
0.7098 -1.4922 0.8259
0.7430 -1.4757 0.8256
0.7758 -1.4585 0.8253
0.8082 -1.4406 0.8250
3.0424 -5.1490 2.9865
3.1588 -5.0824 2.9874
3.2738 -5.0133 2.9885
3.3874 -4.9416 2.9895
3.4995 -4.8675 2.9906
3.6100 -4.7910 2.9917
3.7189 -4.7121 2.9929
3.8262 -4.6307 2.9941
3.9317 -4.5471 2.9953
4.0356 -4.4611 2.9965
4.1376 -4.3728 2.9978
4.2377 -4.2823 2.9992
4.3359 -4.1896 3.0005
4.4322 -4.0947 3.0019
4.5265 -3.9977 3.0033
4.6187 -3.8985 3.0048
4.6936 -3.7850 2.9965
4.7028 -3.6218 2.9488
4.7116 -3.4633 2.9039
4.7273 -3.3144 2.8660
4.7963 -3.2051 2.8625
4.8797 -3.1051 2.8690
4.9442 -2.9928 2.8657
5.0147 -2.8841 2.8673
5.0829 -2.7739 2.8689
5.1487 -2.6621 2.8705
5.2121 -2.5487 2.8722
5.2732 -2.4339 2.8738
5.3317 -2.3177 2.8756
5.3877 -2.2001 2.8773
5.4412 -2.0812 2.8790
5.4921 -1.9610 2.8808
5.5405 -1.8397 2.8826
5.5862 -1.7171 2.8844
5.6292 -1.5935 2.8862
5.6695 -1.4689 2.8880
5.7072 -1.3432 2.8898
5.7420 -1.2166 2.8917
5.7742 -1.0892 2.8936
5.8035 -0.9609 2.8954
5.8300 -0.8319 2.8973
5.8536 -0.7022 2.8992
5.8744 -0.5719 2.9011
5.8924 -0.4410 2.9030
5.9068 -0.3096 2.9047
5.9183 -0.1777 2.9063
5.9268 -0.0456 2.9079
5.9325 0.0869 2.9095
5.9351 0.2196 2.9112
5.9348 0.3524 2.9128
5.9316 0.4853 2.9145
5.9253 0.6183 2.9161
5.9161 0.7512 2.9177
5.9039 0.8840 2.9194
5.8887 1.0165 2.9210
5.8705 1.1489 2.9226
5.8493 1.2809 2.9242
5.8251 1.4125 2.9259
5.7980 1.5437 2.9275
5.7679 1.6743 2.9291
5.7348 1.8044 2.9307
5.6987 1.9337 2.9323
5.6597 2.0624 2.9339
5.6178 2.1902 2.9354
5.5729 2.3172 2.9370
5.5252 2.4432 2.9386
5.4745 2.5682 2.9401
5.4210 2.6922 2.9416
5.3646 2.8150 2.9431
5.3054 2.9366 2.9446
5.2434 3.0569 2.9461
5.1786 3.1758 2.9476
5.1111 3.2934 2.9490
5.0400 3.4089 2.9500
4.9662 3.5227 2.9508
4.8897 3.6349 2.9517
4.8107 3.7454 2.9525
4.7311 3.8559 2.9546
4.7121 4.0183 2.9968
4.7028 4.1948 3.0485
4.6929 4.3775 3.1035
4.6064 4.4928 3.1106
4.5079 4.5970 3.1114
4.4069 4.6990 3.1122
4.3036 4.7986 3.1130
4.1980 4.8959 3.1137
4.0901 4.9909 3.1144
3.9800 5.0833 3.1151
3.8678 5.1733 3.1158
3.7535 5.2607 3.1165
3.6372 5.3455 3.1171
3.5190 5.4276 3.1178
3.3988 5.5071 3.1184
0.8196 1.3966 0.7801
0.7882 1.4143 0.7798
0.7564 1.4313 0.7796
0.7243 1.4477 0.7793
0.6918 1.4633 0.7791
0.6590 1.4781 0.7788
0.6259 1.4923 0.7786
0.5925 1.5057 0.7784
0.5588 1.5184 0.7782
0.5248 1.5303 0.7780
0.4906 1.5415 0.7778
0.4562 1.5519 0.7777
0.4215 1.5616 0.7775
0.3866 1.5705 0.7774
0.3516 1.5786 0.7772
0.3164 1.5859 0.7771
0.2810 1.5925 0.7770
0.2455 1.5983 0.7769
0.2098 1.6033 0.7769
0.1741 1.6076 0.7768
0.1383 1.6110 0.7767
0.1024 1.6136 0.7767
0.0665 1.6155 0.7767
0.0306 1.6166 0.7767
-0.0054 1.6169 0.7767
-0.0414 1.6163 0.7767
-0.0773 1.6150 0.7767
-0.1132 1.6129 0.7767
-0.1491 1.6101 0.7768
-0.1849 1.6064 0.7768
-0.2206 1.6019 0.7769
-0.2562 1.5967 0.7770
-0.2916 1.5907 0.7771
-0.3270 1.5839 0.7772
-0.3621 1.5763 0.7773
-0.3971 1.5679 0.7774
-0.4319 1.5588 0.7776
-0.4666 1.5489 0.7778
-0.5009 1.5383 0.7779
-0.5351 1.5269 0.7781
-0.5690 1.5147 0.7783
-0.6026 1.5019 0.7785
-0.6359 1.4882 0.7787
-0.6690 1.4739 0.7789
-0.7017 1.4588 0.7792
-0.7340 1.4429 0.7794
-0.7661 1.4264 0.7797
-0.7977 1.4092 0.7800
-3.3136 5.5610 3.1188
-3.4350 5.4835 3.1182
-3.5546 5.4033 3.1176
-3.6723 5.3203 3.1169
-3.7880 5.2347 3.1163
-3.9017 5.1466 3.1156
-4.0133 5.0558 3.1149
-4.1227 4.9626 3.1142
-4.2299 4.8670 3.1135
-4.3348 4.7690 3.1127
-4.4374 4.6686 3.1120
-4.5377 4.5660 3.1112
-4.6355 4.4611 3.1104
-4.7308 4.3542 3.1096
-4.8237 4.2451 3.1087
-4.9140 4.1340 3.1079
-5.0016 4.0209 3.1070
-5.0867 3.9060 3.1062
-5.1690 3.7891 3.1053
-5.2486 3.6706 3.1044
-5.3255 3.5503 3.1034
-5.3995 3.4283 3.1025
-5.4707 3.3048 3.1016
-5.5380 3.1792 3.1000
-5.6024 3.0522 3.0985
-5.6638 2.9238 3.0969
-5.7223 2.7942 3.0953
-5.7777 2.6634 3.0937
-5.8301 2.5315 3.0920
-5.8794 2.3986 3.0904
-5.9257 2.2647 3.0888
-5.9689 2.1299 3.0871
-6.0090 1.9943 3.0854
-6.0460 1.8579 3.0837
-6.0799 1.7208 3.0821
-6.1107 1.5832 3.0804
-6.1383 1.4450 3.0787
-6.1628 1.3063 3.0770
-6.1841 1.1673 3.0752
-6.2024 1.0280 3.0735
-6.2174 0.8884 3.0718
-6.2293 0.7486 3.0701
-6.2381 0.6087 3.0684
-6.2437 0.4688 3.0666
-6.2462 0.3289 3.0649
-6.2456 0.1892 3.0632
-6.2418 0.0496 3.0615
-6.2350 -0.0897 3.0598
-6.2251 -0.2287 3.0581
-6.2120 -0.3673 3.0564
-6.1957 -0.5055 3.0545
-6.1759 -0.6431 3.0525
-6.1531 -0.7800 3.0505
-6.1273 -0.9163 3.0485
-6.0985 -1.0518 3.0465
-6.0667 -1.1866 3.0445
-6.0321 -1.3204 3.0426
-5.9945 -1.4534 3.0406
-5.9541 -1.5853 3.0387
-5.9108 -1.7161 3.0368
-5.8646 -1.8459 3.0349
-5.8157 -1.9745 3.0330
-5.7640 -2.1018 3.0311
-5.7096 -2.2279 3.0293
-5.6525 -2.3526 3.0274
-5.5927 -2.4760 3.0256
-5.5304 -2.5978 3.0238
-5.4654 -2.7182 3.0221
-5.3979 -2.8370 3.0203
-5.3278 -2.9542 3.0186
-5.2553 -3.0697 3.0169
-5.1804 -3.1835 3.0153
-5.1030 -3.2956 3.0136
-5.0234 -3.4059 3.0120
-4.9414 -3.5143 3.0104
-4.8571 -3.6208 3.0089
-4.7707 -3.7254 3.0073
-4.6820 -3.8279 3.0058
-4.5913 -3.9285 3.0043
-4.4984 -4.0270 3.0029
-4.4035 -4.1234 3.0015
-4.3067 -4.2176 3.0001
-4.2078 -4.3097 2.9988
-4.1071 -4.3995 2.9974
-4.0046 -4.4871 2.9962
-3.9002 -4.5724 2.9949
-3.7942 -4.6554 2.9937
-3.6864 -4.7360 2.9925
-3.5770 -4.8142 2.9914
-3.4660 -4.8900 2.9903
-3.3535 -4.9634 2.9892
-3.2394 -5.0343 2.9881
-3.1240 -5.1026 2.9871
-0.8307 -1.4277 0.8249
-0.7986 -1.4462 0.8252
-0.7661 -1.4639 0.8255
-0.7331 -1.4809 0.8257
-0.6998 -1.4971 0.8260
-0.6662 -1.5126 0.8262
-0.6322 -1.5273 0.8265
-0.5978 -1.5412 0.8267
-0.5632 -1.5544 0.8269
-0.5282 -1.5667 0.8271
-0.4930 -1.5783 0.8273
-0.4575 -1.5891 0.8274
-0.4218 -1.5990 0.8276
-0.3859 -1.6082 0.8277
-0.3497 -1.6165 0.8279
-0.3134 -1.6240 0.8280
-0.2769 -1.6307 0.8281
-0.2403 -1.6366 0.8282
-0.2035 -1.6416 0.8283
-0.1667 -1.6458 0.8283
-0.1297 -1.6492 0.8284
-0.0927 -1.6517 0.8284
-0.0556 -1.6534 0.8284
-0.0186 -1.6542 0.8285
0.0186 -1.6542 0.8285
0.0556 -1.6534 0.8284
0.0927 -1.6517 0.8284
0.1297 -1.6492 0.8284
0.1667 -1.6458 0.8283
0.2035 -1.6416 0.8282
0.2403 -1.6366 0.8282
0.2769 -1.6307 0.8281
0.3134 -1.6240 0.8280
0.3497 -1.6165 0.8278
0.3858 -1.6081 0.8277
0.4218 -1.5990 0.8276
0.4575 -1.5890 0.8274
0.4930 -1.5782 0.8272
0.5282 -1.5666 0.8270
0.5631 -1.5543 0.8268
0.5978 -1.5411 0.8266
0.6321 -1.5272 0.8264
0.6661 -1.5125 0.8262
0.6998 -1.4970 0.8259
0.7331 -1.4808 0.8257
0.7660 -1.4638 0.8254
0.7985 -1.4461 0.8251
3.0072 -5.1685 2.9862
3.1240 -5.1026 2.9871
3.2394 -5.0343 2.9881
3.3535 -4.9634 2.9892
3.4660 -4.8900 2.9903
3.5770 -4.8142 2.9914
3.6864 -4.7360 2.9925
3.7942 -4.6554 2.9937
3.9003 -4.5724 2.9949
4.0046 -4.4871 2.9962
4.1071 -4.3995 2.9974
4.2079 -4.3097 2.9988
4.3067 -4.2176 3.0001
4.4035 -4.1234 3.0015
4.4984 -4.0270 3.0029
4.5913 -3.9285 3.0043
4.6820 -3.8279 3.0058
4.7001 -3.6702 2.9628
4.7090 -3.5103 2.9171
4.7182 -3.3556 2.8745
4.7733 -3.2363 2.8621
4.8491 -3.1316 2.8636
4.9225 -3.0251 2.8652
4.9938 -2.9169 2.8668
5.0626 -2.8071 2.8684
5.1292 -2.6958 2.8700
5.1934 -2.5829 2.8717
5.2551 -2.4685 2.8733
5.3144 -2.3527 2.8750
5.3712 -2.2355 2.8768
5.4254 -2.1170 2.8785
5.4771 -1.9972 2.8802
5.5263 -1.8762 2.8820
5.5727 -1.7540 2.8838
5.6166 -1.6307 2.8856
5.6577 -1.5064 2.8874
5.6962 -1.3810 2.8893
5.7319 -1.2547 2.8911
5.7648 -1.1275 2.8930
5.7950 -0.9995 2.8949
5.8223 -0.8707 2.8968
5.8468 -0.7412 2.8987
5.8685 -0.6110 2.9006
5.8873 -0.4803 2.9025
5.9028 -0.3490 2.9042
5.9151 -0.2173 2.9058
5.9246 -0.0852 2.9074
5.9311 0.0471 2.9091
5.9346 0.1798 2.9107
5.9352 0.3126 2.9123
5.9328 0.4455 2.9140
5.9275 0.5784 2.9156
5.9192 0.7113 2.9172
5.9078 0.8441 2.9189
5.8935 0.9768 2.9205
5.8762 1.1092 2.9221
5.8560 1.2413 2.9238
5.8327 1.3731 2.9254
5.8064 1.5044 2.9270
5.7772 1.6352 2.9286
5.7450 1.7654 2.9302
5.7098 1.8950 2.9318
5.6717 2.0239 2.9334
5.6307 2.1519 2.9350
5.5867 2.2792 2.9365
5.5398 2.4055 2.9381
5.4900 2.5308 2.9396
5.4373 2.6551 2.9412
5.3818 2.7783 2.9427
5.3235 2.9002 2.9442
5.2623 3.0209 2.9457
5.1983 3.1403 2.9471
5.1316 3.2583 2.9486
5.0617 3.3744 2.9497
4.9886 3.4887 2.9506
4.9130 3.6014 2.9514
4.8347 3.7125 2.9523
4.7539 3.8217 2.9531
4.7148 3.9665 2.9819
4.7057 4.1412 3.0327
4.6959 4.3221 3.0866
4.6355 4.4612 3.1104
4.5377 4.5660 3.1112
4.4374 4.6686 3.1120
4.3348 4.7689 3.1127
4.2299 4.8670 3.1135
4.1227 4.9626 3.1142
4.0133 5.0558 3.1149
3.9017 5.1466 3.1156
3.7880 5.2347 3.1163
3.6723 5.3203 3.1169
3.5547 5.4033 3.1176
3.4350 5.4835 3.1182
0.8289 1.3912 0.7802
0.7977 1.4091 0.7799
0.7660 1.4263 0.7796
0.7340 1.4428 0.7794
0.7016 1.4587 0.7791
0.6689 1.4738 0.7789
0.6359 1.4881 0.7787
0.6026 1.5018 0.7785
0.5689 1.5147 0.7783
0.5351 1.5268 0.7781
0.5009 1.5382 0.7779
0.4665 1.5489 0.7777
0.4319 1.5588 0.7776
0.3971 1.5679 0.7774
0.3621 1.5762 0.7773
0.3269 1.5838 0.7772
0.2916 1.5906 0.7771
0.2561 1.5967 0.7770
0.2206 1.6019 0.7769
0.1849 1.6064 0.7768
0.1491 1.6100 0.7768
0.1132 1.6129 0.7767
0.0773 1.6150 0.7767
0.0414 1.6163 0.7767
0.0054 1.6169 0.7767
-0.0306 1.6166 0.7767
-0.0665 1.6155 0.7767
-0.1025 1.6137 0.7767
-0.1383 1.6110 0.7768
-0.1741 1.6076 0.7768
-0.2099 1.6034 0.7769
-0.2455 1.5984 0.7770
-0.2810 1.5926 0.7771
-0.3164 1.5860 0.7772
-0.3516 1.5787 0.7773
-0.3867 1.5705 0.7774
-0.4215 1.5616 0.7775
-0.4562 1.5520 0.7777
-0.4907 1.5416 0.7779
-0.5249 1.5304 0.7780
-0.5588 1.5185 0.7782
-0.5925 1.5058 0.7784
-0.6260 1.4924 0.7787
-0.6591 1.4782 0.7789
-0.6919 1.4634 0.7791
-0.7244 1.4478 0.7794
-0.7565 1.4315 0.7796
-0.7883 1.4144 0.7799
-0.8197 1.3967 0.7802
-3.3988 5.5071 3.1184
-3.5190 5.4276 3.1178
-3.6372 5.3455 3.1171
-3.7535 5.2607 3.1165
-3.8678 5.1733 3.1158
-3.9800 5.0833 3.1151
-4.0901 4.9908 3.1144
-4.1980 4.8959 3.1137
-4.3036 4.7986 3.1130
-4.4069 4.6989 3.1122
-4.5078 4.5970 3.1114
-4.6064 4.4928 3.1106
-4.7025 4.3865 3.1098
-4.7961 4.2780 3.1090
-4.8871 4.1675 3.1081
-4.9756 4.0550 3.1073
-5.0614 3.9406 3.1064
-5.1446 3.8244 3.1055
-5.2250 3.7063 3.1046
-5.3027 3.5865 3.1037
-5.3776 3.4651 3.1028
-5.4497 3.3420 3.1019
-5.5181 3.2170 3.1005
-5.5834 3.0904 3.0989
-5.6457 2.9625 3.0973
-5.7050 2.8332 3.0958
-5.7614 2.7028 3.0941
-5.8147 2.5712 3.0925
-5.8649 2.4386 3.0909
-5.9121 2.3050 3.0893
-5.9563 2.1704 3.0876
-5.9973 2.0350 3.0859
-6.0353 1.8989 3.0843
-6.0701 1.7620 3.0826
-6.1018 1.6245 3.0809
-6.1304 1.4865 3.0792
-6.1558 1.3480 3.0775
-6.1781 1.2091 3.0758
-6.1972 1.0698 3.0740
-6.2132 0.9302 3.0723
-6.2261 0.7905 3.0706
-6.2358 0.6507 3.0689
-6.2424 0.5108 3.0672
-6.2458 0.3709 3.0654
-6.2461 0.2311 3.0637
-6.2433 0.0915 3.0620
-6.2374 -0.0479 3.0603
-6.2284 -0.1871 3.0586
-6.2163 -0.3258 3.0569
-6.2010 -0.4641 3.0551
-6.1821 -0.6018 3.0531
-6.1602 -0.7390 3.0511
-6.1353 -0.8755 3.0491
-6.1074 -1.0113 3.0471
-6.0766 -1.1462 3.0451
-6.0428 -1.2804 3.0432
-6.0061 -1.4136 3.0412
-5.9665 -1.5458 3.0393
-5.9240 -1.6770 3.0373
-5.8788 -1.8071 3.0354
-5.8307 -1.9361 3.0335
-5.7798 -2.0638 3.0317
-5.7262 -2.1902 3.0298
-5.6699 -2.3153 3.0280
-5.6109 -2.4391 3.0262
-5.5494 -2.5614 3.0244
-5.4852 -2.6822 3.0226
-5.4184 -2.8015 3.0209
-5.3491 -2.9192 3.0191
-5.2773 -3.0352 3.0174
-5.2031 -3.1495 3.0158
-5.1265 -3.2622 3.0141
-5.0475 -3.3730 3.0125
-4.9662 -3.4820 3.0109
-4.8827 -3.5890 3.0093
-4.7968 -3.6942 3.0078
-4.7088 -3.7974 3.0063
-4.6187 -3.8986 3.0048
-4.5265 -3.9977 3.0033
-4.4322 -4.0947 3.0019
-4.3359 -4.1896 3.0005
-4.2377 -4.2823 2.9992
-4.1376 -4.3728 2.9978
-4.0356 -4.4611 2.9965
-3.9317 -4.5471 2.9953
-3.8262 -4.6307 2.9941
-3.7189 -4.7121 2.9929
-3.6100 -4.7910 2.9917
-3.4994 -4.8675 2.9906
-3.3874 -4.9416 2.9895
-3.2738 -5.0133 2.9885
-3.1587 -5.0824 2.9874
-0.8402 -1.4221 0.8248
-0.8083 -1.4407 0.8251
-0.7759 -1.4587 0.8254
-0.7431 -1.4759 0.8257
-0.7099 -1.4923 0.8259
-0.6763 -1.5080 0.8262
-0.6424 -1.5229 0.8264
-0.6081 -1.5371 0.8266
-0.5736 -1.5505 0.8268
-0.5387 -1.5631 0.8270
-0.5036 -1.5749 0.8272
-0.4682 -1.5859 0.8274
-0.4325 -1.5961 0.8276
-0.3967 -1.6055 0.8277
-0.3606 -1.6141 0.8278
-0.3243 -1.6219 0.8280
-0.2879 -1.6288 0.8281
-0.2513 -1.6349 0.8282
-0.2146 -1.6402 0.8282
-0.1777 -1.6447 0.8283
-0.1408 -1.6483 0.8284
-0.1038 -1.6510 0.8284
-0.0668 -1.6530 0.8284
-0.0297 -1.6541 0.8285
0.0074 -1.6543 0.8285
0.0445 -1.6537 0.8284
0.0816 -1.6523 0.8284
0.1186 -1.6500 0.8284
0.1556 -1.6469 0.8283
0.1925 -1.6429 0.8283
0.2293 -1.6382 0.8282
0.2659 -1.6325 0.8281
0.3025 -1.6261 0.8280
0.3388 -1.6188 0.8279
0.3750 -1.6107 0.8277
0.4110 -1.6018 0.8276
0.4468 -1.5921 0.8275
0.4824 -1.5815 0.8273
0.5177 -1.5702 0.8271
0.5527 -1.5581 0.8269
0.5874 -1.5451 0.8267
0.6219 -1.5314 0.8265
0.6560 -1.5170 0.8263
0.6897 -1.5017 0.8260
0.7231 -1.4857 0.8258
0.7562 -1.4690 0.8255
0.7888 -1.4515 0.8252
0.8210 -1.4332 0.8249
3.0891 -5.1227 2.9868
3.2050 -5.0550 2.9878
3.3194 -4.9849 2.9889
3.4324 -4.9123 2.9899
3.5439 -4.8372 2.9910
3.6538 -4.7597 2.9922
3.7620 -4.6798 2.9933
3.8686 -4.5976 2.9945
3.9735 -4.5130 2.9958
4.0766 -4.4261 2.9971
4.1778 -4.3369 2.9984
4.2772 -4.2455 2.9997
4.3747 -4.1519 3.0011
4.4702 -4.0561 3.0025
4.5636 -3.9583 3.0039
4.6550 -3.8583 3.0054
4.6973 -3.7191 2.9771
4.7064 -3.5578 2.9305
4.7149 -3.4011 2.8866
4.7502 -3.2674 2.8616
4.8266 -3.1632 2.8632
4.9007 -3.0572 2.8647
4.9726 -2.9495 2.8663
5.0422 -2.8402 2.8679
5.1095 -2.7294 2.8695
5.1744 -2.6169 2.8712
5.2368 -2.5030 2.8728
5.2969 -2.3876 2.8745
5.3544 -2.2708 2.8762
5.4094 -2.1527 2.8780
5.4619 -2.0333 2.8797
5.5118 -1.9126 2.8815
5.5591 -1.7908 2.8833
5.6037 -1.6678 2.8851
5.6457 -1.5438 2.8869
5.6849 -1.4187 2.8887
5.7214 -1.2927 2.8906
5.7552 -1.1658 2.8924
5.7862 -1.0380 2.8943
5.8144 -0.9094 2.8962
5.8398 -0.7801 2.8981
5.8623 -0.6502 2.9000
5.8820 -0.5196 2.9019
5.8985 -0.3885 2.9037
5.9117 -0.2569 2.9053
5.9220 -0.1249 2.9069
5.9294 0.0074 2.9086
5.9339 0.1400 2.9102
5.9354 0.2727 2.9118
5.9339 0.4056 2.9135
5.9294 0.5385 2.9151
5.9220 0.6715 2.9167
5.9116 0.8043 2.9184
5.8982 0.9370 2.9200
5.8817 1.0695 2.9216
5.8624 1.2017 2.9233
5.8400 1.3336 2.9249
5.8146 1.4650 2.9265
5.7863 1.5960 2.9281
5.7550 1.7264 2.9297
5.7207 1.8562 2.9313
5.6835 1.9853 2.9329
5.6433 2.1136 2.9345
5.6002 2.2411 2.9361
5.5542 2.3677 2.9376
5.5052 2.4933 2.9392
5.4534 2.6179 2.9407
5.3988 2.7414 2.9422
5.3413 2.8638 2.9437
5.2809 2.9848 2.9452
5.2178 3.1046 2.9467
5.1519 3.2230 2.9482
5.0830 3.3398 2.9494
5.0108 3.4546 2.9503
4.9359 3.5678 2.9512
4.8584 3.6794 2.9520
4.7784 3.7891 2.9529
4.7183 3.9159 2.9679
4.7085 4.0882 3.0171
4.6989 4.2671 3.0701
4.6644 4.4293 3.1101
4.5673 4.5348 3.1109
4.4678 4.6381 3.1117
4.3658 4.7391 3.1125
4.2616 4.8378 3.1133
4.1551 4.9342 3.1140
4.0463 5.0281 3.1147
3.9354 5.1196 3.1154
3.8224 5.2086 3.1161
3.7073 5.2949 3.1167
3.5901 5.3787 3.1174
3.4711 5.4597 3.1180
0.8382 1.3856 0.7803
0.8071 1.4038 0.7800
0.7755 1.4212 0.7797
0.7436 1.4380 0.7795
0.7114 1.4540 0.7792
0.6788 1.4693 0.7790
0.6458 1.4839 0.7787
0.6126 1.4977 0.7785
0.5791 1.5109 0.7783
0.5453 1.5232 0.7781
0.5112 1.5349 0.7779
0.4769 1.5458 0.7778
0.4423 1.5559 0.7776
0.4076 1.5652 0.7775
0.3726 1.5738 0.7773
0.3375 1.5816 0.7772
0.3022 1.5887 0.7771
0.2668 1.5949 0.7770
0.2312 1.6004 0.7769
0.1956 1.6051 0.7768
0.1598 1.6090 0.7768
0.1240 1.6121 0.7767
0.0881 1.6145 0.7767
0.0521 1.6160 0.7767
0.0162 1.6168 0.7767
-0.0198 1.6167 0.7767
-0.0557 1.6159 0.7767
-0.0917 1.6143 0.7767
-0.1276 1.6119 0.7767
-0.1634 1.6087 0.7768
-0.1992 1.6047 0.7769
-0.2348 1.5999 0.7769
-0.2704 1.5944 0.7770
-0.3058 1.5880 0.7771
-0.3410 1.5809 0.7772
-0.3762 1.5730 0.7774
-0.4111 1.5644 0.7775
-0.4458 1.5550 0.7777
-0.4803 1.5448 0.7778
-0.5146 1.5338 0.7780
-0.5487 1.5221 0.7782
-0.5825 1.5097 0.7784
-0.6160 1.4965 0.7786
-0.6492 1.4826 0.7788
-0.6821 1.4679 0.7790
-0.7147 1.4525 0.7793
-0.7469 1.4364 0.7795
-0.7788 1.4196 0.7798
-0.8103 1.4021 0.7801
-3.3624 5.5304 3.1185
-3.4831 5.4517 3.1179
-3.6020 5.3704 3.1173
-3.7189 5.2864 3.1167
-3.8337 5.1998 3.1160
-3.9466 5.1106 3.1153
-4.0573 5.0189 3.1146
-4.1658 4.9246 3.1139
-4.2721 4.8280 3.1132
-4.3761 4.7291 3.1124
-4.4778 4.6278 3.1117
-4.5771 4.5243 3.1109
-4.6739 4.4186 3.1101
-4.7683 4.3108 3.1092
-4.8601 4.2009 3.1084
-4.9493 4.0890 3.1076
-5.0360 3.9752 3.1067
-5.1199 3.8595 3.1058
-5.2012 3.7419 3.1049
-5.2797 3.6227 3.1040
-5.3554 3.5017 3.1031
-5.4284 3.3791 3.1021
-5.4980 3.2547 3.1009
-5.5641 3.1285 3.0994
-5.6273 3.0010 3.0978
-5.6876 2.8721 3.0962
-5.7448 2.7420 3.0946
-5.7990 2.6108 3.0930
-5.8502 2.4785 3.0914
-5.8983 2.3451 3.0897
-5.9434 2.2109 3.0881
-5.9853 2.0757 3.0864
-6.0242 1.9398 3.0848
-6.0600 1.8032 3.0831
-6.0926 1.6659 3.0814
-6.1221 1.5280 3.0797
-6.1485 1.3896 3.0780
-6.1717 1.2508 3.0763
-6.1918 1.1116 3.0746
-6.2088 0.9721 3.0728
-6.2225 0.8325 3.0711
-6.2332 0.6926 3.0694
-6.2407 0.5527 3.0677
-6.2451 0.4128 3.0660
-6.2463 0.2730 3.0642
-6.2445 0.1333 3.0625
-6.2395 -0.0062 3.0608
-6.2314 -0.1454 3.0591
-6.2202 -0.2842 3.0574
-6.2060 -0.4227 3.0557
-6.1881 -0.5606 3.0537
-6.1671 -0.6979 3.0517
-6.1431 -0.8346 3.0497
-6.1161 -0.9706 3.0477
-6.0862 -1.1058 3.0457
-6.0533 -1.2402 3.0437
-6.0174 -1.3737 3.0418
-5.9787 -1.5062 3.0398
-5.9371 -1.6378 3.0379
-5.8926 -1.7682 3.0360
-5.8454 -1.8975 3.0341
-5.7954 -2.0256 3.0322
-5.7426 -2.1524 3.0304
-5.6871 -2.2780 3.0285
-5.6289 -2.4021 3.0267
-5.5681 -2.5249 3.0249
-5.5047 -2.6462 3.0231
-5.4387 -2.7659 3.0214
-5.3701 -2.8841 3.0197
-5.2991 -3.0006 3.0179
-5.2256 -3.1154 3.0163
-5.1497 -3.2286 3.0146
-5.0715 -3.3399 3.0130
-4.9908 -3.4494 3.0114
-4.9080 -3.5571 3.0098
-4.8228 -3.6628 3.0082
-4.7355 -3.7666 3.0067
-4.6460 -3.8684 3.0052
-4.5544 -3.9682 3.0038
-4.4607 -4.0658 3.0023
-4.3650 -4.1614 3.0009
-4.2673 -4.2547 2.9996
-4.1678 -4.3459 2.9982
-4.0663 -4.4349 2.9969
-3.9631 -4.5215 2.9957
-3.8580 -4.6059 2.9944
-3.7512 -4.6879 2.9932
-3.6428 -4.7676 2.9921
-3.5327 -4.8448 2.9909
-3.4212 -4.9197 2.9898
-3.3080 -4.9920 2.9888
-3.1934 -5.0619 2.9877
-3.0774 -5.1293 2.9868
-0.8179 -1.4352 0.8250
-0.7856 -1.4534 0.8253
-0.7529 -1.4708 0.8256
-0.7199 -1.4875 0.8258
-0.6864 -1.5034 0.8261
-0.6526 -1.5185 0.8263
-0.6185 -1.5329 0.8266
-0.5840 -1.5466 0.8268
-0.5492 -1.5594 0.8270
-0.5142 -1.5715 0.8272
-0.4788 -1.5827 0.8273
-0.4432 -1.5932 0.8275
-0.4074 -1.6028 0.8277
-0.3714 -1.6116 0.8278
-0.3352 -1.6196 0.8279
-0.2988 -1.6268 0.8280
-0.2623 -1.6332 0.8281
-0.2256 -1.6387 0.8282
-0.1888 -1.6434 0.8283
-0.1519 -1.6473 0.8284
-0.1149 -1.6503 0.8284
-0.0779 -1.6525 0.8284
-0.0408 -1.6538 0.8284
-0.0037 -1.6543 0.8285
0.0334 -1.6540 0.8284
0.0705 -1.6528 0.8284
0.1075 -1.6508 0.8284
0.1445 -1.6479 0.8283
0.1814 -1.6442 0.8283
0.2182 -1.6397 0.8282
0.2549 -1.6343 0.8281
0.2915 -1.6281 0.8280
0.3279 -1.6211 0.8279
0.3642 -1.6132 0.8278
0.4002 -1.6046 0.8277
0.4361 -1.5951 0.8275
0.4717 -1.5848 0.8273
0.5071 -1.5737 0.8272
0.5422 -1.5618 0.8270
0.5770 -1.5491 0.8268
0.6116 -1.5356 0.8266
0.6458 -1.5214 0.8263
0.6796 -1.5064 0.8261
0.7131 -1.4906 0.8258
0.7463 -1.4741 0.8256
0.7791 -1.4568 0.8253
0.8114 -1.4388 0.8250
3.0541 -5.1424 2.9866
3.1703 -5.0756 2.9875
3.2852 -5.0062 2.9886
3.3987 -4.9343 2.9896
3.5106 -4.8600 2.9907
3.6210 -4.7832 2.9918
3.7297 -4.7040 2.9930
3.8368 -4.6225 2.9942
3.9422 -4.5386 2.9954
4.0458 -4.4524 2.9967
4.1476 -4.3639 2.9980
4.2476 -4.2732 2.9993
4.3457 -4.1802 3.0007
4.4417 -4.0851 3.0021
4.5358 -3.9879 3.0035
4.6278 -3.8885 3.0049
4.6945 -3.7685 2.9916
4.7037 -3.6057 2.9442
4.7124 -3.4477 2.8995
4.7303 -3.3007 2.8632
4.8039 -3.1946 2.8627
4.8825 -3.0916 2.8665
4.9513 -2.9820 2.8658
5.0216 -2.8732 2.8674
5.0896 -2.7628 2.8690
5.1552 -2.6508 2.8707
5.2184 -2.5373 2.8723
5.2791 -2.4224 2.8740
5.3374 -2.3060 2.8757
5.3932 -2.1883 2.8774
5.4464 -2.0692 2.8792
5.4971 -1.9490 2.8810
5.5452 -1.8275 2.8827
5.5906 -1.7048 2.8845
5.6334 -1.5811 2.8863
5.6734 -1.4563 2.8882
5.7108 -1.3306 2.8900
5.7454 -1.2039 2.8919
5.7772 -1.0764 2.8937
5.8062 -0.9480 2.8956
5.8325 -0.8190 2.8975
5.8558 -0.6892 2.8994
5.8764 -0.5588 2.9013
5.8939 -0.4279 2.9032
5.9081 -0.2964 2.9048
5.9192 -0.1645 2.9065
5.9275 -0.0323 2.9081
5.9328 0.1002 2.9097
5.9352 0.2329 2.9113
5.9346 0.3657 2.9130
5.9311 0.4986 2.9146
5.9245 0.6316 2.9163
5.9150 0.7645 2.9179
5.9025 0.8972 2.9195
5.8870 1.0298 2.9212
5.8685 1.1621 2.9228
5.8470 1.2941 2.9244
5.8226 1.4256 2.9260
5.7951 1.5568 2.9276
5.7647 1.6873 2.9292
5.7313 1.8173 2.9308
5.6950 1.9466 2.9324
5.6557 2.0752 2.9340
5.6134 2.2030 2.9356
5.5683 2.3298 2.9372
5.5202 2.4557 2.9387
5.4693 2.5807 2.9402
5.4155 2.7045 2.9418
5.3588 2.8272 2.9433
5.2993 2.9486 2.9448
5.2370 3.0688 2.9463
5.1720 3.1876 2.9477
5.1042 3.3050 2.9492
5.0328 3.4203 2.9501
4.9587 3.5340 2.9509
4.8819 3.6461 2.9518
4.8027 3.7564 2.9526
4.7280 3.8709 2.9579
4.7112 4.0357 3.0019
4.7018 4.2128 3.0539
4.6918 4.3962 3.1091
4.5967 4.5034 3.1107
4.4979 4.6073 3.1115
4.3966 4.7090 3.1123
4.2931 4.8084 3.1130
4.1873 4.9055 3.1138
4.0792 5.0002 3.1145
3.9689 5.0924 3.1152
3.8565 5.1821 3.1159
3.7420 5.2693 3.1165
3.6255 5.3538 3.1172
3.5070 5.4357 3.1178
3.3867 5.5149 3.1184
0.8165 1.3984 0.7801
0.7850 1.4161 0.7798
0.7532 1.4330 0.7795
0.7211 1.4493 0.7793
0.6886 1.4648 0.7790
0.6557 1.4796 0.7788
0.6226 1.4937 0.7786
0.5891 1.5070 0.7784
0.5554 1.5196 0.7782
0.5214 1.5315 0.7780
0.4872 1.5426 0.7778
0.4527 1.5529 0.7777
0.4180 1.5625 0.7775
0.3831 1.5713 0.7774
0.3481 1.5794 0.7772
0.3128 1.5866 0.7771
0.2774 1.5931 0.7770
0.2419 1.5988 0.7769
0.2063 1.6038 0.7769
0.1705 1.6079 0.7768
0.1347 1.6113 0.7767
0.0989 1.6139 0.7767
0.0629 1.6156 0.7767
0.0270 1.6166 0.7767
-0.0090 1.6168 0.7767
-0.0450 1.6162 0.7767
-0.0809 1.6149 0.7767
-0.1168 1.6127 0.7767
-0.1527 1.6097 0.7768
-0.1884 1.6060 0.7768
-0.2241 1.6015 0.7769
-0.2597 1.5961 0.7770
-0.2952 1.5900 0.7771
-0.3305 1.5832 0.7772
-0.3656 1.5755 0.7773
-0.4006 1.5671 0.7775
-0.4354 1.5579 0.7776
-0.4700 1.5479 0.7778
-0.5044 1.5372 0.7779
-0.5385 1.5257 0.7781
-0.5724 1.5135 0.7783
-0.6059 1.5005 0.7785
-0.6393 1.4868 0.7787
-0.6723 1.4724 0.7790
-0.7049 1.4572 0.7792
-0.7373 1.4413 0.7795
-0.7693 1.4247 0.7797
-0.8009 1.4074 0.7800
-3.3258 5.5534 3.1187
-3.4471 5.4756 3.1181
-3.5665 5.3951 3.1175
-3.6840 5.3119 3.1169
-3.7995 5.2260 3.1162
-3.9129 5.1376 3.1155
-4.0243 5.0466 3.1149
-4.1335 4.9532 3.1141
-4.2405 4.8573 3.1134
-4.3452 4.7590 3.1127
-4.4475 4.6584 3.1119
-4.5476 4.5556 3.1111
-4.6451 4.4505 3.1103
-4.7402 4.3433 3.1095
-4.8328 4.2341 3.1087
-4.9228 4.1228 3.1078
-5.0103 4.0095 3.1069
-5.0950 3.8943 3.1061
-5.1771 3.7774 3.1052
-5.2564 3.6586 3.1043
-5.3330 3.5381 3.1034
-5.4068 3.4161 3.1024
-5.4776 3.2923 3.1014
-5.5446 3.1666 3.0999
-5.6087 3.0394 3.0983
-5.6698 2.9109 3.0967
-5.7279 2.7812 3.0951
-5.7831 2.6503 3.0935
-5.8351 2.5183 3.0919
-5.8842 2.3852 3.0902
-5.9302 2.2512 3.0886
-5.9731 2.1164 3.0869
-6.0129 1.9807 3.0853
-6.0496 1.8442 3.0836
-6.0831 1.7071 3.0819
-6.1136 1.5694 3.0802
-6.1409 1.4311 3.0785
-6.1651 1.2925 3.0768
-6.1861 1.1534 3.0751
-6.2040 1.0140 3.0734
-6.2187 0.8744 3.0716
-6.2303 0.7346 3.0699
-6.2388 0.5947 3.0682
-6.2441 0.4548 3.0665
-6.2463 0.3150 3.0648
-6.2454 0.1752 3.0630
-6.2413 0.0357 3.0613
-6.2341 -0.1036 3.0596
-6.2239 -0.2426 3.0579
-6.2106 -0.3812 3.0562
-6.1938 -0.5193 3.0543
-6.1737 -0.6568 3.0523
-6.1506 -0.7937 3.0503
-6.1245 -0.9299 3.0483
-6.0955 -1.0654 3.0463
-6.0634 -1.2000 3.0443
-6.0285 -1.3338 3.0424
-5.9906 -1.4666 3.0404
-5.9498 -1.5984 3.0385
-5.9063 -1.7292 3.0366
-5.8598 -1.8588 3.0347
-5.8106 -1.9873 3.0328
-5.7587 -2.1145 3.0309
-5.7040 -2.2404 3.0291
-5.6467 -2.3650 3.0273
-5.5866 -2.4882 3.0255
-5.5240 -2.6099 3.0237
-5.4587 -2.7301 3.0219
-5.3910 -2.8488 3.0202
-5.3207 -2.9658 3.0185
-5.2479 -3.0811 3.0168
-5.1727 -3.1948 3.0151
-5.0952 -3.3067 3.0135
-5.0153 -3.4168 3.0118
-4.9330 -3.5250 3.0103
-4.8486 -3.6313 3.0087
-4.7619 -3.7357 3.0072
-4.6730 -3.8381 3.0057
-4.5821 -3.9385 3.0042
-4.4890 -4.0367 3.0028
-4.3939 -4.1329 3.0014
-4.2969 -4.2269 3.0000
-4.1979 -4.3188 2.9986
-4.0970 -4.4084 2.9973
-3.9942 -4.4958 2.9960
-3.8897 -4.5808 2.9948
-3.7835 -4.6636 2.9936
-3.6755 -4.7439 2.9924
-3.5660 -4.8219 2.9913
-3.4548 -4.8975 2.9901
-3.3421 -4.9706 2.9891
-3.2279 -5.0412 2.9880
-3.1123 -5.1093 2.9870
-0.8275 -1.4296 0.8249
-0.7954 -1.4480 0.8252
-0.7628 -1.4656 0.8255
-0.7298 -1.4825 0.8258
-0.6965 -1.4987 0.8260
-0.6628 -1.5141 0.8263
-0.6287 -1.5287 0.8265
-0.5944 -1.5426 0.8267
-0.5597 -1.5556 0.8269
-0.5247 -1.5679 0.8271
-0.4895 -1.5794 0.8273
-0.4539 -1.5901 0.8275
-0.4182 -1.6000 0.8276
-0.3823 -1.6091 0.8278
-0.3461 -1.6173 0.8279
-0.3097 -1.6248 0.8280
-0.2733 -1.6314 0.8281
-0.2366 -1.6371 0.8282
-0.1998 -1.6421 0.8283
-0.1630 -1.6462 0.8283
-0.1260 -1.6495 0.8284
-0.0890 -1.6519 0.8284
-0.0519 -1.6535 0.8284
-0.0148 -1.6543 0.8285
0.0223 -1.6542 0.8285
0.0594 -1.6532 0.8284
0.0964 -1.6515 0.8284
0.1334 -1.6489 0.8284
0.1704 -1.6454 0.8283
0.2072 -1.6411 0.8282
0.2439 -1.6360 0.8282
0.2806 -1.6301 0.8281
0.3170 -1.6233 0.8280
0.3533 -1.6157 0.8278
0.3894 -1.6072 0.8277
0.4254 -1.5980 0.8275
0.4611 -1.5880 0.8274
0.4965 -1.5771 0.8272
0.5317 -1.5654 0.8270
0.5666 -1.5530 0.8268
0.6012 -1.5398 0.8266
0.6355 -1.5257 0.8264
0.6695 -1.5109 0.8262
0.7031 -1.4954 0.8259
0.7364 -1.4791 0.8257
0.7693 -1.4620 0.8254
0.8018 -1.4443 0.8251
3.0189 -5.1620 2.9863
3.1356 -5.0959 2.9872
3.2509 -5.0273 2.9882
3.3648 -4.9562 2.9893
3.4772 -4.8826 2.9904
3.5880 -4.8065 2.9915
3.6973 -4.7280 2.9926
3.8049 -4.6472 2.9938
3.9108 -4.5640 2.9950
4.0149 -4.4785 2.9963
4.1173 -4.3907 2.9976
4.2178 -4.3006 2.9989
4.3165 -4.2083 3.0002
4.4131 -4.1138 3.0016
4.5078 -4.0172 3.0030
4.6005 -3.9185 3.0045
4.6910 -3.8178 3.0060
4.7010 -3.6540 2.9581
4.7099 -3.4946 2.9127
4.7213 -3.3418 2.8716
4.7810 -3.2259 2.8622
4.8565 -3.1210 2.8638
4.9298 -3.0143 2.8653
5.0008 -2.9060 2.8669
5.0694 -2.7961 2.8685
5.1357 -2.6845 2.8702
5.1997 -2.5715 2.8718
5.2611 -2.4570 2.8735
5.3202 -2.3410 2.8752
5.3767 -2.2237 2.8769
5.4307 -2.1051 2.8787
5.4822 -1.9852 2.8804
5.5310 -1.8640 2.8822
5.5772 -1.7417 2.8840
5.6208 -1.6183 2.8858
5.6617 -1.4939 2.8876
5.6999 -1.3684 2.8895
5.7353 -1.2420 2.8913
5.7680 -1.1147 2.8932
5.7978 -0.9866 2.8951
5.8249 -0.8578 2.8969
5.8491 -0.7282 2.8988
5.8705 -0.5980 2.9008
5.8890 -0.4672 2.9027
5.9041 -0.3359 2.9043
5.9162 -0.2041 2.9060
5.9253 -0.0720 2.9076
5.9316 0.0604 2.9092
5.9348 0.1931 2.9109
5.9351 0.3259 2.9125
5.9325 0.4588 2.9141
5.9268 0.5917 2.9158
5.9182 0.7246 2.9174
5.9065 0.8574 2.9190
5.8919 0.9901 2.9207
5.8744 1.1224 2.9223
5.8538 1.2545 2.9239
5.8302 1.3862 2.9255
5.8036 1.5175 2.9272
5.7741 1.6482 2.9288
5.7416 1.7784 2.9304
5.7062 1.9079 2.9320
5.6678 2.0367 2.9336
5.6264 2.1647 2.9351
5.5821 2.2919 2.9367
5.5350 2.4181 2.9382
5.4849 2.5433 2.9398
5.4319 2.6675 2.9413
5.3761 2.7905 2.9428
5.3175 2.9124 2.9443
5.2560 3.0329 2.9458
5.1918 3.1522 2.9473
5.1248 3.2700 2.9487
5.0545 3.3859 2.9498
4.9812 3.5001 2.9507
4.9052 3.6126 2.9515
4.8267 3.7235 2.9524
4.7456 3.8326 2.9532
4.7139 3.9837 2.9869
4.7047 4.1590 3.0379
4.6949 4.3405 3.0922
4.6258 4.4717 3.1105
4.5277 4.5764 3.1113
4.4273 4.6787 3.1120
4.3244 4.7789 3.1128
4.2192 4.8767 3.1136
4.1118 4.9721 3.1143
4.0022 5.0650 3.1150
3.8904 5.1555 3.1157
3.7765 5.2434 3.1164
3.6606 5.3288 3.1170
3.5428 5.4114 3.1176
3.4230 5.4914 3.1182
0.8258 1.3930 0.7802
0.7945 1.4108 0.7799
0.7628 1.4280 0.7796
0.7308 1.4445 0.7794
0.6984 1.4602 0.7791
0.6656 1.4752 0.7789
0.6326 1.4895 0.7786
0.5992 1.5031 0.7784
0.5656 1.5159 0.7782
0.5317 1.5280 0.7780
0.4975 1.5393 0.7779
0.4631 1.5499 0.7777
0.4285 1.5597 0.7775
0.3936 1.5688 0.7774
0.3586 1.5770 0.7773
0.3234 1.5845 0.7772
0.2881 1.5913 0.7771
0.2526 1.5972 0.7770
0.2170 1.6024 0.7769
0.1813 1.6068 0.7768
0.1455 1.6104 0.7768
0.1096 1.6132 0.7767
0.0737 1.6152 0.7767
0.0378 1.6164 0.7767
0.0018 1.6169 0.7767
-0.0342 1.6165 0.7767
-0.0701 1.6154 0.7767
-0.1060 1.6134 0.7767
-0.1419 1.6107 0.7768
-0.1777 1.6072 0.7768
-0.2134 1.6029 0.7769
-0.2490 1.5978 0.7770
-0.2845 1.5919 0.7771
-0.3199 1.5853 0.7772
-0.3551 1.5779 0.7773
-0.3902 1.5697 0.7774
-0.4250 1.5607 0.7776
-0.4597 1.5510 0.7777
-0.4941 1.5405 0.7779
-0.5283 1.5292 0.7781
-0.5622 1.5172 0.7783
-0.5959 1.5045 0.7785
-0.6293 1.4910 0.7787
-0.6624 1.4768 0.7789
-0.6952 1.4618 0.7791
-0.7276 1.4462 0.7794
-0.7597 1.4298 0.7797
-0.7914 1.4127 0.7799
-0.8228 1.3949 0.7802
-3.4109 5.4992 3.1183
-3.5309 5.4195 3.1177
-3.6490 5.3371 3.1171
-3.7651 5.2521 3.1164
-3.8791 5.1644 3.1157
-3.9911 5.0742 3.1151
-4.1010 4.9815 3.1144
-4.2086 4.8863 3.1136
-4.3140 4.7887 3.1129
-4.4171 4.6889 3.1121
-4.5178 4.5867 3.1113
-4.6161 4.4823 3.1105
-4.7120 4.3757 3.1097
-4.8053 4.2671 3.1089
-4.8961 4.1564 3.1081
-4.9843 4.0437 3.1072
-5.0699 3.9291 3.1063
-5.1527 3.8127 3.1054
-5.2329 3.6944 3.1045
-5.3103 3.5745 3.1036
-5.3849 3.4529 3.1027
-5.4567 3.3297 3.1018
-5.5248 3.2044 3.1003
-5.5898 3.0777 3.0988
-5.6518 2.9496 3.0972
-5.7108 2.8202 3.0956
-5.7668 2.6897 3.0940
-5.8198 2.5580 3.0924
-5.8698 2.4252 3.0907
-5.9167 2.2915 3.0891
-5.9605 2.1569 3.0874
-6.0013 2.0215 3.0858
-6.0389 1.8852 3.0841
-6.0734 1.7483 3.0824
-6.1048 1.6108 3.0807
-6.1330 1.4727 3.0790
-6.1582 1.3341 3.0773
-6.1801 1.1951 3.0756
-6.1990 1.0558 3.0739
-6.2147 0.9163 3.0722
-6.2272 0.7765 3.0704
-6.2366 0.6367 3.0687
-6.2428 0.4968 3.0670
-6.2460 0.3569 3.0653
-6.2460 0.2171 3.0636
-6.2428 0.0775 3.0618
-6.2366 -0.0619 3.0601
-6.2273 -0.2010 3.0584
-6.2149 -0.3396 3.0567
-6.1992 -0.4779 3.0549
-6.1801 -0.6156 3.0529
-6.1579 -0.7527 3.0509
-6.1327 -0.8891 3.0489
-6.1045 -1.0248 3.0469
-6.0733 -1.1597 3.0449
-6.0392 -1.2937 3.0430
-6.0023 -1.4268 3.0410
-5.9624 -1.5590 3.0391
-5.9196 -1.6901 3.0371
-5.8741 -1.8201 3.0352
-5.8257 -1.9489 3.0334
-5.7746 -2.0765 3.0315
-5.7207 -2.2028 3.0296
-5.6641 -2.3278 3.0278
-5.6049 -2.4514 3.0260
-5.5431 -2.5736 3.0242
-5.4786 -2.6943 3.0224
-5.4116 -2.8133 3.0207
-5.3420 -2.9309 3.0190
-5.2700 -3.0467 3.0173
-5.1956 -3.1608 3.0156
-5.1187 -3.2733 3.0139
-5.0395 -3.3840 3.0123
-4.9580 -3.4927 3.0107
-4.8742 -3.5996 3.0092
-4.7881 -3.7046 3.0076
-4.6999 -3.8076 3.0061
-4.6096 -3.9086 3.0046
-4.5171 -4.0075 3.0032
-4.4227 -4.1043 3.0018
-4.3262 -4.1990 3.0004
-4.2277 -4.2915 2.9990
-4.1274 -4.3818 2.9977
-4.0252 -4.4698 2.9964
-3.9213 -4.5555 2.9952
-3.8155 -4.6390 2.9939
-3.7081 -4.7201 2.9927
-3.5990 -4.7988 2.9916
-3.4883 -4.8751 2.9905
-3.3761 -4.9489 2.9894
-3.2623 -5.0203 2.9883
-3.1472 -5.0892 2.9873
-0.8371 -1.4240 0.8248
-0.8050 -1.4426 0.8251
-0.7726 -1.4604 0.8254
-0.7398 -1.4775 0.8257
-0.7065 -1.4939 0.8259
-0.6729 -1.5095 0.8262
-0.6390 -1.5244 0.8264
-0.6047 -1.5385 0.8266
-0.5701 -1.5518 0.8269
-0.5352 -1.5643 0.8271
-0.5000 -1.5761 0.8272
-0.4646 -1.5870 0.8274
-0.4290 -1.5971 0.8276
-0.3931 -1.6064 0.8277
-0.3570 -1.6149 0.8278
-0.3207 -1.6226 0.8280
-0.2842 -1.6295 0.8281
-0.2476 -1.6355 0.8282
-0.2109 -1.6407 0.8282
-0.1740 -1.6451 0.8283
-0.1371 -1.6486 0.8284
-0.1001 -1.6513 0.8284
-0.0631 -1.6531 0.8284
-0.0260 -1.6541 0.8285
0.0111 -1.6543 0.8285
0.0482 -1.6536 0.8284
0.0853 -1.6521 0.8284
0.1223 -1.6497 0.8284
0.1593 -1.6465 0.8283
0.1962 -1.6425 0.8283
0.2329 -1.6376 0.8282
0.2696 -1.6319 0.8281
0.3061 -1.6254 0.8280
0.3425 -1.6180 0.8279
0.3786 -1.6099 0.8277
0.4146 -1.6009 0.8276
0.4504 -1.5911 0.8274
0.4859 -1.5804 0.8273
0.5212 -1.5690 0.8271
0.5562 -1.5568 0.8269
0.5909 -1.5438 0.8267
0.6253 -1.5300 0.8265
0.6594 -1.5155 0.8262
0.6931 -1.5001 0.8260
0.7265 -1.4841 0.8257
0.7595 -1.4672 0.8255
0.7921 -1.4497 0.8252
0.8242 -1.4314 0.8249
3.1008 -5.1160 2.9869
3.2165 -5.0481 2.9879
3.3308 -4.9777 2.9890
3.4436 -4.9049 2.9900
3.5549 -4.8296 2.9911
3.6647 -4.7518 2.9923
3.7727 -4.6717 2.9935
3.8792 -4.5892 2.9947
3.9839 -4.5044 2.9959
4.0868 -4.4172 2.9972
4.1879 -4.3278 2.9985
4.2871 -4.2362 2.9998
4.3843 -4.1424 3.0012
4.4796 -4.0465 3.0026
4.5729 -3.9484 3.0041
4.6641 -3.8482 3.0055
4.6983 -3.7028 2.9723
4.7073 -3.5419 2.9260
4.7158 -3.3857 2.8824
