ply
format ascii 1.0
element vertex 2069
property float32 x
property float32 y
property float32 z
end_header
15.0133 -8.2085 1.3226
15.6094 -8.0868 1.3560
23.4178 -11.4760 2.0072
24.7969 -11.4722 2.0984
22.6235 -9.8592 1.8912
22.5557 -9.2357 1.8636
22.6029 -8.6707 1.8469
22.5790 -8.0877 1.8256
22.5630 -7.5177 1.8061
22.5450 -6.9561 1.7876
22.5514 -6.4100 1.7721
22.5491 -5.8683 1.7571
22.5802 -5.3409 1.7456
27.4448 -5.8474 2.1060
27.4489 -5.2102 2.0918
27.4359 -4.5753 2.0774
27.4060 -3.9433 2.0629
27.3592 -3.3147 2.0482
27.2958 -2.6900 2.0334
27.2160 -2.0695 2.0185
8.8707 -0.4756 0.6553
8.8701 -0.2770 0.6530
8.8696 -0.0788 0.6510
8.8691 0.1193 0.6494
8.8685 0.3175 0.6481
8.8680 0.5160 0.6471
8.8674 0.7149 0.6464
8.9427 0.9224 0.6516
8.9421 1.1247 0.6515
8.9416 1.3281 0.6518
8.9410 1.5328 0.6525
8.9405 1.7391 0.6534
8.9399 1.9471 0.6548
8.8717 2.1409 0.6515
8.8630 2.3494 0.6529
8.8624 2.5624 0.6552
8.8618 2.7781 0.6580
8.8612 2.9968 0.6611
8.8606 3.2188 0.6646
8.8600 3.4444 0.6685
8.8593 3.6739 0.6728
8.8587 3.9077 0.6776
8.8581 4.1460 0.6828
8.8574 4.3894 0.6885
8.8567 4.6382 0.6947
8.8576 4.8937 0.7015
8.8553 5.1539 0.7086
8.8546 5.4217 0.7164
8.8538 5.6968 0.7248
8.8531 5.9800 0.7339
8.8536 6.2726 0.7437
8.8648 6.5827 0.7551
8.8641 6.8945 0.7663
8.8635 7.2173 0.7784
8.8488 7.5401 0.7900
8.8478 7.8869 0.8038
8.8469 8.2478 0.8186
8.8458 8.6239 0.8345
8.7434 8.9134 0.8417
8.2433 8.7876 0.8107
7.8812 8.7866 0.7927
7.5332 8.7857 0.7759
7.1985 8.7848 0.7601
6.8758 8.7839 0.7452
6.6648 8.9175 0.7425
6.6636 9.3439 0.7642
6.6623 9.7977 0.7877
6.6645 10.2875 0.8136
6.7351 10.9234 0.8506
6.7336 11.4873 0.8813
6.6565 11.9599 0.9046
6.6547 12.6113 0.9412
6.6527 13.3197 0.9815
6.6506 14.0941 1.0261
6.6483 14.9448 1.0757
6.6659 15.9330 1.1345
6.6070 16.8382 1.1869
6.6397 18.0998 1.2638
10.3512 30.2924 2.0966
9.7298 30.6968 2.1071
9.0946 31.0852 2.1176
8.4487 31.4677 2.1286
7.7915 31.8415 2.1401
7.1276 32.2281 2.1535
6.4618 32.6595 2.1709
5.8056 33.2211 2.1979
5.1680 34.0372 2.2427
4.5052 34.9057 2.2918
3.7291 35.0367 2.2936
2.9493 35.1490 2.2954
2.1662 35.2422 2.2973
1.3803 35.3163 2.2992
0.5922 35.3710 2.3012
-0.1976 35.3945 2.3024
-0.9876 35.3798 2.3024
-1.7769 35.3460 2.3025
-2.5651 35.2930 2.3026
-3.3518 35.2210 2.3027
-4.1363 35.1300 2.3029
-4.9180 35.0200 2.3032
-5.6968 34.8913 2.3035
-6.4721 34.7437 2.3038
-7.2433 34.5775 2.3042
-8.0100 34.3928 2.3047
-8.7717 34.1898 2.3052
-9.5279 33.9685 2.3057
-10.2782 33.7291 2.3063
-11.0222 33.4720 2.3069
-11.7586 33.1950 2.3075
-12.4822 32.8861 2.3070
-13.1978 32.5613 2.3067
-13.9047 32.2198 2.3064
-14.6023 31.8618 2.3062
-15.2904 31.4876 2.3060
-15.9684 31.0976 2.3059
-16.6362 30.6919 2.3058
-17.2932 30.2709 2.3057
-17.9393 29.8350 2.3057
-18.5737 29.3845 2.3057
-19.1438 28.8398 2.2995
-19.6999 28.2866 2.2934
-20.2469 27.7308 2.2881
-20.8017 27.1945 2.2854
-20.0514 25.0350 2.1447
-20.5841 24.5558 2.1462
-21.1036 24.0633 2.1477
-21.6212 23.5705 2.1502
-22.2041 23.1467 2.1603
-22.7777 22.7074 2.1704
-23.3103 22.2232 2.1776
-23.8331 21.7269 2.1849
-24.3229 21.1985 2.1903
-24.7940 20.6535 2.1952
-25.2533 20.0983 2.2002
-25.7005 19.5331 2.2053
-26.1355 18.9583 2.2105
-26.5580 18.3740 2.2159
-26.9678 17.7806 2.2213
-27.3926 17.1959 2.2292
-27.8087 16.6033 2.2374
-28.2129 16.0011 2.2458
-28.6048 15.3896 2.2543
-28.9843 14.7690 2.2630
-29.3537 14.1408 2.2720
-29.7342 13.5146 2.2830
-30.1026 12.8790 2.2942
-30.4586 12.2341 2.3055
-30.8020 11.5802 2.3170
-31.1325 10.9174 2.3287
-20.1614 6.5684 1.5004
-31.8148 9.5846 2.3570
-32.1368 8.9039 2.3715
-27.2749 6.9049 2.0059
-27.2731 6.2598 2.0000
-27.2714 5.6215 1.9952
-27.2697 4.9890 1.9914
-27.2680 4.3618 1.9887
-27.2663 3.7392 1.9871
-27.2646 3.1204 1.9864
-27.2629 2.5048 1.9867
-27.2672 1.8922 1.9885
-27.2656 1.2810 1.9908
-27.2639 0.6712 1.9942
-27.2622 0.0621 1.9985
-27.2606 -0.5468 2.0038
-27.2589 -1.1563 2.0101
-27.2572 -1.7668 2.0175
-27.6446 -2.4130 2.0547
-35.6011 -3.9105 2.6585
-35.5275 -4.7077 2.6668
-35.3533 -5.4907 2.6688
-35.1649 -6.2689 2.6710
-34.9625 -7.0420 2.6734
-34.7463 -7.8099 2.6760
-34.5161 -8.5724 2.6787
-34.2723 -9.3293 2.6817
-34.0150 -10.0804 2.6848
-33.7441 -10.8258 2.6881
-33.4599 -11.5651 2.6916
-33.1884 -12.3079 2.6974
-33.0071 -13.0866 2.7119
-32.8098 -13.8644 2.7265
-32.5965 -14.6408 2.7414
-32.3559 -15.4104 2.7554
-32.0732 -16.1645 2.7674
-31.7752 -16.9149 2.7795
-31.4618 -17.6612 2.7918
-31.1330 -18.4032 2.8042
-30.5315 -18.9807 2.7932
-20.1505 -13.1602 1.8737
-27.2911 -18.7066 2.5810
-27.2027 -19.5535 2.6184
-27.2002 -20.4886 2.6666
-27.1976 -21.4557 2.7178
-27.1948 -22.4572 2.7720
-27.1920 -23.4962 2.8296
-27.1702 -24.5587 2.8888
-26.6506 -25.1935 2.8977
-26.1185 -25.8197 2.9068
-25.5739 -26.4372 2.9160
-25.0041 -27.0315 2.9238
-24.4218 -27.6150 2.9318
-23.8285 -28.1892 2.9399
-23.2241 -28.7535 2.9483
-22.6089 -29.3082 2.9568
-21.9827 -29.8528 2.9656
-21.3459 -30.3873 2.9746
-20.6763 -30.8788 2.9806
-19.9480 -31.2813 2.9794
-19.2133 -31.6685 2.9783
-18.7125 -32.4571 3.0159
-18.5493 -33.9033 3.1145
-17.7531 -34.2438 3.1119
-16.9524 -34.5687 3.1094
-16.1474 -34.8779 3.1070
-15.3386 -35.1716 3.1048
-14.5259 -35.4498 3.1027
-13.7075 -35.7066 3.1002
-12.8838 -35.9419 3.0973
-12.0578 -36.1621 3.0946
-11.2296 -36.3675 3.0920
-10.3994 -36.5579 3.0897
-9.5674 -36.7334 3.0875
-8.7337 -36.8942 3.0856
-7.8984 -37.0401 3.0838
-7.0618 -37.1712 3.0821
-6.2239 -37.2875 3.0807
-5.3850 -37.3891 3.0795
-4.5451 -37.4758 3.0784
-3.7044 -37.5479 3.0775
-2.8631 -37.6053 3.0768
-2.0213 -37.6479 3.0763
-1.1792 -37.6758 3.0759
-0.3368 -37.6890 3.0758
0.5054 -37.6876 3.0758
1.3477 -37.6715 3.0760
2.1898 -37.6405 3.0764
3.0315 -37.5950 3.0769
3.8727 -37.5347 3.0777
4.6944 -37.3099 3.0663
5.3138 -35.7609 2.9471
6.1164 -35.6609 2.9483
6.8764 -35.3328 2.9320
7.6711 -35.2017 2.9333
5.5786 -23.1048 1.9342
9.2338 -34.8137 2.9293
9.9762 -34.4834 2.9177
10.7193 -34.1721 2.9090
9.9470 -29.3929 2.5187
10.0773 -27.7218 2.3924
9.5667 -24.5913 2.1384
9.8177 -23.6575 2.0740
10.3336 -23.4088 2.0701
10.7174 -22.8800 2.0421
11.0917 -22.3642 2.0157
11.2966 -21.5535 1.9628
11.7299 -21.2133 1.9531
12.3558 -21.2116 1.9756
12.9981 -21.2099 1.9997
13.6581 -21.2081 2.0253
14.3373 -21.2062 2.0526
15.0486 -21.2203 2.0832
14.8218 -19.9408 1.9870
14.8411 -19.0619 1.9292
14.8170 -18.1779 1.8701
14.8148 -17.3678 1.8177
15.2245 -17.0608 1.8179
15.8242 -16.9545 1.8409
15.2406 -15.6147 1.7292
15.8202 -15.5000 1.7523
14.5284 -13.6116 1.5725
14.7377 -13.2019 1.5601
15.4897 -13.2638 1.6051
15.8299 -12.9535 1.6071
14.7783 -11.5515 1.4710
15.5449 -11.6007 1.5183
16.1448 -11.4958 1.5484
14.8277 -10.0665 1.3975
14.8465 -9.6018 1.3760
14.8478 -9.1387 1.3541
5.4570 -3.1929 0.4900
5.5661 -3.0919 0.4925
15.3875 -8.1031 1.3423
23.0280 -11.4770 1.9816
24.3697 -11.4734 2.0700
25.8440 -11.4694 2.1682
22.5561 -9.4129 1.8701
22.5439 -8.8218 1.8481
22.5896 -8.2627 1.8321
22.5691 -7.6880 1.8119
22.5488 -7.1231 1.7929
22.5413 -6.5707 1.7760
22.5496 -6.0301 1.7615
22.5708 -5.4986 1.7489
24.1445 -5.3137 1.8567
27.4493 -5.4011 2.0960
27.4417 -4.7656 2.0817
27.4171 -4.1327 2.0673
27.3756 -3.5031 2.0527
27.3172 -2.8771 2.0379
27.2423 -2.2553 2.0230
8.8708 -0.5352 0.6561
8.8703 -0.3366 0.6537
8.8698 -0.1383 0.6516
8.8692 0.0599 0.6499
8.8687 0.2580 0.6484
8.8681 0.4564 0.6473
8.8676 0.6552 0.6466
8.8720 0.8551 0.6465
8.9423 1.0640 0.6515
8.9418 1.2670 0.6517
8.9412 1.4713 0.6522
8.9406 1.6770 0.6531
8.9401 1.8845 0.6543
8.9395 2.0939 0.6559
8.8631 2.2860 0.6522
8.8626 2.4982 0.6545
8.8620 2.7130 0.6571
8.8614 2.9308 0.6601
8.8608 3.1518 0.6635
8.8644 3.3779 0.6676
8.8595 3.6046 0.6715
8.8589 3.8371 0.6761
8.8583 4.0740 0.6812
8.8576 4.3159 0.6867
8.8569 4.5630 0.6928
8.8612 4.8186 0.6997
8.8555 5.0749 0.7064
8.8548 5.3406 0.7140
8.8541 5.6135 0.7222
8.8533 5.8942 0.7311
8.8525 6.1832 0.7406
8.8650 6.4912 0.7519
8.8643 6.7998 0.7629
8.8637 7.1192 0.7747
8.7994 7.3968 0.7817
8.8481 7.7814 0.7996
8.8472 8.1380 0.8141
8.8462 8.5093 0.8296
8.8617 8.9137 0.8478
8.3664 8.8000 0.8175
7.9882 8.7869 0.7980
7.6361 8.7860 0.7808
7.2975 8.7850 0.7647
6.9713 8.7842 0.7496
6.6651 8.7946 0.7363
6.6640 9.2133 0.7575
6.6627 9.6586 0.7804
6.6614 10.1334 0.8053
6.7356 10.7622 0.8419
6.7340 11.3137 0.8718
6.6570 11.7745 0.8943
6.6552 12.4101 0.9298
6.6533 13.1007 0.9690
6.6513 13.8542 1.0122
6.6490 14.6808 1.0602
6.5971 15.4764 1.1055
6.6647 16.6564 1.1776
6.6407 17.7342 1.2417
10.5353 30.1691 2.0934
5.4129 16.6884 1.1483
9.2866 30.9705 2.1145
8.6438 31.3543 2.1253
7.9897 31.7299 2.1366
7.3262 32.1056 2.1489
6.6617 32.5249 2.1652
6.0000 33.0282 2.1881
5.3575 33.7609 2.2271
4.7130 34.6846 2.2795
3.9623 34.9995 2.2930
3.1837 35.1173 2.2949
2.4015 35.2162 2.2967
1.6164 35.2961 2.2987
0.8289 35.3566 2.3006
0.0395 35.3953 2.3024
-0.7506 35.3862 2.3024
-1.5402 35.3581 2.3024
-2.3288 35.3109 2.3025
-3.1159 35.2446 2.3027
-3.9011 35.1592 2.3029
-4.6838 35.0550 2.3031
-5.4636 34.9318 2.3034
-6.2400 34.7899 2.3037
-7.0124 34.6293 2.3041
-7.7805 34.4501 2.3045
-8.5438 34.2526 2.3050
-9.3017 34.0368 2.3055
-10.0539 33.8028 2.3061
-10.7998 33.5509 2.3067
-11.5389 33.2814 2.3074
-12.2659 32.9803 2.3071
-12.9840 32.6605 2.3068
-13.6935 32.3240 2.3065
-14.3939 31.9710 2.3063
-15.0849 31.6016 2.3061
-15.7660 31.2163 2.3059
-16.4369 30.8153 2.3058
-17.0972 30.3989 2.3057
-17.7465 29.9673 2.3057
-18.3846 29.5212 2.3057
-18.9733 29.0029 2.3012
-19.5336 28.4523 2.2951
-20.0852 27.8997 2.2898
-20.6491 27.3729 2.2876
-21.1598 26.7845 2.2812
-20.4249 24.7000 2.1457
-20.9492 24.2124 2.1473
-21.4604 23.7120 2.1488
-22.0307 23.2761 2.1573
-22.6063 22.8405 2.1673
-23.1516 22.3698 2.1754
-23.6773 21.8770 2.1827
-24.1792 21.3601 2.1889
-24.6539 20.8182 2.1937
-25.1167 20.2660 2.1987
-25.5676 19.7037 2.2038
-26.0063 19.1318 2.2090
-26.4325 18.5503 2.2143
-26.8462 17.9596 2.2197
-27.2655 17.3717 2.2267
-27.6852 16.7820 2.2349
-28.0929 16.1827 2.2433
-28.4885 15.5740 2.2518
-28.8719 14.9561 2.2604
-29.2427 14.3293 2.2692
-29.6213 13.7034 2.2797
-29.9934 13.0706 2.2908
-30.3531 12.4284 2.3021
-30.7002 11.7773 2.3136
-31.0347 11.1172 2.3252
-20.0816 6.6915 1.4967
-31.7156 9.7870 2.3527
-32.0415 9.1091 2.3671
-27.3249 7.1127 2.0115
-27.2737 6.4527 2.0016
-27.2719 5.8124 1.9965
-27.2702 5.1782 1.9924
-27.2685 4.5495 1.9894
-27.2668 3.9255 1.9874
-27.2651 3.3056 1.9865
-27.2634 2.6891 1.9865
-27.2617 2.0754 1.9876
-27.2661 1.4641 1.9900
-27.2644 0.8540 1.9931
-27.2627 0.2447 1.9971
-27.2611 -0.3642 2.0021
-27.2594 -0.9734 2.0081
-27.2577 -1.5835 2.0151
-27.4066 -2.2073 2.0344
-35.5864 -3.6677 2.6535
-35.5770 -4.4718 2.6662
-35.4071 -5.2562 2.6682
-35.2229 -6.0359 2.6703
-35.0248 -6.8105 2.6727
-34.8126 -7.5800 2.6752
-34.5866 -8.3441 2.6779
-34.3469 -9.1028 2.6808
-34.0936 -9.8557 2.6839
-33.8268 -10.6029 2.6871
-33.5465 -11.3441 2.6906
-33.2530 -12.0791 2.6942
-33.0631 -12.8532 2.7075
-32.8706 -13.6312 2.7221
-32.6621 -14.4081 2.7369
-32.4375 -15.1835 2.7519
-32.1596 -15.9388 2.7638
-31.8662 -16.6901 2.7759
-31.5574 -17.4377 2.7881
-31.2332 -18.1810 2.8005
-30.8734 -18.9074 2.8111
-29.5203 -18.9985 2.7314
-27.4145 -18.5223 2.5793
-27.2035 -19.2787 2.6044
-27.2010 -20.2048 2.6518
-27.1984 -21.1620 2.7021
-27.1957 -22.1529 2.7554
-27.1929 -23.1803 2.8120
-27.1959 -24.2527 2.8727
-26.8077 -25.0040 2.8950
-26.2794 -25.6329 2.9040
-25.7385 -26.2529 2.9132
-25.1765 -26.8546 2.9215
-24.5976 -27.4410 2.9294
-24.0076 -28.0180 2.9375
-23.4065 -28.5853 2.9457
-22.7945 -29.1429 2.9542
-22.1718 -29.6904 2.9629
-21.5381 -30.2280 2.9719
-20.8937 -30.7554 2.9810
-20.1673 -31.1621 2.9798
-19.4344 -31.5540 2.9786
-18.7270 -31.9846 2.9825
-18.6952 -33.6323 3.1000
-17.9925 -34.1432 3.1126
-17.1931 -34.4728 3.1101
-16.3894 -34.7868 3.1077
-15.5816 -35.0852 3.1055
-14.7700 -35.3680 3.1033
-13.9540 -35.6332 3.1011
-13.1310 -35.8729 3.0981
-12.3057 -36.0977 3.0954
-11.4782 -36.3074 3.0928
-10.6486 -36.5024 3.0904
-9.8171 -36.6824 3.0882
-8.9838 -36.8475 3.0861
-8.1492 -36.9979 3.0843
-7.3130 -37.1334 3.0826
-6.4755 -37.2541 3.0811
-5.6368 -37.3601 3.0798
-4.7972 -37.4513 3.0787
-3.9568 -37.5279 3.0778
-3.1156 -37.5896 3.0770
-2.2740 -37.6367 3.0764
-1.4319 -37.6690 3.0760
-0.5896 -37.6866 3.0758
0.2528 -37.6895 3.0758
1.0951 -37.6778 3.0759
1.9373 -37.6513 3.0762
2.7791 -37.6102 3.0767
3.6205 -37.5543 3.0774
4.4612 -37.4837 3.0783
5.0729 -35.7882 2.9468
5.8759 -35.6925 2.9479
6.6777 -35.5821 2.9493
7.4328 -35.2425 2.9328
8.2266 -35.1017 2.9343
9.0094 -34.9107 2.9328
9.7543 -34.5837 2.9212
10.4904 -34.2449 2.9098
9.7294 -29.3979 2.5140
10.0919 -28.3526 2.4415
10.0455 -26.3435 2.2855
9.6976 -23.8180 2.0829
10.2165 -23.5701 2.0788
10.6032 -23.0372 2.0503
10.9803 -22.5176 2.0234
11.1809 -21.6850 1.9685
11.5644 -21.2492 1.9499
12.1664 -21.2121 1.9687
12.8037 -21.2104 1.9923
13.4583 -21.2086 2.0174
14.1316 -21.2068 2.0442
14.8251 -21.2049 2.0728
14.8226 -20.2235 2.0060
14.8201 -19.3005 1.9441
14.8177 -18.4297 1.8866
14.8155 -17.6064 1.8330
15.0207 -17.0614 1.8080
15.7095 -17.0595 1.8417
15.1823 -15.7650 1.7354
15.7092 -15.5991 1.7525
13.8960 -13.1952 1.5144
14.5953 -13.2518 1.5552
15.2389 -13.2272 1.5892
13.9102 -11.5391 1.4208
15.8280 -12.5437 1.5847
15.2747 -11.5592 1.5003
15.9188 -11.4964 1.5350
16.6892 -11.4943 1.5811
14.8455 -9.7428 1.3827
14.8481 -9.2767 1.3606
5.4408 -3.2325 0.4908
5.5162 -3.1127 0.4902
15.2091 -8.1399 1.3323
22.6485 -11.4781 1.9568
23.9540 -11.4745 2.0426
25.3864 -11.4706 2.1376
22.5688 -9.5963 1.8777
22.5550 -9.0010 1.8552
22.5978 -8.4379 1.8386
22.5740 -7.8590 1.8177
22.5550 -7.2917 1.7985
22.5393 -6.7344 1.7806
22.5330 -6.1877 1.7646
22.5486 -5.6535 1.7514
22.9813 -5.2193 1.7712
27.4480 -5.5921 2.1003
27.4454 -4.9558 2.0860
27.4258 -4.3221 2.0716
27.3892 -3.6914 2.0570
27.3359 -3.0643 2.0423
27.2659 -2.4412 2.0275
8.8710 -0.5949 0.6568
8.8705 -0.3961 0.6544
8.8699 -0.1977 0.6522
8.8694 0.0004 0.6503
8.8688 0.1985 0.6488
8.8683 0.3968 0.6476
8.8678 0.5955 0.6468
8.8681 0.7948 0.6463
8.9425 1.0032 0.6515
8.9419 1.2059 0.6516
8.9414 1.4098 0.6521
8.9408 1.6152 0.6528
8.9402 1.8221 0.6539
8.9397 2.0309 0.6554
8.8659 2.2235 0.6518
8.8627 2.4343 0.6538
8.8622 2.6483 0.6563
8.8616 2.8652 0.6592
8.8610 3.0852 0.6624
8.8614 3.3089 0.6662
8.8597 3.5357 0.6702
8.8591 3.7669 0.6747
8.8585 4.0024 0.6796
8.8578 4.2428 0.6850
8.8571 4.4883 0.6909
8.8564 4.7394 0.6973
8.8557 4.9965 0.7042
8.8550 5.2601 0.7117
8.8543 5.5308 0.7197
8.8535 5.8091 0.7284
8.8031 6.0614 0.7335
8.8652 6.4006 0.7488
8.8645 6.7062 0.7595
8.8639 7.0223 0.7711
8.8549 7.3428 0.7827
8.8484 7.6772 0.7954
8.8475 8.0295 0.8096
8.8465 8.3963 0.8248
8.8454 8.7789 0.8411
8.5882 8.9129 0.8338
8.0967 8.7872 0.8034
7.7403 8.7863 0.7859
7.3978 8.7853 0.7694
7.0680 8.7844 0.7540
6.7499 8.7835 0.7396
6.6643 9.0850 0.7510
6.6631 9.5220 0.7733
6.6618 9.9876 0.7976
6.7360 10.6042 0.8334
6.7345 11.1440 0.8625
6.6648 11.6062 0.8853
6.6558 12.2141 0.9188
6.6539 12.8874 0.9568
6.6519 13.6211 0.9988
6.6497 14.4246 1.0453
6.6473 15.3093 1.0971
6.6653 16.3397 1.1587
6.6416 17.3815 1.2205
10.7183 30.0449 2.0904
5.5134 16.6181 1.1463
9.4776 30.8547 2.1114
8.8376 31.2390 2.1219
8.1868 31.6169 2.1331
7.5256 31.9900 2.1449
6.8628 32.4010 2.1603
6.1995 32.8727 2.1808
5.5464 33.4997 2.2125
4.9098 34.4037 2.2635
4.1953 34.9604 2.2925
3.4176 35.0839 2.2943
2.6364 35.1885 2.2962
1.8521 35.2741 2.2981
1.0653 35.3405 2.3000
0.2764 35.3877 2.3020
-0.5137 35.3910 2.3024
-1.3035 35.3686 2.3024
-2.0924 35.3271 2.3025
-2.8799 35.2665 2.3026
-3.6657 35.1868 2.3028
-4.4492 35.0883 2.3030
-5.2300 34.9708 2.3033
-6.0074 34.8344 2.3036
-6.7811 34.6794 2.3040
-7.5505 34.5059 2.3044
-8.3153 34.3138 2.3049
-9.0749 34.1035 2.3054
-9.8288 33.8749 2.3059
-10.5767 33.6284 2.3065
-11.3179 33.3641 2.3072
-12.0489 33.0728 2.3072
-12.7695 32.7582 2.3069
-13.4817 32.4267 2.3066
-14.1849 32.0786 2.3063
-14.8788 31.7141 2.3061
-15.5629 31.3335 2.3060
-16.2368 30.9372 2.3058
-16.9004 30.5254 2.3058
-17.5529 30.0984 2.3057
-18.1943 29.6566 2.3057
-18.8062 29.1722 2.3035
-19.3665 28.6177 2.2968
-19.9204 28.0654 2.2913
-20.4791 27.5291 2.2880
-21.0066 26.9599 2.2829
-20.2646 24.8432 2.1452
-20.7939 24.3608 2.1469
-21.3080 23.8631 2.1483
-21.8508 23.3979 2.1538
-22.4343 22.9725 2.1643
-23.0053 22.5283 2.1745
-23.5204 22.0260 2.1805
-24.0346 21.5206 2.1874
-24.5128 20.9818 2.1922
-24.9792 20.4326 2.1972
-25.4337 19.8734 2.2022
-25.8760 19.3043 2.2074
-26.3059 18.7258 2.2127
-26.7234 18.1379 2.2181
-27.1373 17.5468 2.2243
-27.5605 16.9600 2.2325
-27.9718 16.3635 2.2408
-28.3711 15.7576 2.2492
-28.7581 15.1425 2.2578
-29.1327 14.5183 2.2665
-29.5073 13.8914 2.2764
-29.8830 13.2614 2.2875
-30.2465 12.6221 2.2987
-30.5975 11.9736 2.3101
-30.9358 11.3161 2.3217
-31.2730 10.6540 2.3343
-31.6154 9.9884 2.3484
-31.9452 9.3134 2.3628
-27.4551 7.3433 2.0231
-27.2742 6.6460 2.0034
-27.2724 6.0037 1.9979
-27.2707 5.3679 1.9935
-27.2690 4.7376 1.9902
-27.2673 4.1123 1.9879
-27.2656 3.4912 1.9867
-27.2639 2.8738 1.9864
-27.2622 2.2593 1.9871
-27.2666 1.6475 1.9893
-27.2649 1.0370 1.9921
-27.2632 0.4275 1.9958
-27.2616 -0.1815 2.0005
-27.2599 -0.7906 2.0062
-27.2582 -1.4004 2.0129
-27.3075 -2.0153 2.0244
-35.5701 -3.4254 2.6486
-35.6182 -4.2348 2.6652
-35.4595 -5.0215 2.6676
-35.2796 -5.8026 2.6697
-35.0856 -6.5787 2.6719
-34.8777 -7.3498 2.6744
-34.6559 -8.1156 2.6771
-34.4203 -8.8757 2.6799
-34.1710 -9.6304 2.6829
-33.9083 -10.3793 2.6861
-33.6320 -11.1223 2.6895
-33.3425 -11.8592 2.6931
-33.1178 -12.6195 2.7032
-32.9301 -13.3979 2.7177
-32.7263 -14.1751 2.7325
-32.5067 -14.9510 2.7474
-32.2446 -15.7125 2.7602
-31.9558 -16.4651 2.7722
-31.6516 -17.2139 2.7844
-31.3321 -17.9586 2.7967
-30.9861 -18.6921 2.8082
-29.9477 -18.9910 2.7575
-20.0433 -13.3473 1.8762
-27.2042 -19.0067 2.5908
-27.2017 -19.9239 2.6373
-27.1991 -20.8715 2.6867
-27.1965 -21.8518 2.7391
-27.1937 -22.8680 2.7946
-27.1908 -23.9229 2.8537
-26.9638 -24.8136 2.8924
-26.4392 -25.4451 2.9013
-25.9021 -26.0678 2.9104
-25.3481 -26.6768 2.9192
-24.7725 -27.2660 2.9270
-24.1858 -27.8458 2.9350
-23.5880 -28.4161 2.9432
-22.9793 -28.9766 2.9517
-22.3597 -29.5272 2.9603
-21.7293 -30.0678 2.9692
-21.0881 -30.5983 2.9782
-20.3858 -31.0417 2.9801
-19.6549 -31.4381 2.9790
-18.9176 -31.8193 2.9778
-18.7028 -33.1211 3.0633
-18.2314 -34.0413 3.1134
-17.4334 -34.3756 3.1109
-16.6310 -34.6942 3.1084
-15.8244 -34.9973 3.1061
-15.0140 -35.2848 3.1039
-14.1998 -35.5567 3.1019
-13.3782 -35.8026 3.0990
-12.5536 -36.0318 3.0962
-11.7267 -36.2461 3.0935
-10.8977 -36.4454 3.0911
-10.0668 -36.6299 3.0888
-9.2341 -36.7996 3.0867
-8.3997 -36.9543 3.0848
-7.5639 -37.0943 3.0831
-6.7267 -37.2195 3.0815
-5.8884 -37.3299 3.0802
-5.0491 -37.4255 3.0790
-4.2089 -37.5064 3.0780
-3.3679 -37.5727 3.0772
-2.5264 -37.6241 3.0766
-1.6845 -37.6609 3.0761
-0.8424 -37.6828 3.0758
-0.0000 -30.0552 3.1354
0.6718 -30.0484 3.1354
1.3434 -30.0283 3.1355
2.0146 -29.9947 3.1356
2.6850 -29.9477 3.1357
3.3546 -29.8872 3.1359
4.0230 -29.8133 3.1361
4.6899 -29.7260 3.1364
5.1021 -28.2248 2.9884
5.7343 -28.1162 2.9887
6.3635 -27.9906 2.9886
5.7706 -22.9926 2.4671
7.5711 -27.5433 2.9715
8.1500 -27.2506 2.9573
8.7142 -26.9290 2.9412
9.2578 -26.5665 2.9219
9.5873 -25.6522 2.8425
9.5777 -23.9781 2.6783
9.9759 -23.4398 2.6406
10.4895 -23.1939 2.6368
10.8695 -22.6704 2.6023
11.2404 -22.1593 2.5698
11.4515 -21.3775 2.5061
11.9810 -21.2126 2.5153
12.6134 -21.2109 2.5456
13.2628 -21.2091 2.5779
13.9305 -21.2073 2.6124
14.6180 -21.2054 2.6490
15.4239 -21.3377 2.7051
15.8126 -20.8764 2.6879
15.8324 -19.9596 2.6119
15.8299 -19.0653 2.5376
14.8242 -17.0633 2.3120
15.2912 -16.8261 2.3228
15.2849 -16.0819 2.2638
15.1909 -15.2840 2.1959
15.8195 -15.2205 2.2342
14.5746 -13.4087 2.0128
15.2766 -13.4368 2.0650
15.2435 -12.8150 2.0185
14.3607 -11.5350 1.8643
15.2382 -11.6895 1.9410
15.7052 -11.4995 1.9644
14.5837 -10.1858 1.7925
14.5810 -9.7064 1.7624
14.5916 -9.2498 1.7356
5.4643 -3.2951 0.6400
5.4786 -3.1390 0.6323
14.6084 -7.9418 1.6624
14.5952 -7.5171 1.6387
14.7274 -7.1734 1.6324
15.2232 -6.9986 1.6668
16.0673 -6.9561 1.7388
21.7777 -8.8560 2.3307
21.8919 -8.3375 2.3184
21.9920 -7.8177 2.3058
22.0779 -7.2969 2.2931
22.1497 -6.7757 2.2801
22.2068 -6.2542 2.2670
22.2497 -5.7331 2.2536
22.2786 -5.2127 2.2400
22.2936 -4.6936 2.2263
22.2947 -4.1760 2.2124
22.2820 -3.6605 2.1983
22.2555 -3.1474 2.1841
22.2155 -2.6371 2.1698
22.1739 -2.1311 2.1564
8.8712 -0.6530 0.8594
8.8706 -0.4540 0.8565
8.8701 -0.2556 0.8541
8.8695 -0.0574 0.8520
8.8690 0.1407 0.8504
8.8685 0.3390 0.8492
8.8679 0.5375 0.8485
8.8674 0.7365 0.8482
8.9426 0.9443 0.8555
8.9421 1.1467 0.8560
8.9415 1.3502 0.8570
8.9410 1.5551 0.8584
8.9404 1.7615 0.8602
8.9398 1.9697 0.8625
8.8701 2.1632 0.8586
8.8629 2.3723 0.8612
8.8623 2.5855 0.8648
8.8617 2.8015 0.8690
8.8611 3.0205 0.8737
8.8605 3.2429 0.8789
8.8599 3.4689 0.8847
8.8593 3.6989 0.8910
8.8586 3.9331 0.8979
8.8580 4.1720 0.9054
8.8573 4.4159 0.9135
8.8566 4.6653 0.9223
8.8562 4.9207 0.9318
8.8552 5.1822 0.9420
8.8545 5.4508 0.9530
8.8538 5.7267 0.9648
8.8530 6.0107 0.9774
8.8627 6.3109 0.9921
8.8699 6.6194 1.0076
8.8693 6.9325 1.0232
8.8667 7.2550 1.0397
8.8487 7.5763 1.0555
8.8477 7.9245 1.0745
8.8468 8.2869 1.0949
8.8457 8.6646 1.1168
8.7021 8.9132 1.1219
8.2044 8.7875 1.0812
7.8438 8.7865 1.0578
7.4973 8.7856 1.0359
7.1639 8.7847 1.0153
6.8425 8.7838 0.9960
6.6646 8.9611 0.9977
6.6635 9.3901 1.0274
6.6622 9.8469 1.0596
6.6683 10.3462 1.0958
6.7350 10.9803 1.1455
6.7334 11.5485 1.1875
6.6563 12.0252 1.2197
6.6545 12.6820 1.2697
6.6525 13.3968 1.3248
6.6563 14.1910 1.3870
6.6480 15.0375 1.4536
6.6730 16.0537 1.5358
6.5931 16.9172 1.6027
6.6393 18.2280 1.7111
5.6129 16.5496 1.5403
5.3197 16.9174 1.5621
6.7694 23.3355 2.1389
6.2599 23.5296 2.1421
5.7466 23.7183 2.1460
5.2247 23.8817 2.1487
4.9614 25.3783 2.2718
4.4611 25.8731 2.3058
3.8861 25.9897 2.3071
3.3080 26.0926 2.3084
2.7271 26.1818 2.3098
2.1438 26.2571 2.3112
1.5584 26.3184 2.3126
0.9714 26.3658 2.3140
0.3830 26.3991 2.3155
-0.2064 26.4183 2.3170
-0.7964 26.4234 2.3185
-1.3867 26.4143 2.3200
-1.9769 26.3910 2.3216
-2.5667 26.3534 2.3232
-3.1557 26.3017 2.3248
-3.7423 26.2279 2.3257
-4.3258 26.1319 2.3259
-4.9066 26.0222 2.3262
-5.4846 25.8988 2.3265
-6.0593 25.7617 2.3268
-6.6304 25.6111 2.3272
-7.1976 25.4471 2.3276
-7.7584 25.2628 2.3274
-8.3138 25.0636 2.3270
-8.8638 24.8515 2.3267
-9.4083 24.6265 2.3264
-9.9468 24.3890 2.3262
-10.4792 24.1390 2.3260
-11.0050 23.8768 2.3258
-11.5240 23.6024 2.3256
-12.0360 23.3162 2.3255
-12.5406 23.0182 2.3254
-13.0460 22.7235 2.3268
-13.5527 22.4312 2.3298
-14.0525 22.1271 2.3328
-14.5455 21.8119 2.3358
-15.0331 21.4881 2.3393
-15.5153 21.1558 2.3430
-15.9902 20.8128 2.3469
-16.4579 20.4595 2.3510
-16.9179 20.0959 2.3551
-17.3702 19.7222 2.3593
-17.8143 19.3386 2.3637
-18.2503 18.9452 2.3682
-18.6777 18.5421 2.3727
-18.7021 17.7551 2.3283
-18.7119 16.9866 2.2852
-18.7599 16.2813 2.2495
-19.1393 15.8755 2.2555
-19.5103 15.4614 2.2616
-19.8729 15.0388 2.2677
-20.2267 14.6081 2.2741
-20.5716 14.1693 2.2805
-20.9073 13.7226 2.2870
-21.2310 13.2665 2.2933
-21.5542 12.8085 2.3008
-21.8734 12.3459 2.3089
-22.1833 11.8757 2.3171
-22.4838 11.3983 2.3255
-22.7748 10.9136 2.3340
-23.0560 10.4219 2.3426
-23.3273 9.9235 2.3514
-23.5885 9.4183 2.3603
-23.8534 8.9118 2.3707
-24.1116 8.3997 2.3816
-20.0096 6.4735 1.9653
-24.5973 7.3552 2.4037
-24.8246 6.8232 2.4150
-25.0410 6.2848 2.4265
-25.2466 5.7403 2.4380
-25.4501 5.1918 2.4506
-25.6434 4.6373 2.4634
-25.8255 4.0769 2.4763
-25.9960 3.5108 2.4893
-26.1548 2.9391 2.5025
-26.3018 2.3622 2.5157
-26.4367 1.7802 2.5291
-26.5593 1.1934 2.5426
-26.6695 0.6020 2.5561
-26.7671 0.0062 2.5698
-26.8518 -0.5936 2.5836
-26.9236 -1.1972 2.5974
-26.9822 -1.8044 2.6113
-27.0274 -2.4149 2.6253
-27.0592 -3.0283 2.6393
-27.0774 -3.6444 2.6534
-27.0818 -4.2629 2.6675
-27.0722 -4.8834 2.6817
-27.0486 -5.5057 2.6959
-27.0095 -6.1290 2.7100
-26.9428 -6.7501 2.7228
-26.8619 -7.3714 2.7356
-26.7668 -7.9923 2.7484
-26.6572 -8.6128 2.7612
-26.5333 -9.2322 2.7740
-26.3850 -9.8467 2.7857
-26.1410 -10.4268 2.7887
-25.8860 -11.0015 2.7919
-25.6202 -11.5710 2.7952
-25.3437 -12.1349 2.7986
-25.0564 -12.6932 2.8022
-24.8207 -13.2788 2.8130
-24.5837 -13.8672 2.8251
-24.3338 -14.4522 2.8374
-24.0712 -15.0337 2.8497
-19.9511 -13.0892 2.3997
-23.5075 -16.1850 2.8747
-23.1976 -16.7479 2.8862
-22.8654 -17.2982 2.8965
-22.5211 -17.8428 2.9069
-22.1651 -18.3817 2.9174
-21.7972 -18.9144 2.9280
-21.4176 -19.4407 2.9386
-21.0263 -19.9605 2.9494
-20.5974 -20.4476 2.9565
-20.1340 -20.9014 2.9601
-19.6561 -21.3398 2.9629
-19.1688 -21.7675 2.9656
-18.7249 -22.2467 2.9767
-18.7049 -23.2588 3.0589
-18.6050 -24.2238 3.1339
-18.0465 -24.6165 3.1351
-17.4771 -24.9926 3.1358
-16.9004 -25.3563 3.1364
-16.3166 -25.7074 3.1370
-15.7260 -26.0459 3.1376
-15.1289 -26.3715 3.1382
-14.5254 -26.6842 3.1387
-13.9160 -26.9840 3.1392
-13.3008 -27.2707 3.1397
-12.6802 -27.5442 3.1402
-12.0543 -27.8044 3.1407
-11.4234 -28.0513 3.1411
-10.7849 -28.2767 3.1406
-10.1419 -28.4875 3.1400
-9.4953 -28.6850 3.1394
-8.8454 -28.8694 3.1389
-8.1925 -29.0406 3.1384
-7.5367 -29.1986 3.1379
-6.8783 -29.3432 3.1375
-6.2175 -29.4746 3.1371
-5.5546 -29.5926 3.1368
-4.8897 -29.6973 3.1365
-4.2232 -29.7885 3.1362
-3.5552 -29.8665 3.1360
-2.8860 -29.9309 3.1358
-2.2158 -29.9820 3.1356
-1.5449 -30.0196 3.1355
-0.8734 -30.0438 3.1355
-0.2015 -30.0546 3.1354
0.4703 -30.0519 3.1354
1.1420 -30.0358 3.1355
1.8133 -30.0062 3.1356
2.4840 -29.9632 3.1357
3.1538 -29.9067 3.1359
3.8226 -29.8369 3.1361
4.4900 -29.7536 3.1363
4.9121 -28.2549 2.9883
5.5448 -28.1501 2.9886
6.1751 -28.0300 2.9887
5.6072 -22.9935 2.4634
7.3958 -27.6293 2.9757
7.9772 -27.3394 2.9616
8.5494 -27.0367 2.9471
9.0959 -26.6761 2.9276
9.6002 -26.2216 2.8989
9.5663 -24.4236 2.7214
9.8588 -23.6027 2.6520
10.3737 -23.3535 2.6475
10.7565 -22.8260 2.6124
11.1300 -22.3114 2.5793
11.3366 -21.5081 2.5130
11.7943 -21.2131 2.5066
12.4220 -21.2114 2.5363
13.0662 -21.2097 2.5680
13.7282 -21.2079 2.6018
14.4096 -21.2060 2.6378
15.1896 -21.3132 2.6899
15.6971 -21.0152 2.6930
15.8331 -20.2378 2.6352
15.7269 -19.2018 2.5426
15.8283 -18.4677 2.4887
15.2323 -16.9888 2.3319
15.2716 -16.2852 2.2788
15.1711 -15.4702 2.2089
15.6724 -15.2827 2.2287
14.5722 -13.5879 2.0259
14.8464 -13.2360 2.0196
15.2443 -12.9911 2.0309
14.1657 -11.5356 1.8498
14.8891 -11.5811 1.9073
15.4878 -11.5006 1.9477
14.6094 -10.3501 1.8050
14.5780 -9.8462 1.7708
14.5886 -9.3856 1.7435
14.5973 -8.9364 1.7175
5.4624 -3.1785 0.6332
5.5834 -3.0840 0.6380
14.5938 -7.6405 1.6450
14.6661 -7.2656 1.6318
15.0395 -7.0366 1.6526
15.7817 -6.9585 1.7138
21.7405 -9.0112 2.3344
21.8594 -8.4933 2.3221
21.9635 -7.9737 2.3096
22.0535 -7.4532 2.2969
22.1293 -6.9320 2.2840
22.1910 -6.4106 2.2709
22.2386 -5.8894 2.2576
22.2717 -5.3688 2.2441
22.2908 -4.8492 2.2305
22.2958 -4.3311 2.2166
22.2872 -3.8149 2.2026
22.2647 -3.3010 2.1884
22.2287 -2.7898 2.1741
22.1799 -2.2818 2.1597
22.1569 -1.7803 2.1489
8.8708 -0.5137 0.8574
8.8702 -0.3151 0.8548
8.8697 -0.1168 0.8526
8.8692 0.0813 0.8509
8.8686 0.2795 0.8496
8.8681 0.4779 0.8487
8.8675 0.6768 0.8482
8.8734 0.8769 0.8488
8.9423 1.0859 0.8558
8.9417 1.2890 0.8566
8.9411 1.4935 0.8579
8.9406 1.6994 0.8596
8.9400 1.9071 0.8618
8.9394 2.1167 0.8644
8.8631 2.3088 0.8601
8.8625 2.5212 0.8637
8.8619 2.7364 0.8677
8.8613 2.9545 0.8723
8.8607 3.1758 0.8773
8.8655 3.4028 0.8834
8.8595 3.6294 0.8890
8.8588 3.8623 0.8957
8.8582 4.0998 0.9031
8.8575 4.3422 0.9110
8.8569 4.5899 0.9196
8.8599 4.8454 0.9293
8.8555 5.1030 0.9389
8.8547 5.3695 0.9496
8.8540 5.6431 0.9611
8.8532 5.9247 0.9735
8.8526 6.2148 0.9868
8.8701 6.5274 1.0031
8.8695 6.8374 1.0184
8.8689 7.1582 1.0348
8.7993 7.4325 1.0441
8.8480 7.8186 1.0687
8.8471 8.1766 1.0887
8.8460 8.5496 1.1101
8.8198 8.9136 1.1298
8.3223 8.7951 1.0894
7.9504 8.7868 1.0647
7.5998 8.7859 1.0423
7.2626 8.7849 1.0213
6.9377 8.7841 1.0017
6.6650 8.8373 0.9893
6.6638 9.2587 1.0183
6.6626 9.7068 1.0497
6.6613 10.1849 1.0838
6.7354 10.8178 1.1336
6.7339 11.3735 1.1745
6.6568 11.8383 1.2056
6.6550 12.4792 1.2542
6.6531 13.1758 1.3076
6.6511 13.9363 1.3668
6.6488 14.7709 1.4325
6.6629 15.7312 1.5095
6.6542 16.7415 1.5906
6.6403 17.8580 1.6809
5.7478 16.5814 1.5471
5.3356 16.5792 1.5344
6.9216 23.2762 2.1381
6.4132 23.4719 2.1411
5.9010 23.6623 2.1448
5.3818 23.8341 2.1479
5.0965 25.1730 2.2567
4.6330 25.8356 2.3054
4.0589 25.9562 2.3067
3.4817 26.0632 2.3080
2.9016 26.1565 2.3094
2.3190 26.2360 2.3107
1.7343 26.3015 2.3121
1.1477 26.3531 2.3136
0.5596 26.3906 2.3150
-0.0295 26.4141 2.3165
-0.6193 26.4234 2.3180
-1.2096 26.4184 2.3196
-1.7999 26.3995 2.3211
-2.3898 26.3662 2.3227
-2.9791 26.3187 2.3243
-3.5668 26.2538 2.3256
-4.1510 26.1621 2.3259
-4.7327 26.0565 2.3261
-5.3115 25.9372 2.3264
-5.8873 25.8042 2.3267
-6.4595 25.6577 2.3271
-7.0279 25.4977 2.3275
-7.5908 25.3199 2.3275
-8.1477 25.1247 2.3271
-8.6994 24.9164 2.3268
-9.2454 24.6954 2.3265
-9.7859 24.4616 2.3263
-10.3201 24.2153 2.3260
-10.8479 23.9567 2.3258
-11.3690 23.6860 2.3257
-11.8831 23.4033 2.3255
-12.3900 23.1088 2.3254
-12.8926 22.8087 2.3260
-13.4014 22.5202 2.3289
-13.9033 22.2196 2.3319
-14.3983 21.9076 2.3349
-14.8871 21.5857 2.3382
-15.3714 21.2566 2.3419
-15.8485 20.9168 2.3458
-16.3184 20.5666 2.3497
-16.7807 20.2061 2.3538
-17.2353 19.8354 2.3580
-17.6819 19.4547 2.3624
-18.1204 19.0642 2.3668
-18.5504 18.6640 2.3714
-18.6991 17.9919 2.3419
-18.7089 17.2139 2.2978
-18.7224 16.4699 2.2572
-19.0263 15.9981 2.2537
-19.3999 15.5865 2.2597
-19.7650 15.1664 2.2659
-20.1215 14.7381 2.2721
-20.4691 14.3018 2.2785
-20.8077 13.8575 2.2850
-21.1349 13.4041 2.2914
-21.4567 12.9458 2.2984
-21.7786 12.4855 2.3064
-22.0913 12.0176 2.3146
-22.3947 11.5423 2.3229
-22.6885 11.0597 2.3314
-22.9727 10.5702 2.3400
-23.2470 10.0737 2.3487
-23.5112 9.5705 2.3576
-23.7739 9.0641 2.3674
-24.0352 8.5541 2.3783
-19.9893 6.6151 1.9665
-24.5272 7.5136 2.4004
-24.7575 6.9834 2.4116
-24.9772 6.4470 2.4230
-25.1861 5.9043 2.4346
-25.3900 5.3569 2.4468
-25.5866 4.8043 2.4595
-25.7721 4.2456 2.4724
-25.9461 3.6812 2.4854
-26.1084 3.1112 2.4985
-26.2590 2.5358 2.5117
-26.3975 1.9553 2.5251
-26.5238 1.3699 2.5385
-26.6377 0.7799 2.5521
-26.7391 0.1854 2.5657
-26.8277 -0.4132 2.5794
-26.9034 -1.0158 2.5932
-26.9660 -1.6219 2.6071
-27.0153 -2.2314 2.6211
-27.0512 -2.8440 2.6351
-27.0734 -3.4593 2.6492
-27.0819 -4.0771 2.6633
-27.0766 -4.6970 2.6774
-27.0571 -5.3188 2.6916
-27.0236 -5.9421 2.7059
-26.9643 -6.5638 2.7189
-26.8876 -7.1850 2.7317
-26.7969 -7.8060 2.7445
-26.6916 -8.4267 2.7573
-26.5720 -9.0465 2.7701
-26.4380 -9.6652 2.7829
-26.2154 -10.2533 2.7878
-25.9637 -10.8297 2.7909
-25.7011 -11.4007 2.7942
-25.4277 -11.9663 2.7976
-25.1437 -12.5263 2.8011
-24.8894 -13.1017 2.8093
-24.6562 -13.6910 2.8215
-24.4101 -14.2771 2.8337
-24.1513 -14.8597 2.8460
-20.1923 -13.0546 2.4170
-23.5953 -16.0134 2.8709
-23.2949 -16.5817 2.8831
-22.9663 -17.1337 2.8934
-22.6257 -17.6801 2.9038
-22.2731 -18.2206 2.9142
-21.9089 -18.7552 2.9248
-21.5327 -19.2835 2.9354
-21.1449 -19.8053 2.9461
-20.7310 -20.3061 2.9549
-20.2755 -20.7679 2.9592
-19.8005 -21.2094 2.9620
-19.3159 -21.6403 2.9648
-18.8222 -22.0604 2.9675
-18.7093 -22.9475 3.0334
-18.6944 -24.0053 3.1207
-18.2158 -24.5013 3.1349
-17.6486 -24.8811 3.1356
-17.0741 -25.2485 3.1362
-16.4924 -25.6034 3.1368
-15.9038 -25.9457 3.1374
-15.3087 -26.2751 3.1380
-14.7071 -26.5918 3.1386
-14.0994 -26.8955 3.1391
-13.4859 -27.1861 3.1396
-12.8669 -27.4636 3.1401
-12.2426 -27.7277 3.1405
-11.6132 -27.9786 3.1410
-10.9770 -28.2109 3.1408
-10.3351 -28.4256 3.1402
-9.6896 -28.6272 3.1396
-9.0407 -28.8155 3.1391
-8.3887 -28.9906 3.1385
-7.7337 -29.1526 3.1381
-7.0761 -29.3012 3.1376
-6.4160 -29.4366 3.1372
-5.7537 -29.5586 3.1369
-5.0894 -29.6673 3.1366
-4.4233 -29.7626 3.1363
-3.7558 -29.8445 3.1360
-3.0869 -29.9130 3.1358
-2.4170 -29.9681 3.1357
-1.7462 -30.0097 3.1356
-1.0748 -30.0379 3.1355
-0.4031 -30.0528 3.1354
0.2687 -30.0541 3.1354
0.9405 -30.0420 3.1355
1.6120 -30.0164 3.1355
2.2829 -29.9775 3.1356
2.9530 -29.9251 3.1358
3.6221 -29.8592 3.1360
4.2899 -29.7800 3.1362
4.7283 -28.3216 2.9922
5.3552 -28.1829 2.9885
5.9864 -28.0682 2.9887
5.4464 -23.0031 2.4608
7.2197 -27.7144 2.9800
7.8037 -27.4274 2.9658
8.3792 -27.1309 2.9517
8.9328 -26.7846 2.9334
9.4723 -26.4194 2.9142
9.8125 -25.5555 2.8407
9.7390 -23.7627 2.6631
10.2569 -23.5144 2.6585
10.6427 -22.9829 2.6227
11.0189 -22.4645 2.5890
11.2210 -21.6394 2.5202
11.6091 -21.2137 2.4981
12.2320 -21.2120 2.5272
12.8711 -21.2102 2.5583
13.5276 -21.2084 2.5914
14.2031 -21.2066 2.6268
14.8989 -21.2047 2.6644
15.5807 -21.1537 2.6982
14.8486 -19.2439 2.4936
14.9290 -18.4789 2.4344
15.6380 -18.4952 2.4791
15.0153 -16.9743 2.3169
15.2722 -16.5062 2.2962
15.1717 -15.6797 2.2251
15.4642 -15.2832 2.2145
13.9619 -13.1950 1.9540
14.7122 -13.2944 2.0143
15.2452 -13.1692 2.0436
13.9632 -11.5272 1.8342
15.2398 -12.0187 1.9633
15.2736 -11.5013 1.9313
15.9987 -11.4962 1.9870
14.5771 -9.9885 1.7796
14.5845 -9.5218 1.7514
14.5952 -9.0702 1.7252
5.4461 -3.2181 0.6341
5.5333 -3.1050 0.6350
14.5983 -7.7680 1.6522
14.6209 -7.3657 1.6330
14.8503 -7.0698 1.6378
15.5219 -6.9685 1.6915
21.7020 -9.1662 2.3380
21.8250 -8.6488 2.3258
21.9338 -8.1298 2.3134
22.0282 -7.6095 2.3008
22.1081 -7.0884 2.2879
22.1739 -6.5670 2.2749
22.2255 -6.0456 2.2616
22.2630 -5.5249 2.2482
22.2866 -5.0050 2.2346
22.2962 -4.4865 2.2208
22.2916 -3.9696 2.2068
22.2732 -3.4550 2.1927
22.2411 -2.9429 2.1784
22.1965 -2.4339 2.1640
22.1647 -1.9305 2.1521
8.8710 -0.5733 0.8582
8.8704 -0.3746 0.8555
8.8699 -0.1763 0.8532
8.8693 0.0219 0.8513
8.8688 0.2200 0.8499
8.8682 0.4183 0.8489
8.8677 0.6170 0.8483
8.8695 0.8166 0.8484
8.9424 1.0251 0.8556
8.9419 1.2279 0.8563
8.9413 1.4320 0.8575
8.9407 1.6375 0.8591
8.9402 1.8446 0.8611
8.9396 2.0536 0.8636
8.8643 2.2458 0.8593
8.8627 2.4572 0.8626
8.8621 2.6716 0.8665
8.8615 2.8887 0.8708
8.8609 3.1091 0.8757
8.8625 3.3337 0.8814
8.8597 3.5604 0.8871
8.8590 3.7920 0.8937
8.8584 4.0281 0.9008
8.8577 4.2689 0.9086
8.8571 4.5150 0.9169
8.8564 4.7667 0.9260
8.8557 5.0245 0.9358
8.8549 5.2888 0.9463
8.8542 5.5602 0.9576
8.8534 5.8393 0.9697
8.8030 6.0923 0.9772
8.8703 6.4364 0.9987
8.8697 6.7433 1.0137
8.8691 7.0608 1.0297
8.8505 7.3747 1.0448
8.8483 7.7140 1.0629
8.8474 8.0677 1.0825
8.8464 8.4361 1.1035
8.8453 8.8204 1.1260
8.5476 8.9128 1.1116
8.0583 8.7871 1.0717
7.7036 8.7862 1.0489
7.3625 8.7852 1.0275
7.0340 8.7843 1.0074
6.7171 8.7835 0.9886
6.6642 9.1296 1.0093
6.6630 9.5694 1.0400
6.6617 10.0381 1.0733
6.7358 10.6588 1.1220
6.7343 11.2025 1.1618
6.6609 11.6621 1.1925
6.6556 12.2815 1.2391
6.6537 12.9605 1.2910
6.6517 13.7009 1.3484
6.6495 14.5121 1.4120
6.6470 15.4057 1.4829
6.6710 16.4620 1.5686
6.6413 17.5011 1.6518
8.0197 22.6443 2.1182
5.4487 16.5498 1.5353
7.0733 23.2165 2.1373
6.5661 23.4138 2.1401
6.0550 23.6058 2.1436
5.5393 23.7890 2.1474
5.2316 24.9793 2.2427
4.7781 25.6550 2.2923
4.2315 25.9215 2.3063
3.6552 26.0325 2.3076
3.0759 26.1300 2.3089
2.4940 26.2136 2.3103
1.9099 26.2833 2.3117
1.3238 26.3391 2.3132
0.7362 26.3808 2.3146
0.1473 26.4085 2.3161
-0.4423 26.4221 2.3176
-1.0325 26.4215 2.3191
-1.6228 26.4067 2.3207
-2.2129 26.3776 2.3222
-2.8024 26.3344 2.3238
-3.3909 26.2771 2.3254
-3.9760 26.1911 2.3258
-4.5584 26.0896 2.3260
-5.1382 25.9744 2.3263
-5.7149 25.8456 2.3266
-6.2882 25.7031 2.3270
-6.8578 25.5471 2.3273
-7.4228 25.3760 2.3276
-7.9812 25.1846 2.3272
-8.5344 24.9803 2.3269
-9.0823 24.7630 2.3266
-9.6244 24.5330 2.3263
-10.1605 24.2905 2.3261
-10.6903 24.0356 2.3259
-11.2134 23.7685 2.3257
-11.7297 23.4893 2.3256
-12.2387 23.1984 2.3255
-12.7404 22.8959 2.3254
-13.2495 22.6080 2.3280
-13.7534 22.3110 2.3310
-14.2506 22.0024 2.3340
-14.7408 21.6827 2.3371
-15.2268 21.3564 2.3408
-15.7061 21.0198 2.3446
-16.1782 20.6727 2.3485
-16.6428 20.3153 2.3526
-17.0998 19.9477 2.3568
-17.5488 19.5700 2.3611
-17.9897 19.1824 2.3655
-18.4223 18.7851 2.3700
-18.6960 18.2316 2.3557
-18.7060 17.4439 2.3107
-18.7157 16.6877 2.2688
-18.9126 16.1200 2.2519
-19.2887 15.7109 2.2579
-19.6564 15.2933 2.2640
-20.0155 14.8675 2.2703
-20.3657 14.4335 2.2766
-20.7071 13.9916 2.2831
-21.0379 13.5411 2.2895
-21.3584 13.0824 2.2960
-21.6830 12.6243 2.3040
-21.9985 12.1587 2.3121
-22.3046 11.6856 2.3204
-22.6014 11.2052 2.3289
-22.8885 10.7178 2.3374
-23.1658 10.2234 2.3461
-23.4330 9.7222 2.3549
-23.6937 9.2158 2.3642
-23.9578 8.7078 2.3750
-19.9892 6.7640 1.9698
-24.4560 7.6713 2.3970
-24.6895 7.1432 2.4083
-24.9125 6.6085 2.4196
-25.1246 6.0677 2.4311
-25.3288 5.5215 2.4430
-25.5288 4.9707 2.4557
-25.7176 4.4139 2.4685
-25.8951 3.8511 2.4815
-26.0610 3.2828 2.4946
-26.2151 2.7090 2.5078
-26.3572 2.1300 2.5211
-26.4872 1.5461 2.5345
-26.6049 0.9573 2.5480
-26.7100 0.3642 2.5616
-26.8025 -0.2332 2.5753
-26.8821 -0.8346 2.5891
-26.9486 -1.4397 2.6029
-27.0019 -2.0482 2.6169
-27.0418 -2.6599 2.6309
-27.0682 -3.2744 2.6449
-27.0808 -3.8915 2.6590
-27.0796 -4.5108 2.6732
-27.0644 -5.1321 2.6874
-27.0351 -5.7550 2.7016
-26.9845 -6.3775 2.7151
-26.9122 -6.9986 2.7279
-26.8256 -7.6198 2.7407
-26.7246 -8.2406 2.7535
-26.6094 -8.8607 2.7663
-26.4797 -9.4797 2.7791
-26.2887 -10.0793 2.7869
-26.0403 -10.6573 2.7899
-25.7810 -11.2300 2.7932
-25.5109 -11.7972 2.7965
-25.2300 -12.3589 2.8000
-24.9568 -12.9243 2.8057
-24.7275 -13.5145 2.8178
-24.4853 -14.1016 2.8300
-24.2303 -14.6853 2.8423
-23.9625 -15.2653 2.8547
-19.9345 -13.3346 2.4134
-23.3886 -16.4133 2.8797
-23.0661 -16.9687 2.8903
-22.7291 -17.5168 2.9006
-22.3802 -18.0591 2.9111
-22.0194 -18.5955 2.9216
-21.6468 -19.1257 2.9322
-21.2624 -19.6494 2.9429
-20.8637 -20.1638 2.9533
-20.4161 -20.6333 2.9583
-19.9440 -21.0781 2.9612
-19.4623 -21.5122 2.9640
-18.9712 -21.9355 2.9667
-18.7135 -22.6411 3.0083
-18.6989 -23.6819 3.0938
-18.3844 -24.3850 3.1347
-17.8196 -24.7685 3.1354
-17.2473 -25.1396 3.1360
-16.6677 -25.4982 3.1366
-16.0811 -25.8443 3.1372
-15.4879 -26.1777 3.1378
-14.8882 -26.4982 3.1384
-14.2824 -26.8058 3.1389
-13.6706 -27.1003 3.1394
-13.0532 -27.3817 3.1399
-12.4304 -27.6499 3.1404
-11.8025 -27.9048 3.1409
-11.1689 -28.1440 3.1410
-10.5281 -28.3626 3.1404
-9.8836 -28.5680 3.1398
-9.2357 -28.7604 3.1392
-8.5846 -28.9395 3.1387
-7.9305 -29.1054 3.1382
-7.2736 -29.2580 3.1378
-6.6142 -29.3974 3.1373
-5.9526 -29.5234 3.1370
-5.2889 -29.6361 3.1366
-4.6233 -29.7354 3.1364
-3.9562 -29.8213 3.1361
-3.2877 -29.8939 3.1359
-2.6180 -29.9530 3.1357
-1.9475 -29.9987 3.1356
-1.2763 -30.0309 3.1355
-0.6046 -30.0497 3.1354
0.0672 -30.0551 3.1354
0.7390 -30.0471 3.1354
1.4106 -30.0255 3.1355
2.0817 -29.9906 3.1356
2.7520 -29.9422 3.1358
3.4215 -29.8804 3.1359
4.0897 -29.8052 3.1362
4.6990 -29.3567 3.0984
5.1655 -28.2145 2.9884
5.7974 -28.1046 2.9887
6.4263 -27.9772 2.9886
5.8258 -22.9947 2.4686
7.6293 -27.5145 2.9700
8.2074 -27.2208 2.9559
8.7690 -26.8930 2.9393
9.3114 -26.5296 2.9199
9.6391 -25.6159 2.8407
9.6182 -23.9240 2.6745
10.0658 -23.5051 2.6503
10.5280 -23.1409 2.6332
10.9070 -22.6187 2.5989
11.1214 -21.8039 2.5312
11.4897 -21.3341 2.5038
12.0435 -21.2125 2.5183
12.6776 -21.2107 2.5488
13.3288 -21.2090 2.5813
13.9984 -21.2071 2.6159
14.6879 -21.2053 2.6528
14.8578 -20.4581 2.5976
15.6556 -20.5734 2.6531
15.8321 -19.8678 2.6042
15.8297 -18.9786 2.5305
14.6885 -16.8310 2.2847
15.2728 -16.7305 2.3140
15.1723 -15.8922 2.2416
15.2588 -15.2838 2.2005
13.8756 -13.2906 1.9552
14.4445 -13.2295 1.9905
15.1067 -13.2275 2.0378
15.2432 -12.7567 2.0144
14.4263 -11.5349 1.8692
15.1387 -11.5595 1.9248
15.7786 -11.4992 1.9701
14.5812 -10.1356 1.7892
14.5819 -9.6601 1.7596
14.5927 -9.2049 1.7330
5.4551 -3.2729 0.6380
5.4840 -3.1258 0.6320
14.6073 -7.8989 1.6600
14.5996 -7.4780 1.6370
14.7305 -7.1343 1.6307
15.2956 -6.9905 1.6727
16.1916 -6.9670 1.7502
21.7897 -8.8042 2.3295
21.9025 -8.2855 2.3171
22.0013 -7.7656 2.3046
22.0858 -7.2448 2.2918
22.1559 -6.7235 2.2788
22.2116 -6.2020 2.2656
22.2532 -5.6810 2.2522
22.2808 -5.1608 2.2387
22.2944 -4.6418 2.2249
22.2941 -4.1244 2.2110
22.2800 -3.6091 2.1969
22.2523 -3.0962 2.1827
22.2110 -2.5862 2.1683
22.1717 -2.0809 2.1553
8.8711 -0.6331 0.8591
8.8706 -0.4342 0.8563
8.8700 -0.2357 0.8539
8.8695 -0.0376 0.8519
8.8689 0.1605 0.8503
8.8684 0.3588 0.8492
8.8679 0.5574 0.8484
8.8673 0.7565 0.8481
8.9426 0.9645 0.8555
8.9420 1.1670 0.8561
8.9415 1.3706 0.8571
8.9409 1.5757 0.8585
8.9403 1.7823 0.8604
8.9398 1.9907 0.8628
8.8687 2.1838 0.8588
8.8629 2.3935 0.8615
8.8623 2.6070 0.8652
8.8617 2.8233 0.8695
8.8611 3.0426 0.8742
8.8605 3.2653 0.8795
8.8598 3.4917 0.8853
8.8592 3.7221 0.8916
8.8586 3.9568 0.8986
8.8579 4.1961 0.9062
8.8573 4.4406 0.9144
8.8566 4.6906 0.9232
8.8559 4.9465 0.9328
8.8552 5.2088 0.9431
8.8544 5.4780 0.9541
8.8537 5.7548 0.9660
8.8265 6.0216 0.9758
8.8661 6.3432 0.9939
8.8699 6.6502 1.0091
8.8693 6.9644 1.0248
8.8627 7.2848 1.0409
8.8486 7.6105 1.0573
8.8476 7.9601 1.0765
8.8467 8.3240 1.0971
8.8456 8.7033 1.1191
8.6632 8.9131 1.1193
8.1676 8.7874 1.0788
7.8085 8.7864 1.0556
7.4634 8.7855 1.0338
7.1313 8.7846 1.0133
6.8110 8.7837 0.9942
6.6645 9.0028 1.0006
6.6633 9.4345 1.0305
6.6621 9.8943 1.0630
6.7363 10.5031 1.1107
6.7348 11.0353 1.1495
6.7207 11.5860 1.1897
6.6561 12.0885 1.2245
6.6548 12.7518 1.2750
6.6523 13.4718 1.3306
6.6552 14.2714 1.3933
6.6478 15.1282 1.4608
6.6726 16.1541 1.5438
6.6423 17.1563 1.6238
8.1702 22.5877 2.1185
5.5717 16.5496 1.5390
7.2061 23.0963 2.1310
6.7187 23.3551 2.1392
6.2088 23.5487 2.1425
5.6950 23.7369 2.1464
5.1723 23.8976 2.1490
4.9164 25.4497 2.2771
4.4037 25.8854 2.3059
3.8284 26.0006 2.3072
3.2499 26.1022 2.3085
2.6688 26.1899 2.3099
2.0853 26.2638 2.3113
1.4998 26.3238 2.3127
0.9126 26.3698 2.3142
0.3241 26.4017 2.3156
-0.2654 26.4195 2.3171
-0.8554 26.4231 2.3187
-1.4458 26.4126 2.3202
-2.0360 26.3878 2.3218
-2.6257 26.3489 2.3234
-3.2146 26.2958 2.3250
-3.8007 26.2188 2.3257
-4.3840 26.1216 2.3260
-4.9646 26.0104 2.3262
-5.5422 25.8856 2.3265
-6.1166 25.7473 2.3268
-6.6873 25.5953 2.3272
-7.2542 25.4300 2.3276
-7.8142 25.2434 2.3273
-8.3691 25.0429 2.3270
-8.9185 24.8296 2.3267
-9.4624 24.6033 2.3264
-10.0003 24.3646 2.3262
-10.5320 24.1134 2.3259
-11.0572 23.8498 2.3258
-11.5756 23.5743 2.3256
-12.0868 23.2869 2.3255
-12.5907 22.9878 2.3254
-13.0970 22.6948 2.3271
-13.6029 22.4013 2.3301
-14.1021 22.0962 2.3331
-14.5944 21.7798 2.3361
-15.0816 21.4554 2.3396
-15.5631 21.1219 2.3434
-16.0374 20.7780 2.3473
-16.5042 20.4236 2.3514
-16.9635 20.0590 2.3555
-17.4150 19.6843 2.3598
-17.8583 19.2996 2.3641
-18.2934 18.9053 2.3686
-18.6929 18.4745 2.3698
-18.7030 17.6769 2.3239
-18.7128 16.9115 2.2810
-18.7982 16.2411 2.2501
-19.1768 15.8345 2.2561
-19.5470 15.4194 2.2622
-19.9087 14.9961 2.2684
-20.2616 14.5645 2.2747
-20.6056 14.1250 2.2811
-20.9401 13.6774 2.2876
-21.2628 13.2205 2.2940
-21.5865 12.7626 2.3016
-21.9048 12.2992 2.3097
-22.2138 11.8283 2.3179
-22.5134 11.3501 2.3263
-22.8034 10.8648 2.3348
-23.0836 10.3724 2.3435
-23.3539 9.8732 2.3523
-23.6140 9.3674 2.3612
-23.8796 8.8610 2.3718
-20.0116 6.9214 1.9754
-20.0768 6.4457 1.9709
-24.6206 7.3023 2.4049
-24.8467 6.7696 2.4162
-25.0621 6.2306 2.4276
-25.2666 5.6855 2.4392
-25.4700 5.1366 2.4519
-25.6622 4.5815 2.4647
-25.8430 4.0205 2.4776
-26.0124 3.4539 2.4906
-26.1701 2.8817 2.5038
-26.3158 2.3042 2.5171
-26.4495 1.7217 2.5304
-26.5709 1.1344 2.5439
-26.6798 0.5426 2.5575
-26.7761 -0.0536 2.5712
-26.8596 -0.6538 2.5849
-26.9300 -1.2578 2.5988
-26.9873 -1.8653 2.6127
-27.0313 -2.4761 2.6267
-27.0617 -3.0898 2.6407
-27.0785 -3.7061 2.6548
-27.0814 -4.3248 2.6689
-27.0705 -4.9456 2.6831
-27.0454 -5.5680 2.6973
-27.0034 -6.1912 2.7113
-26.9353 -6.8123 2.7241
-26.8530 -7.4335 2.7369
-26.7564 -8.0544 2.7497
-26.6455 -8.6747 2.7625
-26.5201 -9.2941 2.7752
-26.3611 -9.9050 2.7860
-26.1160 -10.4845 2.7890
-25.8599 -11.0588 2.7922
-25.5930 -11.6277 2.7955
-25.3154 -12.1910 2.7990
-25.0271 -12.7487 2.8026
-24.7976 -13.3378 2.8142
-24.5593 -13.9258 2.8263
-24.3081 -14.5105 2.8386
-24.0442 -15.0917 2.8509
-19.9365 -13.1434 2.4018
-23.4780 -16.2422 2.8759
-23.1649 -16.8032 2.8872
-22.8314 -17.3529 2.8975
-22.4861 -17.8970 2.9079
-22.1288 -18.4352 2.9185
-21.7598 -18.9673 2.9290
-21.3790 -19.4930 2.9397
-20.9865 -20.0120 2.9505
-20.5526 -20.4945 2.9570
-20.0866 -20.9458 2.9603
-19.6078 -21.3831 2.9632
-19.1195 -21.8097 2.9659
-18.7182 -22.3400 2.9839
-18.7034 -23.3638 3.0676
-18.5503 -24.2648 3.1341
-17.9899 -24.6547 3.1352
-17.4197 -25.0296 3.1358
-16.8423 -25.3920 3.1365
-16.2578 -25.7418 3.1371
-15.6665 -26.0790 3.1377
-15.0688 -26.4034 3.1382
-14.4648 -26.7149 3.1388
-13.8547 -27.0133 3.1393
-13.2390 -27.2987 3.1398
-12.6177 -27.5708 3.1403
-11.9914 -27.8297 3.1407
-11.3601 -28.0752 3.1412
-10.7207 -28.2984 3.1406
-10.0773 -28.5078 3.1400
-9.4305 -28.7041 3.1394
-8.7803 -28.8871 3.1388
-8.1270 -29.0570 3.1383
-7.4710 -29.2136 3.1379
-6.8123 -29.3570 3.1375
-6.1513 -29.4870 3.1371
-5.4882 -29.6037 3.1367
-4.8232 -29.7070 3.1364
-4.1565 -29.7969 3.1362
-3.4883 -29.8735 3.1360
-2.8190 -29.9366 3.1358
-2.1487 -29.9864 3.1356
-1.4777 -30.0227 3.1355
-0.8061 -30.0455 3.1354
-0.1343 -30.0549 3.1354
0.5375 -30.0509 3.1354
1.2091 -30.0334 3.1355
1.8804 -30.0025 3.1356
2.5510 -29.9581 3.1357
3.2208 -29.9004 3.1359
3.8894 -29.8292 3.1361
4.5567 -29.7446 3.1363
4.9755 -28.2450 2.9883
5.6081 -28.1389 2.9886
6.2380 -28.0170 2.9887
5.6616 -22.9932 2.4646
7.4543 -27.6007 2.9743
8.0349 -27.3099 2.9601
8.6043 -27.0006 2.9451
9.1499 -26.6395 2.9257
9.5949 -26.0266 2.8795
9.5659 -24.2626 2.7056
9.8985 -23.5496 2.6483
10.4124 -23.3001 2.6439
10.7942 -22.7740 2.6090
11.1669 -22.2606 2.5761
11.3750 -21.4645 2.5107
11.8564 -21.2130 2.5095
12.4856 -21.2113 2.5394
13.1316 -21.2095 2.5713
13.7955 -21.2077 2.6053
14.4789 -21.2058 2.6415
15.3258 -21.4029 2.7053
15.7357 -20.9690 2.6913
15.8329 -20.1445 2.6274
15.8304 -19.2403 2.5521
14.8266 -17.2210 2.3249
15.1657 -16.8386 2.3157
15.2714 -16.2122 2.2731
15.1710 -15.4010 2.2036
15.7425 -15.2825 2.2335
14.2896 -13.2649 1.9822
14.9821 -13.2969 2.0337
15.2440 -12.9321 2.0268
14.2303 -11.5354 1.8546
15.2387 -11.7985 1.9484
15.5599 -11.5003 1.9532
14.5989 -10.2937 1.8006
14.5781 -9.7989 1.7679
14.5895 -9.3401 1.7408
5.4830 -3.3399 0.6441
5.4678 -3.1653 0.6329
5.6420 -3.1000 0.6438
14.5917 -7.5980 1.6426
14.6933 -7.2383 1.6327
15.0954 -7.0217 1.6568
15.8731 -6.9564 1.7217
21.7531 -8.9595 2.3332
21.8703 -8.4414 2.3209
21.9731 -7.9217 2.3083
22.0617 -7.4010 2.2956
22.1362 -6.8798 2.2827
22.1965 -6.3585 2.2696
22.2425 -5.8373 2.2563
22.2741 -5.3168 2.2428
22.2918 -4.7973 2.2291
22.2955 -4.2794 2.2152
22.2855 -3.7634 2.2012
22.2618 -3.2498 2.1870
22.2244 -2.7389 2.1726
22.1780 -2.2315 2.1586
22.1541 -1.7303 2.1478
8.8707 -0.4938 0.8571
8.8702 -0.2952 0.8545
8.8697 -0.0970 0.8524
8.8691 0.1011 0.8507
8.8686 0.2993 0.8495
8.8680 0.4978 0.8486
8.8675 0.6967 0.8482
8.8747 0.8971 0.8489
8.9422 1.1061 0.8559
8.9416 1.3094 0.8567
8.9411 1.5140 0.8581
8.9405 1.7201 0.8598
8.9400 1.9280 0.8620
8.9160 2.1322 0.8624
8.8630 2.3299 0.8605
8.8624 2.5426 0.8641
8.8619 2.7581 0.8681
8.8613 2.9765 0.8727
8.8607 3.1982 0.8778
8.8665 3.4259 0.8841
8.8594 3.6525 0.8897
8.8588 3.8859 0.8965
8.8581 4.1238 0.9038
8.8575 4.3667 0.9118
8.8568 4.6150 0.9205
8.8587 4.8705 0.9301
8.8554 5.1294 0.9399
8.8547 5.3965 0.9507
8.8539 5.6709 0.9623
8.8531 5.9533 0.9748
8.8560 6.2467 0.9886
8.8700 6.5580 1.0046
8.8695 6.8690 1.0200
8.8689 7.1909 1.0365
8.7992 7.4661 1.0459
8.8479 7.8538 1.0706
8.8470 8.2133 1.0907
8.8459 8.5878 1.1123
8.7804 8.9135 1.1272
8.2808 8.7904 1.0864
7.9147 8.7867 1.0624
7.5655 8.7858 1.0402
7.2296 8.7849 1.0193
6.9059 8.7840 0.9998
6.6649 8.8784 0.9921
6.6637 9.3022 1.0213
6.6625 9.7532 1.0530
6.6612 10.2345 1.0874
6.7352 10.8716 1.1375
6.7337 11.4314 1.1788
6.6566 11.9001 1.2102
6.6549 12.5463 1.2593
6.6529 13.2488 1.3133
6.6508 14.0163 1.3730
6.6485 14.8589 1.4394
6.6740 15.8560 1.5199
6.6432 16.8233 1.5968
6.6400 17.9800 1.6908
5.6957 16.5507 1.5430
5.3231 16.6678 1.5414
6.8709 23.2960 2.1383
6.3621 23.4912 2.1414
5.8495 23.6810 2.1452
5.3292 23.8490 2.1480
5.0515 25.2402 2.2616
4.5757 25.8482 2.3055
4.0013 25.9675 2.3068
3.4238 26.0731 2.3081
2.8434 26.1651 2.3095
2.2606 26.2432 2.3109
1.6757 26.3073 2.3123
1.0889 26.3574 2.3137
0.5007 26.3935 2.3152
-0.0885 26.4156 2.3167
-0.6784 26.4235 2.3182
-1.2687 26.4172 2.3197
-1.8589 26.3967 2.3213
-2.4489 26.3621 2.3229
-3.0379 26.3132 2.3245
-3.6253 26.2453 2.3257
