ply
format ascii 1.0
element vertex 2105
property float32 x
property float32 y
property float32 z
end_header
6.3861 -0.4465 0.0360
6.3861 -0.3033 0.0360
6.3862 -0.1605 0.0360
6.3862 -0.0178 0.0360
6.3863 0.1248 0.0360
6.3864 0.2676 0.0360
6.3864 0.4107 0.0360
6.3865 0.5542 0.0361
6.3866 0.6982 0.0362
6.3866 0.8430 0.0363
6.3867 0.9886 0.0364
6.3868 1.1352 0.0365
6.3868 1.2830 0.0367
6.3869 1.4321 0.0369
6.3844 1.5820 0.0370
6.3848 1.7344 0.0372
6.3851 1.8885 0.0375
6.3854 2.0448 0.0377
6.3858 2.2033 0.0380
6.3861 2.3644 0.0383
6.3865 2.5281 0.0387
6.3868 2.6947 0.0390
6.3872 2.8646 0.0394
6.3875 3.0379 0.0398
6.3879 3.2149 0.0403
6.3883 3.3960 0.0407
6.3887 3.5815 0.0412
6.3891 3.7717 0.0418
6.3895 3.9670 0.0423
6.3900 4.1678 0.0430
6.3904 4.3746 0.0436
6.3843 4.5831 0.0442
6.3844 4.8028 0.0450
6.3844 5.0300 0.0458
6.3845 5.2654 0.0466
6.3846 5.5096 0.0475
6.3834 5.7623 0.0484
6.3821 6.0252 0.0494
6.3808 6.2994 0.0505
6.3759 6.5822 0.0516
6.3707 6.8778 0.0528
6.3676 7.1901 0.0541
6.3705 7.5254 0.0555
6.3734 7.8793 0.0571
6.4045 8.2897 0.0590
6.4404 8.7325 0.0611
6.4899 9.2240 0.0635
6.5533 9.7707 0.0662
6.6935 10.4784 0.0700
19.6186 32.2792 0.2127
18.6335 32.2605 0.2098
17.6745 32.2420 0.2070
16.7395 32.2232 0.2044
15.8268 32.2048 0.2020
14.9349 32.1869 0.1998
14.0633 32.1717 0.1977
13.2088 32.1552 0.1957
12.3707 32.1391 0.1939
11.5446 32.1149 0.1921
10.7300 32.0821 0.1905
9.9247 32.0360 0.1888
9.1509 32.0541 0.1877
8.4242 32.2179 0.1875
7.7391 32.5520 0.1884
7.0797 33.0412 0.1903
6.4533 33.7847 0.1936
6.1773 36.7791 0.2100
6.1760 42.5719 0.2422
-7.6466 22.6942 0.1348
-21.8914 44.2953 0.2782
-21.8832 41.8959 0.2661
-21.8860 39.7138 0.2553
-21.9054 37.7301 0.2456
-21.9078 35.8647 0.2366
-21.9101 34.1307 0.2283
-21.9090 32.5082 0.2207
-21.9134 30.9978 0.2137
-21.9152 29.5761 0.2073
-21.9170 28.2375 0.2013
-21.9081 26.9606 0.1956
-21.9097 25.7647 0.1904
-21.9111 24.6299 0.1856
-21.9125 23.5506 0.1811
-21.8302 22.4357 0.1762
-21.9229 21.5465 0.1731
-21.9242 20.6057 0.1694
-21.9253 19.7033 0.1660
-21.9265 18.8363 0.1627
-21.9275 18.0018 0.1597
-21.8449 17.1318 0.1563
-7.6469 5.7259 0.0538
-7.3974 5.2854 0.0512
-21.9356 14.9443 0.1494
-21.9365 14.2382 0.1472
-21.9374 13.5522 0.1452
-21.9383 12.8848 0.1432
-21.9391 12.2346 0.1414
-21.8562 11.5561 0.1392
-21.9230 10.9721 0.1380
-21.9238 10.3668 0.1365
-21.9245 9.7741 0.1351
-21.9253 9.1930 0.1339
-21.9260 8.6228 0.1327
-21.9267 8.0624 0.1315
-21.9275 7.5112 0.1305
-21.9282 6.9682 0.1295
-21.8451 6.4083 0.1282
-43.6061 -0.2192 0.2455
-36.7448 -1.0057 0.2070
-36.9220 -1.8365 0.2081
-36.9344 -2.6652 0.2085
-36.9469 -3.4972 0.2089
-36.9593 -4.3330 0.2095
-36.9719 -5.1740 0.2102
-36.9846 -6.0209 0.2110
-36.9973 -6.8745 0.2119
-36.8504 -7.7024 0.2120
-47.7480 -11.0987 0.2760
-43.7703 -11.2102 0.2544
-43.7860 -12.2625 0.2560
-40.2271 -12.2411 0.2367
-37.3516 -12.2841 0.2214
-36.9239 -13.0643 0.2205
-37.1048 -14.0684 0.2234
-37.1191 -15.0304 0.2255
-37.1338 -16.0107 0.2277
-37.1487 -17.0109 0.2300
-37.1640 -18.0326 0.2326
-37.0125 -18.9919 0.2342
-7.6563 -4.1472 0.0490
-40.6980 -23.2353 0.2639
-38.7156 -23.2649 0.2543
-37.1114 -23.4447 0.2471
-37.2639 -24.7225 0.2518
-37.2823 -25.9522 0.2558
-37.3013 -27.2220 0.2600
-37.3209 -28.5353 0.2645
-37.1734 -29.7613 0.2681
-8.0503 -11.6339 0.0797
-7.1187 -11.3384 0.0754
5.4121 -30.3518 0.1736
5.4021 -26.8155 0.1540
5.5202 -24.5551 0.1417
5.6326 -22.6758 0.1315
5.7332 -21.0593 0.1229
5.8188 -19.6325 0.1153
5.8971 -18.3797 0.1087
5.9652 -17.2571 0.1028
6.0216 -16.2365 0.0975
6.0749 -15.3216 0.0928
6.1234 -14.4905 0.0886
6.1676 -13.7315 0.0848
6.2082 -13.0348 0.0813
6.2464 -12.3941 0.0781
6.2817 -11.8008 0.0753
6.3146 -11.2493 0.0726
6.3452 -10.7349 0.0702
6.3740 -10.2537 0.0680
6.3749 -9.7618 0.0656
6.3757 -9.3024 0.0635
6.3764 -8.8718 0.0615
6.3771 -8.4672 0.0597
6.3778 -8.0857 0.0580
6.3784 -7.7253 0.0564
6.3790 -7.3837 0.0549
6.3801 -7.0600 0.0536
6.3800 -6.7504 0.0523
6.3799 -6.4552 0.0511
6.3798 -6.1731 0.0500
6.3797 -5.9029 0.0489
6.3797 -5.6436 0.0480
6.3796 -5.3944 0.0470
6.3795 -5.1544 0.0462
6.3794 -4.9230 0.0454
6.3793 -4.6994 0.0446
6.3793 -4.4831 0.0439
6.3816 -4.2750 0.0432
6.3815 -4.0714 0.0426
6.3813 -3.8736 0.0420
6.3812 -3.6810 0.0415
6.3810 -3.4933 0.0410
6.3809 -3.3102 0.0405
6.3807 -3.1313 0.0400
6.3806 -2.9563 0.0396
6.3805 -2.7849 0.0392
6.3803 -2.6168 0.0388
6.3802 -2.4517 0.0385
6.3801 -2.2895 0.0382
6.3799 -2.1298 0.0379
6.3798 -1.9726 0.0376
6.3797 -1.8174 0.0373
6.3796 -1.6643 0.0371
6.3794 -1.5129 0.0369
6.3856 -1.3645 0.0368
6.3857 -1.2161 0.0366
6.3858 -1.0689 0.0365
6.3858 -0.9228 0.0363
6.3859 -0.7776 0.0362
6.3860 -0.6332 0.0361
6.3860 -0.4895 0.0361
6.3861 -0.3462 0.0360
6.3862 -0.2033 0.0360
6.3862 -0.0606 0.0360
6.3863 0.0820 0.0360
6.3864 0.2248 0.0360
6.3864 0.3677 0.0360
6.3865 0.5111 0.0361
6.3866 0.6549 0.0361
6.3866 0.7994 0.0362
6.3867 0.9448 0.0363
6.3867 1.0911 0.0365
6.3868 1.2385 0.0366
6.3869 1.3872 0.0368
6.3870 1.5374 0.0370
6.3847 1.6885 0.0372
6.3850 1.8421 0.0374
6.3853 1.9977 0.0377
6.3857 2.1556 0.0379
6.3860 2.3158 0.0382
6.3864 2.4787 0.0386
6.3867 2.6444 0.0389
6.3871 2.8132 0.0393
6.3874 2.9855 0.0397
6.3878 3.1614 0.0401
6.3882 3.3412 0.0406
6.3886 3.5253 0.0411
6.3890 3.7141 0.0416
6.3894 3.9078 0.0422
6.3898 4.1070 0.0428
6.3903 4.3119 0.0434
6.3907 4.5232 0.0441
6.3843 4.7361 0.0448
6.3844 4.9610 0.0455
6.3845 5.1939 0.0463
6.3846 5.4354 0.0472
6.3838 5.6855 0.0481
6.3825 5.9452 0.0491
6.3812 6.2159 0.0502
6.3775 6.4961 0.0513
6.3723 6.7877 0.0524
6.3670 7.0929 0.0537
6.3696 7.4229 0.0551
6.3725 7.7710 0.0566
6.3946 8.1632 0.0584
6.4284 8.5950 0.0604
6.4746 9.0725 0.0628
6.5324 9.5999 0.0654
6.6158 10.2053 0.0685
19.9196 32.2849 0.2136
18.9263 32.2661 0.2106
17.9598 32.2478 0.2078
17.0175 32.2288 0.2052
16.0982 32.2103 0.2027
15.2003 32.1922 0.2004
14.3230 32.1767 0.1983
13.4633 32.1601 0.1963
12.6204 32.1439 0.1944
11.7929 32.1280 0.1927
10.9738 32.0948 0.1910
10.1630 32.0442 0.1893
9.3781 32.0349 0.1879
8.6366 32.1485 0.1874
7.9405 32.4314 0.1880
7.2716 32.8601 0.1895
6.6356 33.5185 0.1924
6.1572 35.2128 0.2013
6.1736 40.6363 0.2314
6.1823 47.8712 0.2718
-21.8823 42.5870 0.2696
-7.6100 14.0305 0.0899
-21.8043 38.1420 0.2474
-21.9071 36.4096 0.2392
-21.9094 34.6382 0.2308
-21.8272 32.8600 0.2221
-21.9128 31.4419 0.2158
-21.9147 29.9936 0.2091
-21.9165 28.6310 0.2030
-21.8533 27.2646 0.1967
-21.9092 26.1169 0.1919
-21.9107 24.9644 0.1870
-21.9121 23.8689 0.1824
-21.9135 22.8254 0.1781
-21.9226 21.8370 0.1742
-21.9238 20.8837 0.1705
-21.9250 19.9700 0.1670
-21.9261 19.0927 0.1637
-21.9272 18.2488 0.1606
-21.8487 17.3724 0.1571
-21.9334 16.6539 0.1551
-7.4271 5.3822 0.0516
-7.3301 5.0661 0.0502
-21.9363 14.4477 0.1479
-21.9372 13.7560 0.1458
-21.9380 13.0831 0.1438
-21.9389 12.4280 0.1420
-21.8382 11.7346 0.1396
-21.9227 11.1563 0.1385
-21.9235 10.5470 0.1370
-21.9243 9.9507 0.1356
-21.9251 9.3662 0.1342
-21.9258 8.7928 0.1330
-21.9265 8.2295 0.1319
-21.9272 7.6756 0.1308
-21.9280 7.1302 0.1298
-21.8449 6.5675 0.1284
-43.6017 0.0731 0.2455
-36.8318 -0.7611 0.2074
-36.7524 -1.5812 0.2071
-36.9307 -2.4163 0.2084
-36.9431 -3.2471 0.2088
-36.9556 -4.0819 0.2093
-36.9681 -4.9213 0.2100
-36.9807 -5.7663 0.2107
-36.9935 -6.6177 0.2116
-36.8400 -7.4430 0.2116
-44.7548 -11.1434 0.2597
-43.7812 -11.9455 0.2555
-41.1695 -12.2270 0.2418
-38.1745 -12.2718 0.2258
-36.9198 -12.7850 0.2200
-37.1005 -13.7830 0.2228
-37.1148 -14.7398 0.2248
-37.1294 -15.7145 0.2270
-37.1442 -16.7086 0.2293
-37.1594 -17.7237 0.2318
-37.0078 -18.6771 0.2334
-7.6765 -4.0918 0.0490
-41.3225 -23.2260 0.2669
-39.2950 -23.2563 0.2571
-37.4103 -23.2844 0.2481
-37.2585 -24.3610 0.2506
-37.2767 -25.5793 0.2545
-37.2955 -26.8368 0.2587
-37.3149 -28.1367 0.2631
-37.3350 -29.4826 0.2678
-7.6499 -11.4334 0.0775
-7.2243 -11.3371 0.0757
5.3609 -27.5636 0.1581
5.4830 -25.1771 0.1451
5.6006 -23.2108 0.1344
5.7053 -21.5247 0.1254
5.7943 -20.0415 0.1175
5.8751 -18.7419 0.1106
5.9456 -17.5808 0.1045
6.0087 -16.5405 0.0991
6.0595 -15.5866 0.0942
6.1093 -14.7317 0.0898
6.1548 -13.9521 0.0859
6.1962 -13.2372 0.0823
6.2352 -12.5811 0.0791
6.2714 -11.9742 0.0761
6.3050 -11.4107 0.0734
6.3362 -10.8856 0.0709
6.3655 -10.3947 0.0686
6.3746 -9.9059 0.0663
6.3754 -9.4371 0.0641
6.3762 -8.9982 0.0621
6.3769 -8.5860 0.0602
6.3776 -8.1979 0.0585
6.3782 -7.8313 0.0569
6.3788 -7.4842 0.0554
6.3802 -7.1558 0.0540
6.3801 -6.8417 0.0527
6.3800 -6.5423 0.0514
6.3799 -6.2564 0.0503
6.3798 -5.9827 0.0492
6.3797 -5.7203 0.0482
6.3796 -5.4681 0.0473
6.3795 -5.2255 0.0464
6.3794 -4.9916 0.0456
6.3794 -4.7657 0.0448
6.3793 -4.5473 0.0441
6.3817 -4.3373 0.0434
6.3815 -4.1319 0.0428
6.3814 -3.9324 0.0422
6.3812 -3.7382 0.0416
6.3811 -3.5491 0.0411
6.3809 -3.3647 0.0406
6.3808 -3.1846 0.0402
6.3806 -3.0084 0.0397
6.3805 -2.8359 0.0393
6.3804 -2.6669 0.0389
6.3802 -2.5009 0.0386
6.3801 -2.3379 0.0383
6.3800 -2.1775 0.0380
6.3798 -2.0195 0.0377
6.3797 -1.8637 0.0374
6.3796 -1.7101 0.0372
6.3795 -1.5582 0.0370
6.3794 -1.4079 0.0368
6.3857 -1.2605 0.0366
6.3857 -1.1129 0.0365
6.3858 -0.9665 0.0364
6.3859 -0.8211 0.0362
6.3859 -0.6765 0.0362
6.3860 -0.5325 0.0361
6.3861 -0.3892 0.0360
6.3861 -0.2462 0.0360
6.3862 -0.1034 0.0360
6.3863 0.0393 0.0360
6.3863 0.1819 0.0360
6.3864 0.3248 0.0360
6.3865 0.4680 0.0361
6.3865 0.6117 0.0361
6.3866 0.7560 0.0362
6.3867 0.9011 0.0363
6.3867 1.0471 0.0364
6.3868 1.1941 0.0366
6.3869 1.3424 0.0367
6.3869 1.4921 0.0369
6.3846 1.6428 0.0371
6.3849 1.7958 0.0373
6.3852 1.9508 0.0376
6.3856 2.1079 0.0379
6.3859 2.2674 0.0382
6.3862 2.4295 0.0385
6.3866 2.5944 0.0388
6.3870 2.7623 0.0392
6.3873 2.9335 0.0396
6.3877 3.1082 0.0400
6.3881 3.2869 0.0404
6.3885 3.4697 0.0409
6.3889 3.6570 0.0414
6.3893 3.8492 0.0420
6.3897 4.0466 0.0426
6.3902 4.2498 0.0432
6.3906 4.4591 0.0439
6.3843 4.6701 0.0445
6.3844 4.8928 0.0453
6.3845 5.1232 0.0461
6.3846 5.3620 0.0469
6.3842 5.6095 0.0478
6.3829 5.8662 0.0488
6.3816 6.1335 0.0498
6.3789 6.4111 0.0509
6.3739 6.6988 0.0521
6.3686 6.9999 0.0533
6.3688 7.3221 0.0546
6.3716 7.6646 0.0561
6.3849 8.0394 0.0578
6.4180 8.4624 0.0598
6.4597 8.9246 0.0620
6.5120 9.4335 0.0645
6.5820 10.0056 0.0674
6.8028 10.8622 0.0722
19.2214 32.2716 0.2115
18.2471 32.2532 0.2086
17.2977 32.2344 0.2060
16.3717 32.2158 0.2035
15.4676 32.1976 0.2011
14.5845 32.1817 0.1989
13.7194 32.1651 0.1969
12.8716 32.1487 0.1950
12.0397 32.1327 0.1932
11.2176 32.1034 0.1915
10.4051 32.0604 0.1898
9.6117 32.0354 0.1883
8.8568 32.1081 0.1875
8.1480 32.3398 0.1878
7.4726 32.7277 0.1890
6.8214 33.2851 0.1913
6.2425 34.3435 0.1965
6.1716 38.8680 0.2216
6.1759 45.4240 0.2581
-7.7137 30.9065 0.1793
-7.9733 22.9833 0.1370
-21.8091 43.1536 0.2722
-21.8844 41.0012 0.2617
-21.8871 38.8896 0.2512
-21.9064 36.9671 0.2419
-21.9087 35.1562 0.2332
-21.9109 33.4704 0.2252
-21.9122 31.8944 0.2179
-21.9141 30.4185 0.2111
-21.9159 29.0312 0.2048
-21.8235 27.6042 0.1981
-21.9087 26.4745 0.1935
-21.9103 25.3038 0.1885
-21.9117 24.1918 0.1838
-21.9131 23.1334 0.1794
-21.8307 22.0389 0.1746
-21.9234 21.1654 0.1716
-21.9246 20.2403 0.1680
-21.9258 19.3524 0.1647
-21.9269 18.4987 0.1615
-21.9280 17.6766 0.1586
-21.8453 16.8190 0.1552
-7.4574 5.4807 0.0521
-7.3586 5.1590 0.0506
-21.9360 14.6593 0.1485
-21.9369 13.9614 0.1464
-21.9378 13.2830 0.1444
-21.9386 12.6227 0.1425
-21.8380 11.9236 0.1401
-21.9225 11.3417 0.1390
-21.9233 10.7283 0.1374
-21.9241 10.1282 0.1360
-21.9248 9.5403 0.1346
-21.9256 8.9637 0.1334
-21.9263 8.3975 0.1322
-21.9270 7.8409 0.1311
-21.9277 7.2930 0.1301
-21.8447 6.7274 0.1287
-22.1755 6.2906 0.1298
-43.6119 -0.6090 0.2456
-36.7487 -1.3345 0.2070
-36.9270 -2.1676 0.2083
-36.9394 -2.9974 0.2087
-36.9518 -3.8309 0.2092
-36.9644 -4.6688 0.2098
-36.9770 -5.5120 0.2105
-36.9896 -6.3615 0.2113
-36.8361 -7.1856 0.2113
-45.9933 -11.1249 0.2664
-43.7765 -11.6295 0.2550
-42.1527 -12.2123 0.2471
-39.0302 -12.2590 0.2303
-36.9336 -12.5134 0.2195
-37.0963 -13.4994 0.2223
-37.1105 -14.4511 0.2242
-37.1250 -15.4203 0.2263
-37.1397 -16.4084 0.2286
-37.1548 -17.4170 0.2310
-37.1702 -18.4478 0.2336
-37.0549 -19.4337 0.2356
-41.9616 -23.2164 0.2700
-39.8876 -23.2474 0.2599
-37.9618 -23.2762 0.2507
-37.0857 -23.8948 0.2484
-37.2712 -25.2098 0.2533
-37.2898 -26.4552 0.2574
-37.3090 -27.7420 0.2618
-37.3289 -29.0737 0.2664
-37.1934 -30.3267 0.2702
-7.6995 -11.3422 0.0772
-6.9793 -11.3400 0.0750
5.3407 -28.4762 0.1631
5.4600 -25.9053 0.1491
5.5672 -23.7699 0.1375
5.6763 -22.0096 0.1280
5.7688 -20.4666 0.1197
5.8524 -19.1173 0.1126
5.9253 -17.9156 0.1062
5.9904 -16.8412 0.1007
6.0436 -15.8596 0.0956
6.0949 -14.9798 0.0911
6.1416 -14.1788 0.0870
6.1843 -13.4458 0.0833
6.2238 -12.7724 0.0800
6.2608 -12.1514 0.0770
6.2951 -11.5754 0.0742
6.3271 -11.0393 0.0716
6.3569 -10.5386 0.0693
6.3744 -10.0528 0.0670
6.3752 -9.5744 0.0648
6.3760 -9.1269 0.0627
6.3767 -8.7070 0.0608
6.3774 -8.3120 0.0590
6.3780 -7.9392 0.0573
6.3786 -7.5864 0.0558
6.3802 -7.2531 0.0544
6.3801 -6.9343 0.0531
6.3800 -6.6307 0.0518
6.3799 -6.3408 0.0506
6.3798 -6.0636 0.0496
6.3797 -5.7979 0.0485
6.3796 -5.5427 0.0476
6.3795 -5.2973 0.0467
6.3795 -5.0609 0.0458
6.3794 -4.8326 0.0451
6.3793 -4.6120 0.0443
6.3792 -4.3984 0.0436
6.3816 -4.1929 0.0430
6.3814 -3.9916 0.0424
6.3813 -3.7959 0.0418
6.3811 -3.6054 0.0413
6.3810 -3.4196 0.0408
6.3808 -3.2382 0.0403
6.3807 -3.0609 0.0398
6.3805 -2.8873 0.0394
6.3804 -2.7172 0.0390
6.3803 -2.5504 0.0387
6.3801 -2.3865 0.0384
6.3800 -2.2253 0.0380
6.3799 -2.0666 0.0378
6.3798 -1.9103 0.0375
6.3796 -1.7560 0.0373
6.3795 -1.6035 0.0370
6.3794 -1.4528 0.0368
6.3857 -1.3050 0.0367
6.3857 -1.1570 0.0365
6.3858 -1.0103 0.0364
6.3859 -0.8646 0.0363
6.3859 -0.7197 0.0362
6.3860 -0.5756 0.0361
6.3861 -0.4321 0.0360
6.3861 -0.2890 0.0360
6.3862 -0.1462 0.0360
6.3863 -0.0036 0.0360
6.3863 0.1391 0.0360
6.3864 0.2819 0.0360
6.3864 0.4250 0.0360
6.3865 0.5686 0.0361
6.3866 0.7127 0.0362
6.3866 0.8575 0.0363
6.3867 1.0032 0.0364
6.3868 1.1499 0.0365
6.3868 1.2978 0.0367
6.3869 1.4471 0.0369
6.3845 1.5972 0.0371
6.3848 1.7497 0.0373
6.3851 1.9041 0.0375
6.3855 2.0606 0.0378
6.3858 2.2194 0.0381
6.3861 2.3806 0.0384
6.3865 2.5446 0.0387
6.3868 2.7115 0.0391
6.3872 2.8817 0.0395
6.3876 3.0554 0.0399
6.3880 3.2328 0.0403
6.3884 3.4143 0.0408
6.3888 3.6003 0.0413
6.3892 3.7910 0.0418
6.3896 3.9868 0.0424
6.3900 4.1882 0.0430
6.3905 4.3956 0.0437
6.3843 4.6048 0.0443
6.3844 4.8252 0.0451
6.3845 5.0532 0.0458
6.3845 5.2895 0.0467
6.3846 5.5346 0.0476
6.3833 5.7881 0.0485
6.3820 6.0522 0.0495
6.3804 6.3272 0.0506
6.3754 6.6111 0.0517
6.3702 6.9081 0.0529
6.3679 7.2228 0.0542
6.3708 7.5599 0.0557
6.3755 7.9178 0.0572
6.4078 8.3324 0.0592
6.4452 8.7800 0.0613
6.4950 9.2753 0.0638
6.5603 9.8286 0.0665
6.7202 10.5722 0.0705
19.5189 32.2773 0.2124
18.5365 32.2587 0.2095
17.5799 32.2401 0.2068
16.6471 32.2213 0.2042
15.7365 32.2030 0.2018
14.8467 32.1851 0.1996
13.9770 32.1700 0.1975
13.1242 32.1536 0.1955
12.2876 32.1375 0.1937
11.4627 32.1120 0.1920
10.6486 32.0766 0.1903
9.8463 32.0359 0.1887
9.0774 32.0676 0.1876
8.3553 32.2484 0.1876
7.6727 32.5958 0.1885
7.0154 33.1019 0.1905
6.3921 33.8741 0.1941
6.1701 37.2453 0.2126
6.1760 43.2516 0.2460
-21.8917 44.0476 0.2769
-21.8835 41.6691 0.2650
-21.8863 39.5050 0.2543
-21.9056 37.5372 0.2447
-21.9080 35.6858 0.2358
-21.9103 33.9640 0.2276
-21.9116 32.3561 0.2200
-21.9136 30.8517 0.2131
-21.9154 29.4387 0.2066
-21.9171 28.1079 0.2007
-21.9083 26.8382 0.1951
-21.9098 25.6487 0.1899
-21.9113 24.5196 0.1851
-21.9127 23.4455 0.1807
-21.8303 22.3358 0.1758
-21.9231 21.4506 0.1727
-21.9243 20.5137 0.1690
-21.9254 19.6149 0.1656
-21.9266 18.7513 0.1624
-21.9276 17.9200 0.1594
-21.8450 17.0531 0.1560
-7.6226 5.6812 0.0535
-7.3876 5.2536 0.0510
-21.9357 14.8728 0.1492
-21.9366 14.1687 0.1470
-21.9375 13.4846 0.1450
-21.9384 12.8190 0.1431
-21.8377 12.1142 0.1406
-21.9223 11.5285 0.1395
-21.9231 10.9109 0.1379
-21.9238 10.3070 0.1364
-21.9246 9.7155 0.1350
-21.9254 9.1356 0.1337
-21.9261 8.5663 0.1325
-21.9268 8.0069 0.1314
-21.9275 7.4564 0.1304
-21.9282 6.9143 0.1295
-21.8452 6.3553 0.1281
-43.6075 -0.3166 0.2455
-36.7450 -1.0878 0.2070
-36.9233 -1.9193 0.2082
-36.9357 -2.7482 0.2085
-36.9481 -3.5806 0.2090
-36.9606 -4.4170 0.2096
-36.9732 -5.2586 0.2103
-36.9858 -6.1060 0.2111
-36.9986 -6.9604 0.2120
-36.8686 -7.7923 0.2122
-47.2969 -11.1054 0.2735
-43.7718 -11.3148 0.2545
-43.7876 -12.3685 0.2562
-39.9218 -12.2457 0.2351
-37.1108 -12.2968 0.2201
-36.9253 -13.1576 0.2207
-37.1062 -14.1637 0.2236
-37.1206 -15.1275 0.2257
-37.1353 -16.1098 0.2279
-37.1502 -17.1120 0.2303
-37.1655 -18.1360 0.2328
-37.0140 -19.0972 0.2345
-7.6688 -4.1761 0.0492
-40.4932 -23.2384 0.2629
-38.5249 -23.2678 0.2534
-37.0917 -23.5486 0.2475
-37.2657 -24.8439 0.2522
-37.2842 -26.0775 0.2562
-37.3032 -27.3515 0.2604
-37.3229 -28.6694 0.2650
-37.1754 -29.8994 0.2686
-7.9714 -11.5752 0.0791
-7.0837 -11.3388 0.0753
5.3718 -29.7416 0.8510
5.4174 -26.5849 0.7640
5.5329 -24.3574 0.7033
5.6435 -22.5053 0.6533
5.7422 -20.9079 0.6105
5.8267 -19.4992 0.5731
5.9037 -18.2600 0.5404
5.9711 -17.1500 0.5113
6.0271 -16.1405 0.4851
6.0799 -15.2346 0.4619
6.1279 -14.4113 0.4409
6.1717 -13.6589 0.4220
6.2126 -12.9694 0.4049
6.2505 -12.3336 0.3893
6.2856 -11.7447 0.3751
6.3182 -11.1970 0.3620
6.3486 -10.6861 0.3500
6.3742 -10.2030 0.3388
6.3750 -9.7146 0.3272
6.3758 -9.2582 0.3165
6.3765 -8.8303 0.3067
6.3772 -8.4281 0.2976
6.3778 -8.0488 0.2892
6.3785 -7.6903 0.2813
6.3790 -7.3505 0.2740
6.3798 -7.0280 0.2673
6.3797 -6.7200 0.2609
6.3796 -6.4261 0.2550
6.3795 -6.1452 0.2494
6.3794 -5.8762 0.2442
6.3794 -5.6180 0.2394
6.3793 -5.3698 0.2348
6.3792 -5.1307 0.2305
6.3791 -4.9001 0.2265
6.3791 -4.6773 0.2227
6.3790 -4.4616 0.2192
6.3814 -4.2543 0.2160
6.3813 -4.0513 0.2128
6.3811 -3.8540 0.2099
6.3810 -3.6619 0.2072
6.3808 -3.4747 0.2046
6.3807 -3.2921 0.2022
6.3805 -3.1136 0.1999
6.3804 -2.9389 0.1978
6.3803 -2.7678 0.1958
6.3801 -2.6001 0.1940
6.3800 -2.4353 0.1923
6.3799 -2.2734 0.1907
6.3798 -2.1140 0.1892
6.3796 -1.9569 0.1879
6.3795 -1.8020 0.1867
6.3794 -1.6490 0.1855
6.3793 -1.4979 0.1845
6.3854 -1.3495 0.1838
6.3855 -1.2012 0.1830
6.3855 -1.0542 0.1822
6.3856 -0.9082 0.1816
6.3857 -0.7631 0.1811
6.3857 -0.6188 0.1807
6.3858 -0.4751 0.1803
6.3859 -0.3319 0.1801
6.3859 -0.1890 0.1799
6.3860 -0.0463 0.1798
6.3861 0.0963 0.1798
6.3861 0.2390 0.1799
6.3862 0.3820 0.1801
6.3863 0.5254 0.1804
6.3863 0.6693 0.1808
6.3864 0.8139 0.1813
6.3864 0.9593 0.1818
6.3865 1.1057 0.1825
6.3866 1.2532 0.1833
6.3866 1.4021 0.1841
6.3867 1.5524 0.1851
6.3847 1.7037 0.1861
6.3850 1.8576 0.1872
6.3853 2.0134 0.1885
6.3857 2.1714 0.1899
6.3860 2.3319 0.1914
6.3864 2.4951 0.1931
6.3867 2.6611 0.1948
6.3871 2.8303 0.1967
6.3875 3.0029 0.1987
6.3878 3.1792 0.2009
6.3882 3.3594 0.2032
6.3886 3.5440 0.2057
6.3890 3.7332 0.2084
6.3894 3.9275 0.2112
6.3899 4.1272 0.2142
6.3903 4.3327 0.2174
6.3844 4.5401 0.2206
6.3845 4.7584 0.2242
6.3846 4.9841 0.2281
6.3847 5.2178 0.2322
6.3848 5.4602 0.2366
6.3837 5.7110 0.2412
6.3824 5.9718 0.2461
6.3811 6.2436 0.2514
6.3770 6.5246 0.2569
6.3718 6.8175 0.2628
6.3671 7.1251 0.2691
6.3699 7.4569 0.2761
6.3728 7.8069 0.2838
6.3979 8.2051 0.2930
6.4319 8.6399 0.3033
6.4797 9.1226 0.3151
6.5393 9.6563 0.3284
6.6413 10.2949 0.3450
18.1966 29.6402 0.9793
17.6709 30.2806 0.9872
16.8573 30.4277 0.9795
16.6205 31.6479 1.0065
16.0078 32.2090 1.0128
15.1119 32.1910 1.0013
14.2366 32.1756 0.9907
13.3786 32.1591 0.9808
12.5373 32.1429 0.9715
11.7113 32.1270 0.9628
10.8930 32.0920 0.9543
10.0827 32.0388 0.9458
9.3004 32.0348 0.9393
8.5633 32.1619 0.9372
7.8718 32.4646 0.9406
7.2077 32.9201 0.9489
6.5752 33.6068 0.9642
6.1780 35.8027 1.0230
6.1751 41.2666 1.1749
6.1815 48.7210 1.3828
-7.4991 39.7410 1.1388
-7.5330 22.6917 0.6732
-21.8901 44.7952 1.4039
-21.8819 42.3535 1.3423
-7.6311 13.9947 0.4488
-21.8039 37.9447 1.2323
-21.9067 36.2258 1.1920
-21.9090 34.4669 1.1500
-21.8268 32.7007 1.1071
-21.9125 31.2922 1.0757
-21.9143 29.8529 1.0428
-21.9161 28.4984 1.0123
-21.9073 27.2072 0.9836
-21.9089 25.9984 0.9573
-21.9104 24.8518 0.9329
-21.9118 23.7619 0.9101
-21.8373 22.6446 0.8858
-21.9222 21.7394 0.8693
-21.9235 20.7903 0.8508
-21.9247 19.8804 0.8334
-21.9258 19.0066 0.8171
-21.9269 18.1659 0.8018
-21.8484 17.2927 0.7846
-21.9331 16.5767 0.7741
-7.2648 5.2399 0.2522
-21.9350 15.0879 0.7496
-21.9360 14.3775 0.7385
-21.9369 13.6876 0.7281
-21.9377 13.0166 0.7183
-21.9386 12.3631 0.7091
-21.8557 11.6811 0.6978
-21.9225 11.0946 0.6918
-21.9233 10.4867 0.6843
-21.9240 9.8915 0.6773
-21.9248 9.3083 0.6707
-21.9255 8.7359 0.6646
-21.9263 8.1736 0.6589
-21.9270 7.6206 0.6536
-21.9277 7.0760 0.6488
-21.8446 6.5143 0.6419
-23.2552 6.3730 0.6790
-25.3342 6.3379 0.7353
-27.7910 6.2965 0.8024
-30.7422 6.2468 0.8833
-34.3580 6.1858 0.9830
-38.8959 6.1093 1.1086
-44.7675 6.0104 1.2719
-43.6032 -0.0243 1.2278
-36.7773 -0.8421 1.0358
-36.9196 -1.6710 1.0406
-36.9319 -2.4992 1.0423
-36.9444 -3.3304 1.0445
-36.9568 -4.1655 1.0472
-36.9694 -5.0054 1.0505
-36.9820 -5.8510 1.0543
-36.9947 -6.7032 1.0587
-36.8412 -7.5289 1.0588
-48.6735 -11.0849 1.4056
-44.3565 -11.1494 1.2878
-43.7828 -12.0510 1.2787
-40.8510 -12.2318 1.2007
-37.8967 -12.2759 1.1217
-21.6573 -7.5540 0.6459
-21.4832 -8.0358 0.6459
-21.3714 -8.5428 0.6481
-21.3590 -9.0962 0.6537
-21.3464 -9.6596 0.6597
-21.3335 -10.2338 0.6662
-21.3203 -10.8198 0.6732
-7.6642 -4.1073 0.2448
-21.2932 -12.0308 0.6887
-21.2791 -12.6580 0.6972
-21.2647 -13.3012 0.7063
-21.2499 -13.9618 0.7159
-21.2346 -14.6410 0.7263
-21.2779 -15.3831 0.7393
-21.2284 -16.0814 0.7499
-21.2449 -16.8537 0.7636
-21.2275 -17.6265 0.7769
-21.1765 -18.3985 0.7899
-21.1909 -19.2583 0.8063
-21.1716 -20.1221 0.8224
-21.1183 -20.9890 0.8384
-21.0973 -21.9262 0.8568
-21.0753 -22.9060 0.8765
-21.0523 -23.9324 0.8975
-21.0610 -25.0490 0.9215
-21.0925 -26.2553 0.9483
-20.9474 -27.3018 0.9690
-20.8153 -28.4222 0.9920
-7.6166 -11.4387 0.3870
5.3737 -27.3043 0.7836
5.4963 -24.9697 0.7199
5.6120 -23.0327 0.6675
5.7147 -21.3673 0.6228
5.8025 -19.9033 0.5838
5.8820 -18.6181 0.5498
5.9517 -17.4703 0.5197
6.0141 -16.4411 0.4930
6.0646 -15.4971 0.4686
6.1139 -14.6503 0.4470
6.1590 -13.8777 0.4275
6.2007 -13.1702 0.4099
6.2394 -12.5192 0.3939
6.2753 -11.9168 0.3792
6.3086 -11.3573 0.3658
6.3397 -10.8358 0.3535
6.3687 -10.3480 0.3421
6.3747 -9.8576 0.3305
6.3755 -9.3919 0.3196
6.3763 -8.9559 0.3096
6.3770 -8.5462 0.3003
6.3777 -8.1603 0.2916
6.3783 -7.7958 0.2836
6.3789 -7.4506 0.2762
6.3798 -7.1233 0.2693
6.3797 -6.8108 0.2628
6.3796 -6.5129 0.2567
6.3795 -6.2282 0.2510
6.3795 -5.9557 0.2457
6.3794 -5.6944 0.2408
6.3793 -5.4432 0.2361
6.3792 -5.2015 0.2318
6.3791 -4.9684 0.2277
6.3791 -4.7433 0.2238
6.3790 -4.5256 0.2202
6.3815 -4.3164 0.2169
6.3813 -4.1116 0.2138
6.3812 -3.9126 0.2108
6.3810 -3.7190 0.2080
6.3809 -3.5304 0.2053
6.3807 -3.3464 0.2029
6.3806 -3.1667 0.2006
6.3804 -2.9909 0.1984
6.3803 -2.8188 0.1964
6.3802 -2.6501 0.1945
6.3800 -2.4844 0.1928
6.3799 -2.3217 0.1912
6.3798 -2.1615 0.1897
6.3797 -2.0038 0.1883
6.3795 -1.8483 0.1870
6.3794 -1.6947 0.1859
6.3793 -1.5430 0.1848
6.3792 -1.3930 0.1839
6.3854 -1.2456 0.1832
6.3855 -1.0982 0.1824
6.3856 -0.9519 0.1818
6.3856 -0.8065 0.1812
6.3857 -0.6620 0.1808
6.3858 -0.5182 0.1804
6.3858 -0.3748 0.1801
6.3859 -0.2319 0.1799
6.3860 -0.0891 0.1798
6.3860 0.0535 0.1798
6.3861 0.1962 0.1799
6.3862 0.3391 0.1801
6.3862 0.4824 0.1803
6.3863 0.6261 0.1807
6.3864 0.7704 0.1811
6.3864 0.9156 0.1817
6.3865 1.0617 0.1823
6.3866 1.2089 0.1830
6.3866 1.3573 0.1839
6.3867 1.5071 0.1848
6.3846 1.6580 0.1857
6.3849 1.8112 0.1869
6.3852 1.9664 0.1881
6.3856 2.1238 0.1895
6.3859 2.2835 0.1910
6.3863 2.4458 0.1926
6.3866 2.6110 0.1943
6.3870 2.7792 0.1961
6.3873 2.9507 0.1981
6.3877 3.1259 0.2002
6.3881 3.3049 0.2025
6.3885 3.4882 0.2050
6.3889 3.6759 0.2075
6.3893 3.8686 0.2103
6.3897 4.0667 0.2133
6.3902 4.2704 0.2164
6.3906 4.4804 0.2198
6.3845 4.6922 0.2231
6.3846 4.9156 0.2269
6.3847 5.1468 0.2309
6.3848 5.3865 0.2352
6.3840 5.6347 0.2398
6.3828 5.8924 0.2446
6.3815 6.1608 0.2498
6.3785 6.4393 0.2552
6.3734 6.7283 0.2610
6.3681 7.0307 0.2671
6.3690 7.3555 0.2740
6.3719 7.6999 0.2814
6.3882 8.0803 0.2900
6.4214 8.5062 0.3001
6.4647 8.9735 0.3114
6.5188 9.4884 0.3242
6.5893 10.0656 0.3388
18.2573 29.2971 0.9720
17.9434 30.2797 0.9911
17.0429 30.2825 0.9785
16.6931 31.2752 0.9982
16.2806 32.2145 1.0163
15.3786 32.1964 1.0047
14.4974 32.1806 0.9938
13.6342 32.1640 0.9837
12.7880 32.1477 0.9742
11.9576 32.1317 0.9654
11.1363 32.1005 0.9567
10.3243 32.0550 0.9483
9.5337 32.0352 0.9411
8.7834 32.1215 0.9377
8.0789 32.3703 0.9394
7.4057 32.7717 0.9460
6.7565 33.3465 0.9580
6.1938 34.5128 0.9873
6.1730 39.4451 1.1243
6.1802 46.2280 1.3133
-21.8497 42.9952 1.3580
-21.8840 40.7810 1.3032
-21.8867 38.6866 1.2516
-21.9060 36.7789 1.2054
-21.9084 34.9814 1.1622
-21.9106 33.3074 1.1226
-21.9119 31.7419 1.0861
-21.9138 30.2753 1.0524
-21.9156 28.8964 1.0212
-21.8231 27.4776 0.9880
-21.9084 26.3542 0.9650
-21.9099 25.1896 0.9400
-21.9114 24.0832 0.9168
-21.9128 23.0297 0.8951
-21.9106 22.0210 0.8747
-21.9231 21.0707 0.8562
-21.9243 20.1494 0.8385
-21.9255 19.2651 0.8218
-21.9266 18.4148 0.8063
-21.9277 17.5957 0.7916
-21.8923 16.7775 0.7766
-7.6744 5.6139 0.2677
-21.9348 15.3052 0.7531
-21.9357 14.5884 0.7418
-21.9366 13.8925 0.7311
-21.9375 13.2160 0.7211
-21.9383 12.5574 0.7118
-21.8377 11.8603 0.6997
-21.9222 11.2796 0.6942
-21.9230 10.6677 0.6865
-21.9238 10.0688 0.6793
-21.9246 9.4821 0.6726
-21.9253 8.9065 0.6664
-21.9261 8.3413 0.6606
-21.9268 7.7856 0.6552
-21.9275 7.2386 0.6502
-21.8444 6.6739 0.6432
-22.0802 6.2103 0.6459
-24.6751 6.3490 0.7174
-27.0082 6.3097 0.7810
-29.7962 6.2627 0.8573
-33.1904 6.2055 0.9508
-37.4173 6.1343 1.0677
-42.8321 6.0430 1.2180
-39.8532 -0.6454 1.1223
-36.7499 -1.4166 1.0356
-36.9282 -2.2504 1.0417
-36.9406 -3.0806 1.0438
-36.9531 -3.9145 1.0463
-36.9656 -4.7529 1.0494
-36.9782 -5.5967 1.0531
-36.9909 -6.4468 1.0573
-36.8374 -7.2713 1.0573
-45.5736 -11.1312 1.3210
-43.7781 -11.7347 1.2762
-41.8204 -12.2173 1.2268
-38.7413 -12.2633 1.1442
-21.7075 -7.4087 0.6459
-21.5366 -7.8917 0.6459
-21.3751 -8.3786 0.6465
-21.3628 -8.9292 0.6520
-21.3502 -9.4895 0.6579
-21.3374 -10.0604 0.6642
-21.3243 -10.6427 0.6711
-21.3110 -11.2375 0.6784
-21.2973 -11.8456 0.6862
-21.2834 -12.4682 0.6946
-21.2691 -13.1065 0.7035
-21.2544 -13.7617 0.7130
-21.2392 -14.4352 0.7231
-21.2237 -15.1285 0.7339
-21.2666 -15.8871 0.7475
-21.2500 -16.6269 0.7597
-21.1996 -17.3647 0.7716
-21.2150 -18.1840 0.7868
-21.1966 -19.0056 0.8016
-21.1775 -19.8594 0.8175
-21.1245 -20.7156 0.8331
-21.1037 -21.6408 0.8511
-21.1150 -22.6427 0.8718
-21.0923 -23.6563 0.8924
-21.0684 -24.7196 0.9146
-21.0433 -25.8376 0.9383
-20.9926 -26.9844 0.9627
-20.8318 -28.0484 0.9838
-21.9537 -30.9813 1.0692
-7.6661 -11.3475 0.3856
-7.8614 -29.6590 0.8640
5.3424 -28.1387 0.8065
5.4729 -25.6822 0.7394
5.5791 -23.5836 0.6824
5.6860 -21.8455 0.6356
5.7773 -20.3229 0.5949
5.8595 -18.9889 0.5596
5.9316 -17.8012 0.5283
5.9961 -16.7386 0.5007
6.0488 -15.7674 0.4755
6.0996 -14.8961 0.4532
6.1459 -14.1024 0.4332
6.1882 -13.3756 0.4150
6.2281 -12.7091 0.3985
6.2648 -12.0927 0.3835
6.2989 -11.5209 0.3697
6.3306 -10.9885 0.3571
6.3602 -10.4910 0.3454
6.3745 -10.0036 0.3340
6.3753 -9.5284 0.3228
6.3761 -9.0838 0.3125
6.3768 -8.6665 0.3030
6.3775 -8.2737 0.2941
6.3781 -7.9030 0.2860
6.3787 -7.5522 0.2784
6.3799 -7.2201 0.2713
6.3798 -6.9030 0.2647
6.3797 -6.6008 0.2585
6.3796 -6.3123 0.2527
6.3795 -6.0363 0.2473
6.3794 -5.7717 0.2422
6.3793 -5.5175 0.2375
6.3792 -5.2731 0.2330
6.3792 -5.0375 0.2289
6.3791 -4.8101 0.2250
6.3790 -4.5902 0.2213
6.3790 -4.3773 0.2178
6.3814 -4.1724 0.2147
6.3812 -3.9717 0.2116
6.3811 -3.7765 0.2088
6.3809 -3.5865 0.2061
6.3808 -3.4011 0.2036
6.3806 -3.2202 0.2012
6.3805 -3.0433 0.1991
6.3804 -2.8701 0.1970
6.3802 -2.7003 0.1951
6.3801 -2.5338 0.1933
6.3800 -2.3702 0.1916
6.3798 -2.2093 0.1901
6.3797 -2.0509 0.1887
6.3796 -1.8947 0.1874
6.3795 -1.7406 0.1862
6.3793 -1.5884 0.1851
6.3792 -1.4378 0.1841
6.3854 -1.2901 0.1834
6.3855 -1.1423 0.1827
6.3856 -0.9957 0.1820
6.3856 -0.8500 0.1814
6.3857 -0.7053 0.1809
6.3858 -0.5613 0.1805
6.3858 -0.4178 0.1802
6.3859 -0.2747 0.1800
6.3860 -0.1319 0.1799
6.3860 0.0107 0.1798
6.3861 0.1534 0.1799
6.3862 0.2962 0.1800
6.3862 0.4393 0.1802
6.3863 0.5829 0.1806
6.3863 0.7271 0.1810
6.3864 0.8720 0.1815
6.3865 1.0178 0.1821
6.3865 1.1646 0.1828
6.3866 1.3126 0.1836
6.3867 1.4620 0.1845
6.3845 1.6124 0.1854
6.3848 1.7650 0.1865
6.3851 1.9196 0.1877
6.3855 2.0763 0.1891
6.3858 2.2353 0.1905
6.3862 2.3969 0.1921
6.3865 2.5611 0.1938
6.3869 2.7284 0.1956
6.3872 2.8989 0.1975
6.3876 3.0730 0.1996
6.3880 3.2508 0.2018
6.3884 3.4327 0.2042
6.3888 3.6191 0.2068
6.3892 3.8103 0.2095
6.3896 4.0067 0.2124
6.3900 4.2087 0.2154
6.3905 4.4167 0.2187
6.3845 4.6266 0.2220
6.3845 4.8478 0.2257
6.3846 5.0766 0.2297
6.3847 5.3137 0.2339
6.3844 5.5594 0.2384
6.3832 5.8140 0.2431
6.3819 6.0791 0.2482
6.3799 6.3551 0.2536
6.3749 6.6402 0.2592
6.3697 6.9385 0.2652
6.3682 7.2557 0.2718
6.3710 7.5946 0.2791
6.3786 7.9581 0.2872
6.4112 8.3754 0.2970
6.4500 8.8278 0.3079
6.5002 9.3270 0.3201
6.5675 9.8871 0.3342
6.7473 10.6673 0.3554
18.1112 30.1010 0.9892
17.3107 30.2817 0.9822
16.7642 30.9082 0.9901
16.5214 32.1539 1.0179
15.6470 32.2018 1.0081
14.7591 32.1839 0.9969
13.8913 32.1689 0.9867
13.0401 32.1526 0.9770
12.2051 32.1365 0.9679
11.3808 32.1091 0.9592
10.5673 32.0712 0.9508
9.7680 32.0357 0.9431
9.0038 32.0811 0.9382
8.2863 32.2788 0.9384
7.6061 32.6397 0.9437
6.9510 33.1627 0.9541
6.3388 34.0086 0.9741
6.1715 37.7765 1.0778
6.1761 43.9534 1.2498
-21.7965 43.6116 1.3728
-21.8831 41.4435 1.3196
-21.8859 39.2973 1.2666
-21.9053 37.3447 1.2191
-21.9077 35.5070 1.1748
-21.9099 33.7974 1.1341
-21.9113 32.2004 1.0967
-21.9132 30.7056 1.0622
-21.9151 29.3015 1.0303
-21.8227 27.8583 0.9965
-21.9079 26.7158 0.9728
-21.9095 25.5326 0.9473
-21.9109 24.4093 0.9236
-21.9123 23.3405 0.9015
-21.8300 22.2360 0.8774
-21.9227 21.3548 0.8618
-21.9240 20.4218 0.8437
-21.9251 19.5267 0.8267
-21.9263 18.6665 0.8108
-21.9273 17.8383 0.7959
-21.8447 16.9745 0.7790
-7.5685 5.6146 0.2653
-21.9345 15.5245 0.7567
-21.9354 14.8012 0.7451
-21.9363 14.0992 0.7343
-21.9372 13.4170 0.7241
-21.9381 12.7532 0.7145
-21.8374 12.0503 0.7023
-21.9220 11.4659 0.6966
-21.9228 10.8498 0.6888
-21.9236 10.2471 0.6814
-21.9243 9.6569 0.6746
-21.9251 9.0781 0.6682
-21.9258 8.5099 0.6623
-21.9266 7.9513 0.6567
-21.9273 7.4018 0.6517
-21.9280 6.8604 0.6470
-21.8449 6.3024 0.6402
-24.0474 6.3596 0.7004
-26.2660 6.3222 0.7607
-28.9042 6.2778 0.8329
-32.0970 6.2239 0.9206
-36.0439 6.1574 1.0296
-41.0540 6.0730 1.1686
-47.6312 5.9621 1.3517
-43.6090 -0.4140 1.2280
-36.7462 -1.1700 1.0352
-36.9245 -2.0020 1.0412
-36.9369 -2.8312 1.0431
-36.9493 -3.6639 1.0455
-36.9618 -4.5009 1.0485
-36.9744 -5.3430 1.0519
-36.9871 -6.1910 1.0560
-36.9999 -7.0461 1.0606
-36.9207 -7.8894 1.0631
-46.8551 -11.1120 1.3559
-43.7734 -11.4195 1.2738
-42.8328 -12.2022 1.2541
-39.6206 -12.2502 1.1677
-21.7566 -7.2631 0.6459
-21.5890 -7.7472 0.6459
-21.4106 -8.2274 0.6459
-21.3665 -8.7630 0.6503
-21.3540 -9.3204 0.6561
-21.3413 -9.8880 0.6623
-21.3283 -10.4668 0.6690
-21.3150 -11.0577 0.6761
-21.3015 -11.6617 0.6838
-21.2876 -12.2798 0.6920
-21.2734 -12.9133 0.7007
-21.2588 -13.5633 0.7101
-21.2438 -14.2311 0.7200
-21.2284 -14.9183 0.7306
-21.2714 -15.6698 0.7439
-21.2218 -16.3768 0.7548
-21.2048 -17.1328 0.7676
-21.2204 -17.9434 0.7825
-21.1691 -18.7266 0.7958
-21.1502 -19.5691 0.8114
-21.1636 -20.4775 0.8292
-21.1431 -21.3924 0.8469
-21.1216 -22.3477 0.8658
-21.0663 -23.3108 0.8847
-21.0757 -24.3951 0.9078
-21.0181 -25.4563 0.9295
-21.0080 -26.6341 0.9552
-20.8939 -27.7419 0.9779
-20.9369 -29.1307 1.0102
5.3528 -29.2623 0.8376
5.4325 -26.3577 0.7578
5.5447 -24.1594 0.6980
5.6538 -22.3345 0.6488
5.7512 -20.7588 0.6065
5.8346 -19.3678 0.5696
5.9108 -18.1434 0.5373
5.9774 -17.0455 0.5086
6.0326 -16.0458 0.4827
6.0849 -15.1487 0.4597
6.1324 -14.3330 0.4390
6.1759 -13.5872 0.4202
6.2166 -12.9035 0.4033
6.2541 -12.2727 0.3879
6.2889 -11.6881 0.3737
6.3213 -11.1444 0.3608
6.3515 -10.6368 0.3488
6.3742 -10.1526 0.3375
6.3751 -9.6675 0.3261
6.3759 -9.2141 0.3155
6.3766 -8.7890 0.3058
6.3773 -8.3891 0.2967
6.3779 -8.0120 0.2884
6.3785 -7.6555 0.2806
6.3791 -7.3175 0.2734
6.3798 -6.9965 0.2666
6.3797 -6.6900 0.2603
6.3796 -6.3975 0.2544
6.3795 -6.1178 0.2489
6.3794 -5.8499 0.2437
6.3793 -5.5927 0.2389
6.3793 -5.3454 0.2343
6.3792 -5.1073 0.2301
6.3791 -4.8775 0.2261
6.3790 -4.6554 0.2224
6.3790 -4.4404 0.2189
6.3814 -4.2337 0.2156
6.3813 -4.0313 0.2125
6.3811 -3.8345 0.2096
6.3810 -3.6430 0.2069
6.3808 -3.4563 0.2043
6.3807 -3.2740 0.2019
6.3805 -3.0959 0.1997
6.3804 -2.9217 0.1976
6.3803 -2.7509 0.1956
6.3801 -2.5835 0.1938
6.3800 -2.4190 0.1921
6.3799 -2.2573 0.1906
6.3797 -2.0981 0.1891
6.3796 -1.9413 0.1878
6.3795 -1.7866 0.1865
6.3794 -1.6338 0.1854
6.3793 -1.4828 0.1844
6.3854 -1.3347 0.1837
6.3855 -1.1865 0.1829
6.3855 -1.0395 0.1822
6.3856 -0.8936 0.1816
6.3857 -0.7486 0.1810
6.3857 -0.6044 0.1806
6.3858 -0.4608 0.1803
6.3859 -0.3176 0.1800
6.3859 -0.1748 0.1799
6.3860 -0.0321 0.1798
6.3861 0.1106 0.1798
6.3861 0.2533 0.1800
6.3862 0.3964 0.1802
6.3863 0.5398 0.1805
6.3863 0.6837 0.1809
6.3864 0.8284 0.1813
6.3865 0.9739 0.1819
6.3865 1.1204 0.1826
6.3866 1.2681 0.1833
6.3867 1.4170 0.1842
6.3844 1.5669 0.1851
6.3847 1.7190 0.1862
6.3850 1.8730 0.1874
6.3854 2.0291 0.1887
6.3857 2.1874 0.1901
6.3860 2.3481 0.1916
6.3864 2.5116 0.1932
6.3868 2.6779 0.1950
6.3871 2.8474 0.1969
6.3875 3.0204 0.1990
6.3879 3.1970 0.2011
6.3883 3.3777 0.2035
6.3887 3.5627 0.2060
6.3891 3.7524 0.2086
6.3895 3.9472 0.2115
6.3899 4.1475 0.2145
6.3903 4.3536 0.2177
6.3844 4.5616 0.2209
6.3845 4.7806 0.2246
6.3846 5.0071 0.2285
6.3847 5.2416 0.2326
6.3848 5.4849 0.2370
6.3835 5.7366 0.2417
6.3823 5.9985 0.2466
6.3809 6.2714 0.2519
6.3764 6.5534 0.2575
6.3713 6.8476 0.2634
6.3674 7.1575 0.2697
6.3702 7.4911 0.2769
6.3731 7.8430 0.2846
6.4012 8.2472 0.2940
6.4357 8.6854 0.3044
6.4848 9.1731 0.3163
6.5462 9.7132 0.3298
6.6672 10.3860 0.3475
18.1761 29.7558 0.9818
17.5804 30.2808 0.9859
16.8340 30.5465 0.9821
16.5960 31.7734 1.0094
15.9173 32.2072 1.0116
15.0234 32.1892 1.0002
14.1500 32.1739 0.9897
13.2937 32.1575 0.9798
12.4540 32.1413 0.9706
11.6267 32.1177 0.9618
10.8115 32.0875 0.9534
10.0033 32.0362 0.9450
9.2245 32.0406 0.9388
8.4931 32.1875 0.9373
7.8055 32.5083 0.9414
7.1438 32.9805 0.9502
6.5144 33.6956 0.9663
6.1903 36.3589 1.0385
6.1759 41.9117 1.1929
-7.5906 39.7384 1.1392
-7.5891 22.6910 0.6737
-21.8904 44.5433 1.3975
-21.8822 42.1230 1.3366
-7.6644 13.9815 0.4490
-21.8052 37.7514 1.2276
-21.9070 36.0440 1.1877
-21.9093 34.2978 1.1460
-21.8278 32.5445 1.1034
-21.9127 31.1441 1.0723
-21.9145 29.7138 1.0396
-21.9163 28.3673 1.0094
-21.9075 27.0833 0.9809
-21.9090 25.8810 0.9548
-21.9105 24.7403 0.9306
-21.9119 23.6557 0.9079
-21.8374 22.5437 0.8838
-21.9224 21.6426 0.8674
-21.9236 20.6976 0.8490
-21.9248 19.7915 0.8317
-21.9259 18.9211 0.8155
-21.9270 18.0835 0.8003
-21.8444 17.2103 0.7831
-7.6354 5.7440 0.2690
-21.9342 15.7460 0.7603
-21.9351 15.0158 0.7485
-21.9361 14.3077 0.7374
-21.9370 13.6197 0.7271
-21.9378 12.9505 0.7173
-21.9387 12.2987 0.7082
-21.8558 11.6185 0.6970
-21.9226 11.0332 0.6911
-21.9233 10.4266 0.6836
-21.9241 9.8327 0.6766
-21.9249 9.2505 0.6701
-21.9256 8.6792 0.6640
-21.9263 8.1179 0.6584
-21.9271 7.5658 0.6531
-21.9278 7.0220 0.6483
-21.8447 6.4612 0.6414
-23.4487 6.3697 0.6842
-25.5613 6.3341 0.7415
-28.0617 6.2920 0.8098
-31.0707 6.2412 0.8923
-34.7652 6.1790 0.9943
-39.4148 6.1006 1.1230
-45.4511 5.9989 1.2909
-43.6046 -0.1218 1.2278
-36.7588 -0.9239 1.0354
-36.9208 -1.7538 1.0408
-36.9332 -2.5821 1.0425
-36.9456 -3.4137 1.0447
-36.9581 -4.2493 1.0475
-36.9706 -5.0897 1.0508
-36.9833 -5.9359 1.0547
-36.9960 -6.7888 1.0591
-36.8425 -7.6149 1.0593
-48.2063 -11.0919 1.3928
-43.9640 -11.1552 1.2772
-43.7844 -12.1567 1.2795
-40.5369 -12.2365 1.1923
-37.6225 -12.2800 1.1144
-21.6404 -7.6023 0.6459
-21.4652 -8.0838 0.6459
-21.3702 -8.5977 0.6486
-21.3578 -9.1521 0.6543
-21.3451 -9.7166 0.6604
-21.3322 -10.2919 0.6669
-21.3190 -10.8791 0.6739
-7.6570 -4.1255 0.2449
-21.2918 -12.0928 0.6895
-21.2777 -12.7216 0.6980
-21.2632 -13.3665 0.7072
-21.2484 -14.0288 0.7169
-21.2331 -14.7101 0.7273
-21.2763 -15.4545 0.7405
-21.2268 -16.1549 0.7511
-21.2432 -16.9298 0.7649
-21.2258 -17.7053 0.7783
-21.1746 -18.4800 0.7914
-21.1559 -19.3129 0.8066
-21.1696 -20.2104 0.8241
-21.1493 -21.1139 0.8415
-21.0952 -22.0222 0.8587
-21.0731 -23.0065 0.8785
-21.0500 -24.0378 0.8997
-21.0585 -25.1600 0.9239
-21.0783 -26.3580 0.9503
-20.9322 -27.4085 0.9711
-20.8582 -28.6146 0.9971
5.3866 -27.0502 0.7766
5.5087 -24.7623 0.7143
5.6227 -22.8544 0.6627
5.7240 -21.2121 0.6186
5.8106 -19.7669 0.5801
5.8893 -18.4973 0.5466
5.9582 -17.3623 0.5169
6.0159 -16.3327 0.4901
6.0697 -15.4087 0.4663
6.1186 -14.5699 0.4450
6.1633 -13.8041 0.4257
6.2047 -13.1028 0.4082
6.2431 -12.4568 0.3923
6.2787 -11.8590 0.3778
6.3118 -11.3035 0.3645
6.3427 -10.7855 0.3523
6.3715 -10.3009 0.3411
6.3748 -9.8096 0.3294
6.3756 -9.3470 0.3186
6.3764 -8.9137 0.3086
6.3771 -8.5066 0.2994
6.3777 -8.1229 0.2908
6.3783 -7.7604 0.2829
6.3789 -7.4170 0.2755
6.3798 -7.0914 0.2686
6.3797 -6.7804 0.2621
6.3796 -6.4838 0.2561
6.3795 -6.2004 0.2505
6.3795 -5.9291 0.2452
6.3794 -5.6688 0.2403
6.3793 -5.4186 0.2357
6.3792 -5.1778 0.2313
6.3791 -4.9456 0.2273
6.3791 -4.7212 0.2235
6.3790 -4.5042 0.2199
6.3815 -4.2956 0.2166
6.3813 -4.0914 0.2134
6.3812 -3.8930 0.2105
6.3810 -3.6999 0.2077
6.3809 -3.5118 0.2051
6.3807 -3.3283 0.2026
6.3806 -3.1490 0.2004
6.3804 -2.9736 0.1982
6.3803 -2.8018 0.1962
6.3802 -2.6334 0.1944
6.3800 -2.4680 0.1926
6.3799 -2.3055 0.1910
6.3798 -2.1456 0.1895
6.3797 -1.9881 0.1882
6.3795 -1.8328 0.1869
6.3794 -1.6795 0.1858
6.3793 -1.5280 0.1847
6.3792 -1.3780 0.1838
6.3855 -1.2308 0.1831
6.3855 -1.0835 0.1824
6.3856 -0.9373 0.1817
6.3857 -0.7920 0.1812
6.3857 -0.6476 0.1807
6.3858 -0.5038 0.1804
6.3859 -0.3605 0.1801
6.3859 -0.2176 0.1799
6.3860 -0.0749 0.1798
6.3860 0.0678 0.1798
6.3861 0.2105 0.1799
6.3862 0.3534 0.1801
6.3862 0.4967 0.1804
6.3863 0.6405 0.1807
6.3864 0.7849 0.1812
6.3864 0.9302 0.1817
6.3865 1.0763 0.1824
6.3866 1.2236 0.1831
6.3866 1.3722 0.1839
6.3867 1.5222 0.1849
6.3846 1.6732 0.1858
6.3849 1.8266 0.1870
6.3853 1.9820 0.1883
6.3856 2.1396 0.1896
6.3859 2.2996 0.1911
6.3863 2.4622 0.1927
6.3866 2.6277 0.1945
6.3870 2.7962 0.1963
6.3874 2.9681 0.1983
6.3878 3.1436 0.2005
6.3881 3.3230 0.2028
6.3885 3.5067 0.2052
6.3889 3.6950 0.2078
6.3893 3.8882 0.2106
6.3898 4.0868 0.2136
6.3902 4.2911 0.2167
6.3907 4.5017 0.2201
6.3845 4.7142 0.2235
6.3846 4.9383 0.2273
6.3847 5.1704 0.2313
6.3848 5.4110 0.2357
6.3839 5.6601 0.2402
6.3827 5.9188 0.2451
6.3813 6.1883 0.2503
6.3780 6.4676 0.2558
6.3729 6.7579 0.2616
6.3675 7.0618 0.2677
6.3693 7.3891 0.2747
6.3722 7.7354 0.2822
6.3914 8.1216 0.2910
6.4249 8.5505 0.3011
6.4696 9.0228 0.3126
6.5255 9.5439 0.3255
6.5967 10.1262 0.3403
18.2372 29.4110 0.9744
17.8524 30.2800 0.9898
16.9570 30.2879 0.9774
16.6691 31.3988 1.0010
16.1895 32.2127 1.0151
15.2895 32.1946 1.0036
14.4103 32.1789 0.9928
13.5488 32.1624 0.9827
12.7042 32.1461 0.9733
11.8753 32.1302 0.9645
11.0550 32.0977 0.9559
10.2437 32.0496 0.9474
9.4558 32.0351 0.9405
8.7100 32.1350 0.9375
8.0097 32.4009 0.9398
7.3387 32.8159 0.9468
6.6959 33.4306 0.9600
6.1716 34.8369 0.9962
6.1735 40.0337 1.1406
6.1806 47.0311 1.3357
-21.8813 42.8202 1.3540
-21.8843 40.5637 1.2978
-21.8201 38.3685 1.2429
-21.9062 36.5933 1.2009
-21.9086 34.8087 1.1581
-21.8264 33.0186 1.1145
-21.9121 31.5910 1.0826
-21.9140 30.1336 1.0491
-21.9158 28.7629 1.0182
-21.8338 27.3652 0.9858
-21.9086 26.2349 0.9624
-21.9101 25.0764 0.9376
-21.9115 23.9755 0.9146
-21.9129 22.9272 0.8930
-21.9220 21.9342 0.8732
-21.9232 20.9768 0.8544
-21.9244 20.0594 0.8367
-21.9256 19.1786 0.8202
-21.9267 18.3315 0.8048
-21.9278 17.5154 0.7902
-21.9329 16.7309 0.7768
-7.7102 5.6136 0.2685
-21.9349 15.2325 0.7520
-21.9358 14.5179 0.7407
-21.9367 13.8240 0.7301
-21.9376 13.1494 0.7202
-21.9384 12.4925 0.7109
-21.8378 11.7972 0.6989
-21.9223 11.2178 0.6934
-21.9231 10.6072 0.6858
-21.9239 10.0096 0.6786
-21.9246 9.4240 0.6720
-21.9254 8.8496 0.6658
-21.9261 8.2853 0.6600
-21.9268 7.7305 0.6547
-21.9276 7.1843 0.6497
-21.8445 6.6206 0.6427
-22.8772 6.3793 0.6687
-24.8913 6.3454 0.7233
-27.2646 6.3054 0.7880
-30.1055 6.2575 0.8658
-33.5713 6.1991 0.9613
-37.8978 6.1262 1.0810
-43.4589 6.0324 1.2354
-48.9633 0.1913 1.3787
-37.1830 -0.6853 1.0472
-36.7512 -1.4989 1.0357
-36.9295 -2.3333 1.0419
-36.9419 -3.1639 1.0440
-36.9543 -3.9981 1.0466
-36.9669 -4.8370 1.0498
-36.9795 -5.6814 1.0535
-36.9922 -6.5322 1.0577
-36.8387 -7.3571 1.0578
-45.1607 -11.1374 1.3097
-43.7797 -11.8399 1.2770
-41.4926 -12.2222 1.2180
-38.4560 -12.2676 1.1366
-21.6908 -7.4572 0.6459
-21.5189 -7.9398 0.6459
-21.3739 -8.4333 0.6470
-21.3615 -8.9848 0.6525
-21.3489 -9.5462 0.6585
-21.3361 -10.1181 0.6649
-21.3230 -10.7017 0.6718
-7.6987 -4.0816 0.2454
-21.2960 -11.9072 0.6870
-21.2820 -12.5313 0.6954
-21.2676 -13.1712 0.7044
-21.2529 -13.8282 0.7140
-21.2377 -14.5036 0.7242
-21.2810 -15.2412 0.7371
-21.2649 -15.9601 0.7487
-21.2483 -16.7023 0.7610
-21.1979 -17.4425 0.7730
-21.2132 -18.2648 0.7882
-21.1947 -19.0895 0.8032
-21.1755 -19.9466 0.8191
-21.1224 -20.8064 0.8349
-21.1016 -21.7355 0.8530
-21.1128 -22.7420 0.8738
-21.0899 -23.7604 0.8946
-21.0660 -24.8289 0.9169
-21.0408 -25.9526 0.9408
-20.9776 -27.0897 0.9648
-20.8263 -28.1723 0.9865
-22.3098 -31.6335 1.0900
-7.6496 -11.3778 0.3861
-7.7979 -29.6872 0.8643
5.3478 -27.8278 0.7979
5.4857 -25.4629 0.7335
5.5902 -23.3972 0.6774
5.6957 -21.6839 0.6313
5.7858 -20.1812 0.5911
5.8671 -18.8638 0.5563
5.9384 -17.6896 0.5254
6.0021 -16.6383 0.4981
6.0541 -15.6763 0.4732
6.1044 -14.8133 0.4511
6.1503 -14.0269 0.4313
6.1923 -13.3063 0.4133
6.2319 -12.6453 0.3970
6.2683 -12.0336 0.3821
6.3021 -11.4660 0.3684
6.3336 -10.9372 0.3559
6.3631 -10.4430 0.3443
6.3746 -9.9545 0.3328
6.3754 -9.4826 0.3217
6.3761 -9.0408 0.3115
6.3769 -8.6262 0.3021
6.3775 -8.2357 0.2933
6.3782 -7.8671 0.2852
6.3788 -7.5181 0.2776
6.3799 -7.1877 0.2706
6.3798 -6.8721 0.2640
6.3797 -6.5713 0.2579
6.3796 -6.2841 0.2521
6.3795 -6.0093 0.2468
6.3794 -5.7458 0.2417
6.3793 -5.4927 0.2370
6.3792 -5.2491 0.2326
6.3792 -5.0144 0.2285
6.3791 -4.7877 0.2246
6.3790 -4.5686 0.2209
6.3790 -4.3563 0.2175
6.3814 -4.1520 0.2144
6.3812 -3.9519 0.2113
6.3811 -3.7573 0.2085
6.3809 -3.5678 0.2058
6.3808 -3.3829 0.2034
6.3806 -3.2023 0.2010
6.3805 -3.0258 0.1988
6.3803 -2.8530 0.1968
6.3802 -2.6836 0.1949
6.3801 -2.5173 0.1931
6.3799 -2.3540 0.1915
6.3798 -2.1933 0.1900
6.3797 -2.0351 0.1886
6.3796 -1.8792 0.1873
6.3794 -1.7253 0.1861
6.3793 -1.5732 0.1850
6.3792 -1.4229 0.1840
6.3854 -1.2752 0.1833
6.3855 -1.1276 0.1826
6.3856 -0.9810 0.1819
6.3856 -0.8355 0.1813
6.3857 -0.6909 0.1809
6.3858 -0.5469 0.1805
6.3858 -0.4035 0.1802
6.3859 -0.2604 0.1800
6.3860 -0.1177 0.1798
6.3860 0.0250 0.1798
6.3861 0.1677 0.1799
6.3862 0.3105 0.1800
6.3862 0.4537 0.1803
6.3863 0.5973 0.1806
6.3864 0.7415 0.1810
6.3864 0.8865 0.1816
6.3865 1.0324 0.1822
6.3865 1.1793 0.1829
6.3866 1.3275 0.1837
6.3867 1.4770 0.1846
6.3845 1.6276 0.1855
6.3848 1.7804 0.1866
6.3852 1.9352 0.1879
6.3855 2.0921 0.1892
6.3858 2.2514 0.1907
6.3862 2.4132 0.1922
6.3865 2.5777 0.1939
6.3869 2.7453 0.1957
6.3873 2.9162 0.1977
6.3876 3.0906 0.1998
6.3880 3.2688 0.2021
6.3884 3.4512 0.2045
6.3888 3.6380 0.2070
6.3892 3.8297 0.2097
6.3896 4.0266 0.2127
6.3901 4.2292 0.2158
6.3905 4.4379 0.2191
6.3845 4.6484 0.2224
6.3845 4.8703 0.2261
6.3846 5.0999 0.2301
6.3847 5.3379 0.2343
6.3843 5.5844 0.2388
6.3830 5.8401 0.2436
6.3817 6.1063 0.2487
6.3794 6.3830 0.2541
6.3744 6.6694 0.2598
6.3691 6.9691 0.2658
6.3685 7.2888 0.2725
6.3713 7.6295 0.2799
6.3818 7.9986 0.2881
6.4146 8.4187 0.2980
6.4549 8.8760 0.3090
6.5055 9.3791 0.3214
6.5747 9.9461 0.3357
6.7748 10.7639 0.3581
18.0890 30.2167 0.9916
17.2212 30.2819 0.9809
16.7407 31.0299 0.9928
16.4636 32.2182 1.0188
15.5573 32.2000 1.0070
14.6714 32.1821 0.9959
13.8054 32.1673 0.9857
12.9559 32.1509 0.9760
12.1224 32.1349 0.9671
11.2992 32.1063 0.9584
10.4862 32.0658 0.9500
9.6898 32.0356 0.9424
8.9303 32.0946 0.9380
8.2172 32.3093 0.9387
7.5394 32.6836 0.9445
6.8863 33.2239 0.9554
6.2909 34.1753 0.9785
6.1720 38.3176 1.0928
6.1761 44.6767 1.2700
-7.4451 48.2796 1.3755
-7.6399 30.9049 0.8964
-21.7968 43.3695 1.3667
-21.8834 41.2207 1.3141
-21.8862 39.0922 1.2615
-21.9055 37.1547 1.2145
-21.9079 35.3306 1.1706
-21.9101 33.6330 1.1303
-21.9115 32.0465 1.0931
-21.9134 30.5613 1.0589
-21.9152 29.1656 1.0272
-21.8228 27.7306 0.9936
-21.9081 26.5945 0.9702
-21.9096 25.4176 0.9449
-21.9111 24.3001 0.9213
-21.9125 23.2365 0.8993
-21.8301 22.1370 0.8754
-21.9229 21.2597 0.8599
-21.9241 20.3306 0.8419
-21.9252 19.4392 0.8251
-21.9264 18.5822 0.8093
-21.9274 17.7571 0.7945
-21.8448 16.8965 0.7776
-7.6036 5.6143 0.2661
-21.9346 15.4512 0.7555
-21.9355 14.7300 0.7440
-21.9364 14.0301 0.7332
-21.9373 13.3499 0.7231
-21.9382 12.6878 0.7136
-21.8375 11.9868 0.7014
-21.9221 11.4036 0.6958
-21.9229 10.7889 0.6880
-21.9237 10.1875 0.6807
-21.9244 9.5985 0.6739
-21.9252 9.0208 0.6676
-21.9259 8.4536 0.6617
-21.9266 7.8960 0.6562
-21.9273 7.3473 0.6512
-21.9280 6.8067 0.6465
-21.9875 6.2903 0.6440
-24.2534 6.3561 0.7060
-26.5092 6.3181 0.7673
-29.1960 6.2728 0.8409
-32.4539 6.2179 0.9305
-36.4911 6.1499 1.0420
-41.6311 6.0633 1.1846
-48.4050 5.9491 1.3732
-43.6104 -0.5114 1.2281
-36.7475 -1.2522 1.0353
-36.9258 -2.0848 1.0414
-36.9381 -2.9143 1.0433
-36.9506 -3.7474 1.0458
-36.9631 -4.5849 1.0488
-36.9757 -5.4275 1.0523
-36.9884 -6.2763 1.0564
-36.8348 -7.1000 1.0563
-46.4202 -11.1185 1.3441
-43.7750 -11.5246 1.2746
-42.4900 -12.2073 1.2448
-39.3231 -12.2546 1.1598
-21.7403 -7.3117 0.6459
-21.5716 -7.7954 0.6459
-21.3921 -8.2752 0.6459
-21.3652 -8.8183 0.6508
-21.3527 -9.3766 0.6567
-21.3400 -9.9453 0.6629
-21.3270 -10.5253 0.6697
-21.3137 -11.1175 0.6769
-21.3001 -11.7228 0.6846
-21.2862 -12.3425 0.6928
-21.2719 -12.9775 0.7016
-21.2573 -13.6293 0.7110
-21.2423 -14.2990 0.7210
-21.2268 -14.9882 0.7317
-21.2698 -15.7420 0.7451
-21.2533 -16.4771 0.7572
-21.2031 -17.2099 0.7689
-21.2186 -18.0234 0.7839
-21.2003 -18.8389 0.7986
-21.1483 -19.6553 0.8130
-21.1616 -20.5673 0.8309
-21.1410 -21.4861 0.8488
-21.1194 -22.4456 0.8678
-21.0969 -23.4497 0.8882
-21.0733 -24.5027 0.9100
-21.0156 -25.5693 0.9320
-20.9934 -26.7380 0.9572
-20.8813 -27.8543 0.9802
-20.9537 -29.2919 1.0141
5.3417 -28.8375 0.8258
5.4468 -26.1319 0.7516
5.5563 -23.9646 0.6927
5.6662 -22.1754 0.6445
5.7600 -20.6115 0.6026
5.8441 -19.2434 0.5663
5.9178 -18.0280 0.5343
5.9837 -16.9420 0.5059
6.0381 -15.9520 0.4803
6.0898 -15.0637 0.4575
6.1370 -14.2554 0.4370
6.1800 -13.5160 0.4185
6.2204 -12.8381 0.4017
6.2577 -12.2122 0.3864
6.2923 -11.6320 0.3724
6.3244 -11.0921 0.3595
6.3544 -10.5879 0.3477
6.3743 -10.1026 0.3364
6.3752 -9.6208 0.3250
6.3759 -9.1704 0.3145
6.3766 -8.7479 0.3048
6.3773 -8.3505 0.2959
6.3780 -7.9755 0.2876
6.3786 -7.6209 0.2798
6.3799 -7.2855 0.2727
6.3798 -6.9651 0.2660
6.3797 -6.6601 0.2597
6.3796 -6.3689 0.2538
6.3795 -6.0905 0.2483
6.3794 -5.8237 0.2432
6.3793 -5.5675 0.2384
6.3793 -5.3212 0.2339
6.3792 -5.0839 0.2297
6.3791 -4.8549 0.2257
6.3790 -4.6336 0.2220
6.3790 -4.4193 0.2185
6.3814 -4.2132 0.2153
6.3813 -4.0114 0.2122
6.3811 -3.8152 0.2093
6.3809 -3.6241 0.2066
6.3808 -3.4379 0.2041
6.3807 -3.2560 0.2017
6.3805 -3.0783 0.1995
6.3804 -2.9044 0.1974
6.3802 -2.7340 0.1955
6.3801 -2.5669 0.1936
6.3800 -2.4027 0.1920
6.3799 -2.2413 0.1904
6.3797 -2.0823 0.1890
6.3796 -1.9257 0.1876
6.3795 -1.7712 0.1864
6.3794 -1.6187 0.1853
6.3792 -1.4678 0.1843
6.3854 -1.3198 0.1836
6.3855 -1.1717 0.1828
6.3855 -1.0249 0.1821
6.3856 -0.8791 0.1815
6.3857 -0.7342 0.1810
6.3857 -0.5900 0.1806
6.3858 -0.4464 0.1802
6.3859 -0.3033 0.1800
6.3859 -0.1605 0.1799
6.3860 -0.0178 0.1798
6.3861 0.1248 0.1799
6.3861 0.2676 0.1800
6.3862 0.4107 0.1802
6.3863 0.5542 0.1805
6.3863 0.6982 0.1809
6.3864 0.8429 0.1814
6.3865 0.9885 0.1820
6.3865 1.1351 0.1826
6.3866 1.2829 0.1834
6.3867 1.4320 0.1843
