ply
format ascii 1.0
element vertex 2058
property float32 x
property float32 y
property float32 z
end_header
-23.5655 20.9118 2.1371
-24.0301 20.3836 2.1418
-24.4833 19.8452 2.1466
-24.9248 19.2972 2.1516
-25.3544 18.7396 2.1567
-25.7718 18.1727 2.1618
-26.1807 17.5992 2.1674
-26.6033 17.0335 2.1753
-27.0145 16.4581 2.1833
-27.4141 15.8734 2.1914
-27.8020 15.2794 2.1997
-28.1777 14.6765 2.2081
-28.5423 14.0653 2.2167
-28.9189 13.4569 2.2274
-29.2838 12.8393 2.2383
-29.6366 12.2125 2.2493
-29.9772 11.5768 2.2605
-30.3055 10.9324 2.2718
-20.1016 6.7481 1.4989
-30.9746 9.6341 2.2988
-31.2944 8.9723 2.3128
-27.3645 7.1883 2.0151
-27.2738 6.5170 2.0022
-27.2721 5.8761 1.9970
-27.2704 5.2414 1.9928
-27.2686 4.6121 1.9897
-27.2669 3.9877 1.9876
-27.2653 3.3674 1.9865
-27.2636 2.7506 1.9865
-27.2619 2.1367 1.9874
-27.2662 1.5253 1.9898
-27.2646 0.9150 1.9927
-27.2629 0.3057 1.9966
-27.2612 -0.3032 2.0016
-27.2596 -0.9124 2.0075
-27.2579 -1.5224 2.0144
-27.3735 -2.1431 2.0310
-34.8001 -3.5081 2.5937
-34.8437 -4.3007 2.6099
-34.7795 -5.0837 2.6194
-34.6002 -5.8496 2.6215
-34.4070 -6.6107 2.6238
-34.2001 -7.3667 2.6262
-33.9795 -8.1174 2.6289
-33.7456 -8.8628 2.6317
-33.4982 -9.6026 2.6347
-33.2375 -10.3367 2.6379
-32.9637 -11.0650 2.6412
-32.6769 -11.7871 2.6447
-32.4297 -12.5235 2.6527
-32.2426 -13.2863 2.6670
-32.0398 -14.0480 2.6815
-31.8212 -14.8083 2.6962
-31.5737 -15.5605 2.7099
-31.2874 -16.2980 2.7217
-30.9860 -17.0317 2.7337
-30.6695 -17.7613 2.7458
-30.3379 -18.4864 2.7580
-29.6618 -18.9960 2.7400
-27.4750 -18.4739 2.5806
-27.2037 -19.1878 2.5998
-27.2012 -20.1109 2.6470
-27.1986 -21.0648 2.6969
-27.1959 -22.0522 2.7499
-27.1931 -23.0759 2.8062
-26.8934 -23.8754 2.8346
-26.3879 -24.5024 2.8433
-25.8700 -25.1209 2.8521
-25.3400 -25.7310 2.8611
-24.7977 -26.3322 2.8702
-24.2435 -26.9244 2.8796
-23.6647 -27.4931 2.8875
-23.0748 -28.0519 2.8957
-22.4741 -28.6011 2.9040
-21.8627 -29.1406 2.9125
-21.2407 -29.6702 2.9213
-20.5758 -30.1422 2.9256
-19.8636 -30.5431 2.9244
-19.1450 -30.9291 2.9233
-18.7116 -31.7952 2.9684
-18.5469 -33.1907 3.0628
-17.7660 -33.5315 3.0602
-16.9805 -33.8570 3.0577
-16.1909 -34.1673 3.0553
-15.3972 -34.4621 3.0531
-14.5997 -34.7417 3.0509
-13.7987 -35.0060 3.0489
-12.9944 -35.2549 3.0470
-12.1868 -35.4886 3.0452
-11.3745 -35.7014 3.0431
-10.5585 -35.8945 3.0407
-9.7406 -36.0732 3.0385
-8.9210 -36.2371 3.0365
-8.0998 -36.3865 3.0347
-7.2772 -36.5213 3.0330
-6.4533 -36.6415 3.0315
-5.6283 -36.7472 3.0302
-4.8024 -36.8385 3.0291
-3.9756 -36.9151 3.0282
-3.1481 -36.9774 3.0274
-2.3200 -37.0251 3.0268
-1.4916 -37.0584 3.0264
-0.6629 -37.0772 3.0262
0.1658 -37.0815 3.0261
0.9946 -37.0714 3.0262
1.8232 -37.0468 3.0265
2.6513 -37.0077 3.0270
3.4792 -36.9542 3.0277
4.3064 -36.8862 3.0285
4.9053 -35.1724 2.8952
5.6936 -35.0749 2.8960
6.4805 -34.9627 2.8968
7.2298 -34.6632 2.8834
8.0103 -34.5261 2.8848
8.7741 -34.3159 2.8814
9.5066 -33.9962 2.8699
10.2330 -33.6729 2.8594
9.6739 -29.4508 2.5169
10.0969 -28.5685 2.4583
10.0499 -26.5328 2.3001
9.6573 -23.8718 2.0859
10.1534 -23.5687 2.0769
10.5650 -23.0899 2.0531
10.9430 -22.5690 2.0260
11.1422 -21.7289 1.9705
11.5263 -21.2925 1.9517
12.1035 -21.2123 1.9664
12.7391 -21.2106 1.9899
13.3919 -21.2088 2.0148
14.0632 -21.2070 2.0415
14.7547 -21.2051 2.0698
14.8229 -20.3191 2.0125
14.8203 -19.3903 1.9501
14.8180 -18.5146 1.8921
14.8157 -17.6867 1.8382
14.9533 -17.0615 1.8048
15.6393 -17.0597 1.8383
15.1812 -15.8345 1.7396
15.6336 -15.5935 1.7482
13.8754 -13.2347 1.5156
14.5606 -13.2797 1.5550
15.2583 -13.3039 1.5945
13.9103 -11.5918 1.4237
15.6783 -12.4822 1.5728
15.8256 -12.0317 1.5573
15.8443 -11.4966 1.5306
16.6098 -11.4945 1.5763
14.8266 -9.7779 1.3832
14.8231 -9.3072 1.3605
5.4470 -3.2528 0.4921
5.4994 -3.1195 0.4894
15.0600 -8.1034 1.3211
15.7295 -8.0158 1.3609
23.8181 -11.4749 2.0336
25.2370 -11.4710 2.1277
26.2616 -11.2358 2.1875
22.5552 -9.0595 1.8573
22.6115 -8.5005 1.8417
22.5735 -7.9154 1.8195
22.5555 -7.3475 1.8002
22.5411 -6.7898 1.7824
22.6985 -6.2877 1.7791
22.5487 -5.7071 1.7528
22.9505 -5.2662 1.7702
26.8820 -5.5395 2.0584
26.8789 -4.9157 2.0443
26.8589 -4.2944 2.0300
26.8224 -3.6761 2.0156
26.7692 -3.0614 2.0010
26.6996 -2.4507 1.9863
8.8711 -0.6148 0.6571
8.8705 -0.4160 0.6546
8.8700 -0.2176 0.6524
8.8694 -0.0194 0.6505
8.8689 0.1787 0.6490
8.8684 0.3770 0.6477
8.8678 0.5756 0.6468
8.8673 0.7748 0.6463
8.9425 0.9830 0.6515
8.9420 1.1856 0.6516
8.9414 1.3894 0.6520
8.9409 1.5946 0.6527
8.9403 1.8013 0.6538
8.9397 2.0099 0.6552
8.8673 2.2028 0.6517
8.8628 2.4130 0.6535
8.8622 2.6267 0.6560
8.8616 2.8433 0.6589
8.8610 3.0630 0.6621
8.8604 3.2861 0.6657
8.8598 3.5128 0.6698
8.8592 3.7436 0.6742
8.8585 3.9787 0.6791
8.8579 4.2185 0.6845
8.8572 4.4635 0.6903
8.8565 4.7140 0.6966
8.8558 4.9705 0.7035
8.8551 5.2335 0.7109
8.8544 5.5034 0.7189
8.8536 5.7809 0.7275
8.8032 6.0325 0.7326
8.8650 6.3704 0.7477
8.8658 6.6761 0.7585
8.8651 6.9910 0.7700
8.8589 7.3128 0.7818
8.8485 7.6427 0.7941
8.8476 7.9936 0.8081
8.8466 8.3589 0.8232
8.8455 8.7399 0.8394
8.6268 8.9130 0.8358
8.1331 8.7873 0.8052
7.7753 8.7864 0.7876
7.4314 8.7854 0.7710
7.1004 8.7845 0.7555
6.7812 8.7836 0.7410
6.6644 9.0428 0.7488
6.6632 9.4771 0.7710
6.6620 9.9397 0.7951
6.7361 10.5523 0.8306
6.7347 11.0883 0.8595
6.6875 11.5859 0.8850
6.6559 12.1498 0.9152
6.6580 12.8249 0.9534
6.6521 13.5446 0.9944
6.6516 14.3443 1.0406
6.6476 15.2166 1.0916
6.6666 16.2391 1.1528
6.6420 17.2665 1.2136
9.7974 27.2709 1.8990
5.5528 16.6126 1.1469
9.3022 30.0446 2.0575
8.6804 30.4240 2.0680
8.0475 30.7957 2.0790
7.4052 31.1658 2.0909
6.7609 31.5718 2.1062
6.1135 32.0244 2.1255
5.4862 32.6835 2.1595
4.8725 33.6064 2.2118
4.1692 34.0998 2.2367
3.4107 34.2221 2.2385
2.6488 34.3261 2.2403
1.8839 34.4114 2.2422
1.1164 34.4781 2.2441
0.3468 34.5260 2.2460
-0.4242 34.5470 2.2474
-1.1951 34.5271 2.2474
-1.9654 34.4884 2.2475
-2.7344 34.4310 2.2476
-3.5016 34.3553 2.2478
-4.2666 34.2609 2.2480
-5.0290 34.1479 2.2483
-5.7882 34.0167 2.2486
-6.5439 33.8673 2.2489
-7.2954 33.6996 2.2493
-8.0424 33.5140 2.2498
-8.7843 33.3104 2.2503
-9.5208 33.0891 2.2508
-10.2514 32.8502 2.2514
-10.9756 32.5939 2.2520
-11.6894 32.3101 2.2520
-12.3936 32.0046 2.2516
-13.0894 31.6828 2.2514
-13.7766 31.3446 2.2511
-14.4548 30.9904 2.2509
-15.1235 30.6206 2.2507
-15.7824 30.2353 2.2506
-16.4310 29.8349 2.2505
-17.0691 29.4195 2.2505
-17.6963 28.9897 2.2505
-18.3122 28.5457 2.2505
-18.8865 28.0430 2.2470
-19.4213 27.4921 2.2406
-19.9475 26.9399 2.2349
-20.4674 26.3891 2.2303
-19.7513 24.3245 2.0962
-20.2840 23.8711 2.0993
-20.8091 23.4094 2.1029
-21.3391 22.9524 2.1080
-21.9072 22.5331 2.1179
-22.4296 22.0627 2.1243
-22.9446 21.5831 2.1311
-23.4239 21.0683 2.1357
-23.8919 20.5431 2.1404
-24.3486 20.0078 2.1452
-24.7936 19.4627 2.1501
-25.2268 18.9079 2.1551
-25.6479 18.3438 2.1603
-26.0568 17.7705 2.1655
-26.4777 17.2042 2.1729
-26.8923 16.6317 2.1808
-27.2955 16.0498 2.1889
-27.6868 15.4586 2.1972
-28.0663 14.8583 2.2056
-28.4336 14.2492 2.2141
-28.8071 13.6404 2.2242
-29.1756 13.0255 2.2350
-29.5320 12.4014 2.2460
-29.8764 11.7684 2.2571
-30.2084 11.1266 2.2684
-30.5402 10.4806 2.2808
-30.8762 9.8309 2.2946
-31.1998 9.1719 2.3086
-27.5796 7.4427 2.0330
-27.2744 6.7107 2.0040
-27.2726 6.0677 1.9984
-27.2709 5.4312 1.9939
-27.2692 4.8004 1.9905
-27.2675 4.1746 1.9881
-27.2658 3.5531 1.9867
-27.2641 2.9354 1.9864
-27.2624 2.3206 1.9870
-27.2667 1.7086 1.9891
-27.2651 1.0979 1.9917
-27.2634 0.4884 1.9954
-27.2617 -0.1206 2.0000
-27.2601 -0.7296 2.0056
-27.2584 -1.3394 2.0122
-27.2746 -1.9516 2.0212
-34.7837 -3.2712 2.5888
-34.8324 -4.0624 2.6050
-34.8307 -4.8530 2.6188
-34.6554 -5.6203 2.6208
-34.4664 -6.3828 2.6231
-34.2636 -7.1403 2.6255
-34.0471 -7.8927 2.6280
-33.8172 -8.6397 2.6308
-33.5738 -9.3812 2.6338
-33.3172 -10.1171 2.6369
-33.0472 -10.8471 2.6402
-32.7642 -11.5711 2.6437
-32.4684 -12.2891 2.6473
-32.3004 -13.0577 2.6627
-32.1023 -13.8198 2.6772
-31.8884 -14.5805 2.6918
-31.6565 -15.3386 2.7063
-31.3748 -16.0772 2.7181
-31.0780 -16.8121 2.7301
-30.7660 -17.5429 2.7421
-30.4390 -18.2693 2.7544
-30.0812 -18.9814 2.7653
-20.0364 -13.2781 1.8724
-27.2045 -18.9164 2.5862
-27.2020 -19.8308 2.6325
-27.1994 -20.7752 2.6816
-27.1967 -21.7522 2.7337
-27.1940 -22.7647 2.7889
-27.0428 -23.6856 2.8321
-26.5409 -24.3151 2.8407
-26.0267 -24.9363 2.8494
-25.5002 -25.5489 2.8584
-24.9616 -26.1528 2.8675
-24.4110 -26.7478 2.8768
-23.8395 -27.3237 2.8851
-23.2529 -27.8853 2.8932
-22.6554 -28.4374 2.9015
-22.0472 -28.9798 2.9100
-21.4284 -29.5124 2.9186
-20.7881 -30.0191 2.9260
-20.0780 -30.4244 2.9248
-19.3613 -30.8148 2.9236
-18.7197 -31.3264 2.9353
-18.6950 -32.9350 3.0496
-18.0008 -33.4309 3.0609
-17.2167 -33.7610 3.0584
-16.4283 -34.0758 3.0560
-15.6358 -34.3753 3.0537
-14.8394 -34.6595 3.0516
-14.0394 -34.9283 3.0495
-13.2359 -35.1819 3.0476
-12.4293 -35.4201 3.0458
-11.6188 -35.6406 3.0438
-10.8034 -35.8382 3.0414
-9.9861 -36.0211 3.0392
-9.1670 -36.1894 3.0371
-8.3462 -36.3432 3.0352
-7.5240 -36.4823 3.0335
-6.7005 -36.6070 3.0319
-5.8760 -36.7171 3.0306
-5.0503 -36.8126 3.0294
-4.2237 -36.8937 3.0284
-3.3965 -36.9603 3.0276
-2.5686 -37.0123 3.0270
-1.7403 -37.0499 3.0265
-0.9116 -37.0731 3.0262
-0.0829 -37.0817 3.0261
0.7459 -37.0760 3.0262
1.5746 -37.0556 3.0264
2.4030 -37.0210 3.0269
3.2310 -36.9718 3.0275
4.0584 -36.9081 3.0282
4.7143 -35.5418 2.9233
5.4573 -35.1057 2.8958
6.2446 -34.9979 2.8966
6.9954 -34.7016 2.8830
7.7764 -34.5687 2.8844
5.7457 -23.1159 1.9380
9.2879 -34.0937 2.8733
10.0142 -33.7655 2.8621
9.5123 -29.6275 2.5270
10.1122 -29.2346 2.5103
10.0633 -27.1159 2.3453
9.5654 -24.1084 2.1014
9.9368 -23.4984 2.0653
10.4497 -23.2488 2.0615
10.8306 -22.7240 2.0340
11.2023 -22.2118 2.0080
11.4118 -21.4226 1.9572
11.9161 -21.2128 1.9597
12.5468 -21.2111 1.9827
13.1943 -21.2093 2.0072
13.8599 -21.2075 2.0333
14.5451 -21.2056 2.0611
14.8237 -20.6089 2.0321
14.8211 -19.6630 1.9683
15.0471 -19.0613 1.9385
14.8164 -17.9304 1.8540
14.8142 -17.1332 1.8027
15.4306 -17.0602 1.8280
15.1855 -16.0531 1.7532
15.4369 -15.6052 1.7387
15.8197 -15.2930 1.7400
14.5546 -13.4541 1.5647
14.9674 -13.2279 1.5742
15.5458 -13.1323 1.6009
15.5792 -12.5750 1.5722
15.0093 -11.5708 1.4854
15.7063 -11.5580 1.5256
16.3752 -11.4952 1.5622
14.8267 -9.9212 1.3903
14.8165 -9.4421 1.3664
5.4748 -3.3193 0.4969
5.4731 -3.1532 0.4893
14.9436 -8.1704 1.3165
15.4699 -8.0145 1.3439
23.4178 -11.4760 2.0072
24.7969 -11.4722 2.0984
26.2231 -11.4279 2.1921
22.5557 -9.2357 1.8636
22.6168 -8.6760 1.8480
22.5883 -8.0910 1.8263
22.5614 -7.5171 1.8060
22.5439 -6.9558 1.7875
22.5395 -6.4067 1.7712
22.5491 -5.8683 1.7571
22.5833 -5.3416 1.7458
26.8796 -5.7269 2.0626
26.8813 -5.1024 2.0485
26.8663 -4.4803 2.0343
26.8345 -3.8611 2.0199
26.7862 -3.2453 2.0053
26.7216 -2.6334 1.9906
26.6407 -2.0258 1.9758
8.8707 -0.4756 0.6553
8.8701 -0.2770 0.6530
8.8696 -0.0788 0.6510
8.8691 0.1193 0.6494
8.8685 0.3175 0.6481
8.8680 0.5160 0.6471
8.8674 0.7149 0.6464
8.9427 0.9224 0.6516
8.9421 1.1247 0.6515
8.9416 1.3281 0.6518
8.9410 1.5328 0.6525
8.9405 1.7391 0.6534
8.9399 1.9471 0.6548
8.8717 2.1409 0.6515
8.8630 2.3494 0.6529
8.8624 2.5624 0.6552
8.8618 2.7781 0.6580
8.8612 2.9968 0.6611
8.8606 3.2188 0.6646
8.8600 3.4444 0.6685
8.8593 3.6739 0.6728
8.8587 3.9077 0.6776
8.8581 4.1460 0.6828
8.8574 4.3894 0.6885
8.8567 4.6382 0.6947
8.8576 4.8937 0.7015
8.8553 5.1539 0.7086
8.8546 5.4217 0.7164
8.8538 5.6968 0.7248
8.8531 5.9800 0.7339
8.8548 6.2736 0.7438
8.8660 6.5836 0.7552
8.8653 6.8954 0.7664
8.8646 7.2182 0.7785
8.8488 7.5401 0.7900
8.8478 7.8869 0.8038
8.8469 8.2478 0.8186
8.8458 8.6239 0.8345
8.7434 8.9134 0.8417
8.2433 8.7876 0.8107
7.8812 8.7866 0.7927
7.5332 8.7857 0.7759
7.1985 8.7848 0.7601
6.8758 8.7839 0.7452
6.6648 8.9175 0.7425
6.6636 9.3439 0.7642
6.6623 9.7977 0.7877
6.6645 10.2875 0.8136
6.7351 10.9234 0.8506
6.7336 11.4873 0.8813
6.6565 11.9599 0.9046
6.6547 12.6113 0.9412
6.6527 13.3197 0.9815
6.6506 14.0941 1.0261
6.6483 14.9448 1.0757
6.6671 15.9358 1.1347
6.6070 16.8382 1.1869
6.6397 18.0998 1.2638
10.0926 29.5356 2.0442
9.4869 29.9305 2.0545
8.8679 30.3102 2.0648
8.2383 30.6841 2.0756
7.5984 31.0526 2.0871
6.9525 31.4367 2.1006
6.3065 31.8746 2.1187
5.6732 32.4641 2.1478
5.0601 33.3262 2.1958
4.3960 34.0595 2.2362
3.6387 34.1873 2.2380
2.8778 34.2969 2.2398
2.1137 34.3878 2.2416
1.3468 34.4601 2.2435
0.5778 34.5135 2.2454
-0.1930 34.5486 2.2474
-0.9640 34.5350 2.2474
-1.7345 34.5019 2.2475
-2.5039 34.4502 2.2476
-3.2717 34.3799 2.2477
-4.0375 34.2911 2.2479
-4.8006 34.1838 2.2482
-5.5608 34.0581 2.2485
-6.3175 33.9140 2.2488
-7.0703 33.7518 2.2492
-7.8187 33.5715 2.2496
-8.5622 33.3734 2.2501
-9.3004 33.1574 2.2507
-10.0328 32.9237 2.2512
-10.7590 32.6727 2.2518
-11.4765 32.3984 2.2521
-12.1831 32.0980 2.2517
-12.8816 31.7811 2.2514
-13.5715 31.4477 2.2512
-14.2524 31.0983 2.2510
-14.9240 30.7331 2.2508
-15.5858 30.3524 2.2506
-16.2376 29.9565 2.2505
-16.8788 29.5456 2.2505
-17.5094 29.1201 2.2505
-18.1286 28.6804 2.2505
-18.7247 28.2085 2.2491
-19.2614 27.6569 2.2424
-19.7911 27.1065 2.2366
-20.3142 26.5571 2.2318
-19.5927 24.4624 2.0956
-20.1241 24.0071 2.0983
-20.6532 23.5497 2.1018
-21.1760 23.0852 2.1059
-21.7380 22.6609 2.1149
-22.2722 22.2038 2.1222
-22.7927 21.7298 2.1292
-23.2812 21.2238 2.1343
-23.7527 20.7017 2.1390
-24.2128 20.1694 2.1437
-24.6614 19.6272 2.1486
-25.0981 19.0753 2.1536
-25.5229 18.5139 2.1587
-25.9355 17.9434 2.1639
-26.3512 17.3740 2.1705
-26.7691 16.8045 2.1784
-27.1758 16.2254 2.1865
-27.5707 15.6369 2.1947
-27.9537 15.0394 2.2030
-28.3246 14.4329 2.2115
-28.6943 13.8231 2.2210
-29.0663 13.2110 2.2317
-29.4264 12.5896 2.2426
-29.7744 11.9593 2.2537
-30.1101 11.3200 2.2650
-30.4371 10.6736 2.2767
-20.1611 6.5683 1.5004
-31.1040 9.3705 2.3044
-31.4189 8.7050 2.3185
-27.2749 6.9049 2.0059
-27.2731 6.2598 2.0000
-27.2714 5.6215 1.9952
-27.2697 4.9890 1.9914
-27.2680 4.3618 1.9887
-27.2663 3.7392 1.9870
-27.2646 3.1204 1.9864
-27.2629 2.5048 1.9867
-27.2672 1.8922 1.9885
-27.2656 1.2810 1.9908
-27.2639 0.6712 1.9942
-27.2622 0.0621 1.9985
-27.2606 -0.5468 2.0038
-27.2589 -1.1563 2.0101
-27.2572 -1.7668 2.0175
-27.6446 -2.4130 2.0547
-34.8196 -3.8247 2.6002
-34.8564 -4.6188 2.6164
-34.7094 -5.3907 2.6202
-34.5245 -6.1547 2.6224
-34.3258 -6.9137 2.6247
-34.1135 -7.6676 2.6273
-33.8876 -8.4162 2.6300
-33.6482 -9.1594 2.6329
-33.3955 -9.8969 2.6359
-33.1296 -10.6287 2.6392
-32.8506 -11.3545 2.6426
-32.5585 -12.0743 2.6462
-32.3567 -12.8288 2.6584
-32.1634 -13.5912 2.6728
-31.9542 -14.3523 2.6874
-31.7293 -15.1120 2.7021
-31.4609 -15.8559 2.7146
-31.1686 -16.5920 2.7265
-30.8612 -17.3240 2.7385
-30.5386 -18.0519 2.7507
-30.1943 -18.7710 2.7624
-20.1503 -13.1601 1.8737
-27.2911 -18.7066 2.5810
-27.2027 -19.5535 2.6184
-27.2002 -20.4886 2.6666
-27.1976 -21.4557 2.7178
-27.1948 -22.4572 2.7720
-27.1909 -23.4952 2.8295
-26.6928 -24.1271 2.8381
-26.1822 -24.7508 2.8468
-25.6595 -25.3660 2.8557
-25.1245 -25.9726 2.8647
-24.5774 -26.5702 2.8740
-24.0134 -27.1533 2.8828
-23.4301 -27.7178 2.8908
-22.8358 -28.2727 2.8990
-22.2308 -28.8181 2.9074
-21.6152 -29.3536 2.9160
-20.9889 -29.8792 2.9248
-20.2916 -30.3043 2.9251
-19.5769 -30.6993 2.9240
-18.8558 -31.0793 2.9229
-18.7022 -32.4394 3.0142
-18.2351 -33.3289 3.0617
-17.4523 -33.6636 3.0591
-16.6652 -33.9830 3.0567
-15.8738 -34.2871 3.0544
-15.0788 -34.5758 3.0522
-14.2798 -34.8492 3.0501
-13.4774 -35.1074 3.0481
-12.6717 -35.3502 3.0463
-11.8629 -35.5777 3.0446
-11.0483 -35.7804 3.0421
-10.2315 -35.9678 3.0398
-9.4129 -36.1405 3.0377
-8.5927 -36.2986 3.0357
-7.7709 -36.4422 3.0340
-6.9478 -36.5711 3.0324
-6.1234 -36.6856 3.0310
-5.2980 -36.7855 3.0298
-4.4717 -36.8709 3.0287
-3.6446 -36.9418 3.0278
-2.8169 -36.9982 3.0271
-1.9887 -37.0402 3.0266
-1.1602 -37.0677 3.0263
-0.3314 -37.0806 3.0261
0.4972 -37.0792 3.0261
1.3259 -37.0633 3.0263
2.1545 -37.0329 3.0267
2.9826 -36.9881 3.0273
3.8102 -36.9288 3.0280
4.6371 -36.8550 3.0289
5.2208 -35.1351 2.8955
6.0085 -35.0318 2.8963
6.7948 -34.9139 2.8972
7.5422 -34.6100 2.8839
5.5786 -23.1046 1.9342
9.0682 -34.1895 2.8768
9.7973 -33.8651 2.8654
10.5219 -33.5428 2.8555
9.9470 -29.3929 2.5187
10.0773 -27.7218 2.3924
9.5667 -24.5913 2.1384
9.8177 -23.6575 2.0740
10.3336 -23.4088 2.0701
10.7174 -22.8800 2.0421
11.0917 -22.3642 2.0157
11.2966 -21.5535 1.9628
11.7299 -21.2133 1.9531
12.3558 -21.2116 1.9756
12.9981 -21.2099 1.9997
13.6581 -21.2081 2.0253
14.3373 -21.2062 2.0526
15.0486 -21.2203 2.0832
14.8218 -19.9408 1.9870
14.8411 -19.0619 1.9292
14.8170 -18.1779 1.8701
14.8148 -17.3678 1.8177
15.2245 -17.0608 1.8179
15.8242 -16.9545 1.8409
15.2376 -15.6116 1.7289
15.8202 -15.5000 1.7523
14.5523 -13.6340 1.5751
14.8109 -13.2674 1.5679
15.4944 -13.2678 1.6056
15.5439 -12.7195 1.5780
14.7559 -11.5340 1.4688
15.5449 -11.6007 1.5183
16.1448 -11.4958 1.5484
14.8199 -10.0612 1.3967
14.8283 -9.5900 1.3743
14.8265 -9.1256 1.3521
5.4568 -3.1928 0.4900
5.5658 -3.0917 0.4924
15.2795 -8.0463 1.3328
23.0280 -11.4770 1.9816
24.3697 -11.4734 2.0700
25.8440 -11.4694 2.1682
22.5561 -9.4129 1.8701
22.5421 -8.8211 1.8480
22.6017 -8.2671 1.8331
22.5674 -7.6875 1.8118
22.5474 -7.1227 1.7928
22.5375 -6.5696 1.7757
22.5496 -6.0301 1.7615
22.5498 -5.4935 1.7473
24.1311 -5.3107 1.8557
26.8828 -5.2896 2.0528
26.8727 -4.6668 2.0386
26.8458 -4.0466 2.0242
26.8024 -3.4297 2.0097
26.7425 -2.8165 1.9950
26.6665 -2.2076 1.9803
8.8708 -0.5352 0.6561
8.8703 -0.3366 0.6537
8.8698 -0.1383 0.6516
8.8692 0.0599 0.6498
8.8687 0.2580 0.6484
8.8681 0.4564 0.6473
8.8676 0.6552 0.6466
8.8720 0.8551 0.6465
8.9423 1.0640 0.6515
8.9418 1.2670 0.6517
8.9412 1.4713 0.6522
8.9406 1.6770 0.6531
8.9401 1.8845 0.6543
8.9395 2.0939 0.6559
8.8631 2.2860 0.6522
8.8626 2.4982 0.6545
8.8620 2.7130 0.6571
8.8614 2.9308 0.6601
8.8608 3.1518 0.6635
8.8644 3.3779 0.6676
8.8595 3.6046 0.6715
8.8589 3.8371 0.6761
8.8583 4.0740 0.6812
8.8576 4.3159 0.6867
8.8569 4.5630 0.6928
8.8612 4.8186 0.6997
8.8555 5.0749 0.7064
8.8548 5.3406 0.7140
8.8541 5.6135 0.7222
8.8533 5.8942 0.7311
8.8525 6.1832 0.7406
8.8662 6.4920 0.7520
8.8655 6.8007 0.7630
8.8648 7.1202 0.7748
8.7994 7.3968 0.7817
8.8481 7.7814 0.7996
8.8472 8.1380 0.8141
8.8462 8.5093 0.8296
8.8617 8.9137 0.8478
8.3664 8.8000 0.8175
7.9882 8.7869 0.7980
7.6361 8.7860 0.7808
7.2975 8.7850 0.7647
6.9713 8.7842 0.7496
6.6651 8.7946 0.7363
6.6640 9.2133 0.7575
6.6627 9.6586 0.7804
6.6614 10.1334 0.8053
6.7356 10.7622 0.8419
6.7340 11.3137 0.8718
6.6570 11.7745 0.8943
6.6552 12.4101 0.9298
6.6533 13.1007 0.9690
6.6513 13.8542 1.0122
6.6490 14.6808 1.0602
6.5971 15.4764 1.1055
6.6659 16.6594 1.1778
6.6407 17.7342 1.2417
10.2721 29.4154 2.0411
5.4128 16.6881 1.1483
9.0546 30.1966 2.0616
8.4286 30.5739 2.0724
7.7915 30.9429 2.0836
7.1480 31.3246 2.0966
6.4994 31.7324 2.1124
5.8603 32.2593 2.1371
5.2444 33.0482 2.1800
4.6108 33.9325 2.2301
3.8662 34.1509 2.2375
3.1065 34.2659 2.2392
2.3432 34.3625 2.2411
1.5772 34.4404 2.2429
0.8088 34.4995 2.2448
0.0385 34.5398 2.2468
-0.7326 34.5412 2.2474
-1.5034 34.5138 2.2475
-2.2732 34.4677 2.2475
-3.0415 34.4029 2.2477
-3.8079 34.3196 2.2479
-4.5719 34.2179 2.2481
-5.3331 34.0976 2.2484
-6.0910 33.9591 2.2487
-6.8450 33.8023 2.2491
-7.5947 33.6275 2.2495
-8.3398 33.4347 2.2500
-9.0796 33.2240 2.2505
-9.8138 32.9956 2.2510
-10.5419 32.7497 2.2517
-11.2634 32.4866 2.2523
-11.9719 32.1900 2.2518
-12.6729 31.8779 2.2515
-13.3654 31.5495 2.2512
-14.0490 31.2049 2.2510
-14.7234 30.8444 2.2508
-15.3883 30.4683 2.2507
-16.0430 30.0769 2.2506
-16.6875 29.6704 2.2505
-17.3213 29.2492 2.2505
-17.9440 28.8138 2.2505
-18.5554 28.3641 2.2505
-19.0995 27.8198 2.2441
-19.6328 27.2710 2.2382
-20.1535 26.7160 2.2327
-20.6711 26.1659 2.2285
-19.9635 24.1420 2.0972
-20.4960 23.6886 2.1008
-21.0166 23.2216 2.1043
-21.5683 22.7875 2.1120
-22.1144 22.3438 2.1202
-22.6374 21.8731 2.1271
-23.1376 21.3784 2.1329
-23.6124 20.8594 2.1375
-24.0759 20.3302 2.1423
-24.5280 19.7909 2.1471
-24.9683 19.2419 2.1521
-25.3968 18.6834 2.1572
-25.8130 18.1155 2.1624
-26.2235 17.5431 2.1682
-26.6449 16.9763 2.1761
-27.0551 16.4000 2.1841
-27.4535 15.8143 2.1922
-27.8401 15.2195 2.2005
-28.2147 14.6157 2.2089
-28.5805 14.0049 2.2178
-28.9559 13.3955 2.2285
-29.3196 12.7769 2.2394
-29.6713 12.1493 2.2504
-30.0106 11.5128 2.2616
-30.3376 10.8675 2.2729
-20.0814 6.6915 1.4967
-31.0071 9.5684 2.3002
-31.3257 8.9056 2.3142
-27.3249 7.1127 2.0115
-27.2737 6.4527 2.0016
-27.2719 5.8124 1.9965
-27.2702 5.1782 1.9924
-27.2685 4.5495 1.9894
-27.2668 3.9255 1.9874
-27.2651 3.3056 1.9865
-27.2634 2.6891 1.9865
-27.2617 2.0754 1.9876
-27.2661 1.4641 1.9900
-27.2644 0.8540 1.9931
-27.2627 0.2447 1.9971
-27.2611 -0.3642 2.0021
-27.2594 -0.9734 2.0081
-27.2577 -1.5835 2.0151
-27.4066 -2.2073 2.0344
-34.8053 -3.5871 2.5953
-34.8472 -4.3801 2.6115
-34.7623 -5.1605 2.6196
-34.5815 -5.9259 2.6217
-34.3869 -6.6865 2.6240
-34.1786 -7.4419 2.6265
-33.9567 -8.1922 2.6291
-33.7214 -8.9370 2.6320
-33.4727 -9.6763 2.6350
-33.2108 -10.4098 2.6382
-32.9356 -11.1375 2.6416
-32.6475 -11.8591 2.6451
-32.4117 -12.6000 2.6542
-32.2230 -13.3627 2.6685
-32.0186 -14.1242 2.6830
-31.7984 -14.8844 2.6976
-31.5457 -15.6345 2.7110
-31.2579 -16.3715 2.7229
-30.9550 -17.1048 2.7349
-30.6370 -17.8339 2.7470
-30.3039 -18.5587 2.7593
-29.5203 -18.9985 2.7314
-27.4145 -18.5223 2.5793
-27.2035 -19.2787 2.6044
-27.2010 -20.2048 2.6518
-27.1984 -21.1620 2.7021
-27.1957 -22.1529 2.7554
-27.1929 -23.1803 2.8120
-26.8435 -23.9384 2.8355
-26.3366 -24.5646 2.8442
-25.8176 -25.1824 2.8530
-25.2862 -25.7916 2.8620
-24.7428 -26.3919 2.8712
-24.1863 -26.9822 2.8804
-23.6061 -27.5495 2.8883
-23.0151 -28.1073 2.8965
-22.4134 -28.6555 2.9048
-21.8010 -29.1939 2.9134
-21.1780 -29.7226 2.9222
-20.5048 -30.1829 2.9255
-19.7921 -30.5823 2.9243
-19.0728 -30.9669 2.9232
-18.7093 -31.9545 2.9797
-18.4691 -33.2255 3.0625
-17.6877 -33.5648 3.0599
-16.9018 -33.8888 3.0574
-16.1117 -34.1975 3.0551
-15.3176 -34.4908 3.0528
-14.5198 -34.7688 3.0507
-13.7184 -35.0316 3.0487
-12.9136 -35.2790 3.0468
-12.1057 -35.5111 3.0451
-11.2929 -35.7213 3.0429
-10.4767 -35.9131 3.0405
-9.6586 -36.0902 3.0383
-8.8388 -36.2527 3.0363
-8.0177 -36.4006 3.0345
-7.1949 -36.5340 3.0328
-6.3709 -36.6527 3.0314
-5.5458 -36.7570 3.0301
-4.7198 -36.8468 3.0290
-3.8929 -36.9221 3.0281
-3.0653 -36.9828 3.0273
-2.2373 -37.0291 3.0268
-1.4088 -37.0609 3.0264
-0.5801 -37.0782 3.0261
0.2487 -37.0811 3.0261
1.0774 -37.0696 3.0263
1.9060 -37.0435 3.0266
2.7343 -37.0030 3.0271
3.5620 -36.9481 3.0277
4.3892 -36.8786 3.0286
4.9844 -35.1633 2.8953
5.7725 -35.0643 2.8961
6.5592 -34.9508 2.8969
7.3079 -34.6501 2.8835
8.0883 -34.5117 2.8849
8.8478 -34.2847 2.8802
9.5794 -33.9636 2.8688
10.3081 -33.6498 2.8592
9.7294 -29.3979 2.5140
10.0919 -28.3526 2.4415
10.0455 -26.3435 2.2855
9.6976 -23.8180 2.0829
10.2165 -23.5701 2.0788
10.6032 -23.0372 2.0503
10.9803 -22.5176 2.0234
11.1809 -21.6850 1.9685
11.5644 -21.2492 1.9499
12.1664 -21.2121 1.9687
12.8037 -21.2104 1.9923
13.4583 -21.2086 2.0174
14.1316 -21.2068 2.0442
14.8251 -21.2049 2.0728
14.8226 -20.2235 2.0060
14.8201 -19.3005 1.9441
14.8177 -18.4297 1.8866
14.8155 -17.6064 1.8330
15.0207 -17.0614 1.8080
15.7095 -17.0595 1.8417
15.1797 -15.7624 1.7351
15.6997 -15.5896 1.7514
13.8960 -13.1952 1.5144
14.5888 -13.2459 1.5545
15.2389 -13.2272 1.5892
13.9102 -11.5391 1.4208
15.7112 -12.4512 1.5730
15.2747 -11.5592 1.5003
15.9188 -11.4964 1.5350
14.8197 -10.2068 1.4040
14.8270 -9.7306 1.3810
14.8267 -9.2633 1.3586
5.4406 -3.2324 0.4908
5.5159 -3.1126 0.4902
15.1094 -8.0866 1.3235
15.8391 -8.0271 1.3685
23.9540 -11.4745 2.0426
25.3864 -11.4706 2.1376
26.2727 -11.1712 2.1858
22.5550 -9.0010 1.8552
22.6092 -8.4421 1.8395
22.5715 -7.8581 1.8175
22.5534 -7.2912 1.7984
22.5397 -6.7345 1.7807
22.5371 -6.1889 1.7649
22.5486 -5.6535 1.7514
22.9597 -5.2144 1.7696
26.8827 -5.4769 2.0570
26.8779 -4.8533 2.0429
26.8562 -4.2323 2.0286
26.8177 -3.6144 2.0141
26.7627 -3.0001 1.9995
26.6914 -2.3898 1.9847
8.8710 -0.5949 0.6568
8.8705 -0.3961 0.6544
8.8699 -0.1977 0.6522
8.8694 0.0004 0.6503
8.8688 0.1985 0.6488
8.8683 0.3968 0.6476
8.8678 0.5955 0.6468
8.8681 0.7948 0.6463
8.9425 1.0032 0.6515
8.9419 1.2059 0.6516
8.9414 1.4098 0.6521
8.9408 1.6152 0.6528
8.9402 1.8221 0.6539
8.9397 2.0309 0.6554
8.8659 2.2235 0.6518
8.8627 2.4343 0.6538
8.8622 2.6483 0.6563
8.8616 2.8652 0.6592
8.8610 3.0852 0.6624
8.8614 3.3089 0.6662
8.8597 3.5357 0.6702
8.8591 3.7669 0.6747
8.8585 4.0024 0.6796
8.8578 4.2428 0.6850
8.8571 4.4883 0.6909
8.8564 4.7394 0.6973
8.8557 4.9965 0.7042
8.8550 5.2601 0.7117
8.8543 5.5308 0.7197
8.8535 5.8091 0.7284
8.8031 6.0614 0.7335
8.8664 6.4014 0.7489
8.8657 6.7071 0.7596
8.8650 7.0232 0.7712
8.8549 7.3428 0.7827
8.8484 7.6772 0.7954
8.8475 8.0295 0.8096
8.8465 8.3963 0.8248
8.8454 8.7789 0.8411
8.5882 8.9129 0.8338
8.0967 8.7872 0.8034
7.7403 8.7863 0.7859
7.3978 8.7853 0.7694
7.0680 8.7844 0.7540
6.7499 8.7835 0.7396
6.6643 9.0850 0.7510
6.6631 9.5220 0.7733
6.6618 9.9876 0.7976
6.7360 10.6042 0.8334
6.7345 11.1440 0.8625
6.6648 11.6062 0.8853
6.6558 12.2141 0.9188
6.6539 12.8874 0.9568
6.6519 13.6211 0.9988
6.6497 14.4246 1.0453
6.6473 15.3093 1.0971
6.6664 16.3426 1.1589
6.6416 17.3815 1.2205
9.7421 27.3085 1.9000
5.5134 16.6179 1.1463
9.2404 30.0824 2.0585
8.6176 30.4615 2.0691
7.9836 30.8320 2.0801
7.3405 31.2028 2.0921
6.6952 31.6094 2.1075
6.0491 32.0755 2.1279
5.4261 32.7734 2.1646
4.8129 33.7249 2.2188
4.0936 34.1129 2.2369
3.3347 34.2334 2.2387
2.5725 34.3354 2.2405
1.8072 34.4190 2.2424
1.0394 34.4837 2.2443
0.2697 34.5297 2.2462
-0.5014 34.5459 2.2474
-1.2723 34.5240 2.2474
-2.0425 34.4835 2.2475
-2.8111 34.4243 2.2476
-3.5782 34.3466 2.2478
-4.3430 34.2504 2.2480
-5.1051 34.1357 2.2483
-5.8639 34.0026 2.2486
-6.6192 33.8513 2.2490
-7.3702 33.6819 2.2494
-8.1167 33.4944 2.2498
-8.8582 33.2891 2.2503
-9.5941 33.0660 2.2509
-10.3241 32.8254 2.2515
-11.0477 32.5674 2.2521
-11.7601 32.2803 2.2519
-12.4635 31.9732 2.2516
-13.1586 31.6497 2.2513
-13.8450 31.3099 2.2511
-14.5222 30.9542 2.2509
-15.1899 30.5827 2.2507
-15.8478 30.1959 2.2506
-16.4954 29.7939 2.2505
-17.1323 29.3772 2.2505
-17.7583 28.9459 2.2505
-18.3732 28.5005 2.2505
-18.9390 27.9860 2.2462
-19.4739 27.4363 2.2399
-19.9998 26.8849 2.2344
-20.5166 26.3310 2.2297
-19.8043 24.2790 2.0964
-20.3371 23.8257 2.0997
-20.8609 23.3623 2.1032
-21.3963 22.9112 2.1090
-21.9620 22.4885 2.1187
-22.4816 22.0155 2.1250
-22.9931 21.5320 2.1316
-23.4712 21.0161 2.1362
-23.9382 20.4900 2.1409
-24.3936 19.9537 2.1457
-24.8375 19.4075 2.1506
-25.2694 18.8518 2.1556
-25.6893 18.2868 2.1608
-26.0970 17.7127 2.1661
-26.5196 17.1474 2.1737
-26.9332 16.5739 2.1816
-27.3351 15.9910 2.1897
-27.7254 15.3990 2.1980
-28.1036 14.7978 2.2064
-28.4696 14.1879 2.2149
-28.8445 13.5794 2.2253
-29.2118 12.9635 2.2361
-29.5670 12.3385 2.2471
-29.9102 11.7046 2.2582
-30.2409 11.0619 2.2695
-30.5744 10.4159 2.2822
-30.9091 9.7653 2.2960
-31.2315 9.1053 2.3100
-27.4551 7.3433 2.0231
-27.2742 6.6460 2.0034
-27.2724 6.0037 1.9979
-27.2707 5.3679 1.9935
-27.2690 4.7376 1.9902
-27.2673 4.1123 1.9879
-27.2656 3.4912 1.9867
-27.2639 2.8738 1.9864
-27.2622 2.2593 1.9871
-27.2666 1.6475 1.9893
-27.2649 1.0370 1.9920
-27.2632 0.4275 1.9958
-27.2616 -0.1815 2.0005
-27.2599 -0.7906 2.0062
-27.2582 -1.4004 2.0129
-27.3075 -2.0153 2.0244
-34.7893 -3.3502 2.5905
-34.8364 -4.1419 2.6067
-34.8138 -4.9300 2.6190
-34.6372 -5.6969 2.6210
-34.4467 -6.4589 2.6233
-34.2425 -7.2159 2.6257
-34.0247 -7.9678 2.6283
-33.7935 -8.7141 2.6311
-33.5487 -9.4550 2.6341
-33.2907 -10.1903 2.6372
-33.0196 -10.9197 2.6405
-32.7353 -11.6432 2.6440
-32.4653 -12.3709 2.6499
-32.2813 -13.1339 2.6642
-32.0816 -13.8958 2.6786
-31.8662 -14.6565 2.6932
-31.6291 -15.4126 2.7075
-31.3458 -16.1508 2.7193
-31.0474 -16.8853 2.7313
-30.7340 -17.6157 2.7433
-30.4054 -18.3418 2.7556
-29.9477 -18.9910 2.7575
-20.0430 -13.3471 1.8762
-27.2042 -19.0067 2.5908
-27.2017 -19.9239 2.6373
-27.1991 -20.8715 2.6867
-27.1965 -21.8518 2.7391
-27.1937 -22.8680 2.7946
-26.9932 -23.7489 2.8329
-26.4900 -24.3776 2.8415
-25.9746 -24.9979 2.8503
-25.4470 -25.6097 2.8593
-24.9071 -26.2127 2.8684
-24.3552 -26.8068 2.8777
-23.7814 -27.3802 2.8859
-23.1936 -27.9409 2.8940
-22.5951 -28.4921 2.9023
-21.9858 -29.0335 2.9108
-21.3659 -29.5650 2.9195
-20.7174 -30.0604 2.9259
-20.0065 -30.4641 2.9247
-19.2892 -30.8532 2.9235
-18.7159 -31.4799 2.9461
-18.6925 -33.1030 3.0616
-17.9225 -33.4646 3.0607
-17.1381 -33.7932 3.0582
-16.3492 -34.1064 3.0558
-15.5563 -34.4044 3.0535
-14.7596 -34.6871 3.0513
-13.9592 -34.9543 3.0493
-13.1555 -35.2064 3.0474
-12.3485 -35.4431 3.0456
-11.5374 -35.6610 3.0436
-10.7218 -35.8571 3.0412
-9.9043 -36.0386 3.0389
-9.0850 -36.2055 3.0369
-8.2641 -36.3578 3.0350
-7.4418 -36.4955 3.0333
-6.6181 -36.6186 3.0318
-5.7934 -36.7273 3.0305
-4.9676 -36.8214 3.0293
-4.1409 -36.9010 3.0283
-3.3136 -36.9661 3.0275
-2.4856 -37.0167 3.0269
-1.6573 -37.0529 3.0265
-0.8288 -37.0745 3.0262
-0.0000 -29.5224 3.0798
0.6599 -29.5158 3.0799
1.3196 -29.4960 3.0799
1.9789 -29.4630 3.0800
2.6374 -29.4168 3.0802
3.2951 -29.3574 3.0803
3.9516 -29.2849 3.0805
4.6068 -29.1991 3.0808
5.0040 -27.6821 2.9309
5.6231 -27.5708 2.9307
6.2398 -27.4465 2.9305
5.7688 -22.9852 2.4663
7.4316 -27.0358 2.9167
7.9998 -26.7485 2.9028
8.5505 -26.4230 2.8860
9.0838 -26.0671 2.8670
9.5894 -25.6577 2.8431
9.5777 -23.9781 2.6783
9.9759 -23.4398 2.6406
10.4895 -23.1939 2.6368
10.8695 -22.6704 2.6023
11.2404 -22.1593 2.5698
11.4515 -21.3775 2.5061
11.9810 -21.2126 2.5153
12.6134 -21.2109 2.5456
13.2628 -21.2091 2.5779
13.9305 -21.2073 2.6124
14.6180 -21.2054 2.6490
15.1235 -20.9222 2.6525
15.5046 -20.4698 2.6356
15.8324 -19.9596 2.6119
15.8299 -19.0653 2.5376
15.8276 -18.2183 2.4685
15.2809 -16.8148 2.3212
15.2849 -16.0819 2.2638
15.1909 -15.2840 2.1959
15.8195 -15.2205 2.2342
14.5774 -13.4113 2.0132
14.9602 -13.1584 2.0222
15.2370 -12.8095 2.0176
14.3607 -11.5350 1.8643
15.2382 -11.6895 1.9410
15.7052 -11.4995 1.9644
14.5752 -10.1798 1.7915
14.5632 -9.6946 1.7602
14.5627 -9.2315 1.7321
5.4640 -3.2949 0.6400
5.4784 -3.1389 0.6323
14.5849 -7.9289 1.6597
14.5681 -7.5031 1.6356
14.6781 -7.1494 1.6269
15.1405 -6.9606 1.6577
16.0034 -6.9284 1.7319
21.3371 -8.6769 2.2836
21.4476 -8.1683 2.2713
21.5437 -7.6583 2.2588
21.6256 -7.1474 2.2461
21.6935 -6.6361 2.2332
21.7476 -6.1249 2.2201
21.7877 -5.6140 2.2068
21.8141 -5.1041 2.1933
21.8265 -4.5952 2.1796
21.8250 -4.0881 2.1658
21.8100 -3.5830 2.1518
21.7816 -3.0804 2.1376
21.7409 -2.5808 2.1234
21.7169 -2.0872 2.1120
8.8712 -0.6530 0.8594
8.8706 -0.4540 0.8565
8.8701 -0.2556 0.8541
8.8695 -0.0574 0.8520
8.8690 0.1407 0.8504
8.8685 0.3390 0.8492
8.8679 0.5375 0.8485
8.8674 0.7365 0.8482
8.9426 0.9443 0.8555
8.9421 1.1467 0.8560
8.9415 1.3502 0.8570
8.9410 1.5551 0.8584
8.9404 1.7615 0.8602
8.9398 1.9697 0.8625
8.8701 2.1632 0.8586
8.8629 2.3723 0.8612
8.8623 2.5855 0.8648
8.8617 2.8015 0.8690
8.8611 3.0205 0.8737
8.8605 3.2429 0.8789
8.8599 3.4689 0.8847
8.8593 3.6989 0.8910
8.8586 3.9331 0.8979
8.8580 4.1720 0.9054
8.8573 4.4159 0.9135
8.8566 4.6653 0.9223
8.8562 4.9207 0.9318
8.8552 5.1822 0.9420
8.8545 5.4508 0.9530
8.8538 5.7267 0.9648
8.8530 6.0107 0.9774
8.8640 6.3118 0.9923
8.8711 6.6202 1.0077
8.8705 6.9334 1.0233
8.8667 7.2550 1.0397
8.8487 7.5763 1.0555
8.8477 7.9245 1.0745
8.8468 8.2869 1.0949
8.8457 8.6646 1.1168
8.7021 8.9132 1.1219
8.2044 8.7875 1.0812
7.8438 8.7865 1.0578
7.4973 8.7856 1.0359
7.1639 8.7847 1.0153
6.8425 8.7838 0.9960
6.6646 8.9611 0.9977
6.6635 9.3901 1.0274
6.6622 9.8469 1.0596
6.6683 10.3462 1.0958
6.7350 10.9803 1.1455
6.7334 11.5485 1.1875
6.6563 12.0252 1.2197
6.6545 12.6820 1.2697
6.6586 13.4090 1.3260
6.6537 14.1853 1.3864
6.6480 15.0375 1.4536
6.6713 16.0496 1.5354
6.5931 16.9172 1.6027
6.6393 18.2280 1.7111
5.6104 16.5422 1.5396
5.3125 16.8946 1.5600
6.6695 22.9910 2.1073
6.1586 23.1487 2.1075
5.6448 23.2982 2.1080
5.1279 23.4390 2.1088
4.8635 24.8773 2.2270
4.3530 25.2459 2.2499
3.7919 25.3596 2.2511
3.2278 25.4600 2.2524
2.6610 25.5471 2.2538
2.0918 25.6205 2.2551
1.5207 25.6804 2.2565
0.9478 25.7266 2.2579
0.3737 25.7591 2.2594
-0.2014 25.7778 2.2608
-0.7771 25.7828 2.2623
-1.3531 25.7739 2.2638
-1.9290 25.7511 2.2653
-2.5045 25.7145 2.2669
-3.0792 25.6641 2.2684
-3.6527 25.5998 2.2700
-4.2225 25.5079 2.2704
-4.7894 25.4008 2.2706
-5.3536 25.2803 2.2709
-5.9146 25.1465 2.2713
-6.4721 24.9995 2.2716
-7.0258 24.8395 2.2720
-7.5725 24.6574 2.2716
-8.1145 24.4630 2.2713
-8.6514 24.2560 2.2710
-9.1828 24.0364 2.2707
-9.7085 23.8046 2.2704
-10.2280 23.5606 2.2702
-10.7413 23.3046 2.2700
-11.2479 23.0369 2.2699
-11.7476 22.7575 2.2698
-12.2528 22.4899 2.2720
-12.7540 22.2149 2.2748
-13.2489 21.9284 2.2776
-13.7376 21.6313 2.2805
-14.2224 21.3274 2.2839
-14.7006 21.0128 2.2875
-15.1721 20.6878 2.2912
-15.6366 20.3525 2.2950
-16.0939 20.0070 2.2990
-16.5438 19.6515 2.3030
-16.9860 19.2860 2.3071
-17.4203 18.9109 2.3114
-17.8466 18.5262 2.3158
-18.2646 18.1320 2.3203
-18.6741 17.7286 2.3248
-18.7016 16.9772 2.2839
-18.7110 16.2389 2.2437
-18.7290 15.5352 2.2071
-19.0623 15.1063 2.2096
-19.4164 14.6934 2.2157
-19.7621 14.2726 2.2218
-20.0992 13.8439 2.2281
-20.4273 13.4076 2.2345
-20.7485 12.9651 2.2412
-21.0700 12.5208 2.2491
-21.3820 12.0686 2.2570
-21.6850 11.6090 2.2650
-21.9788 11.1422 2.2732
-22.2632 10.6685 2.2815
-22.5381 10.1878 2.2900
-22.8033 9.7006 2.2986
-23.0583 9.2066 2.3072
-23.3205 8.7128 2.3177
-23.5729 8.2121 2.3284
-19.9995 6.4702 1.9643
-24.0479 7.1909 2.3500
-24.2700 6.6707 2.3611
-24.4816 6.1444 2.3723
-24.6826 5.6121 2.3836
-24.8810 5.0757 2.3958
-25.0700 4.5336 2.4083
-25.2479 3.9857 2.4209
-25.4146 3.4323 2.4336
-25.5699 2.8734 2.4465
-25.7136 2.3094 2.4595
-25.8455 1.7404 2.4725
-25.9654 1.1667 2.4857
-26.0731 0.5885 2.4990
-26.1685 0.0061 2.5123
-26.2513 -0.5803 2.5258
-26.3215 -1.1705 2.5393
-26.3788 -1.7641 2.5529
-26.4230 -2.3609 2.5666
-26.4541 -2.9606 2.5803
-26.4719 -3.5629 2.5940
-26.4762 -4.1675 2.6079
-26.4668 -4.7742 2.6217
-26.4437 -5.3825 2.6356
-26.4067 -5.9922 2.6495
-26.3514 -6.6020 2.6630
-26.2723 -7.2096 2.6755
-26.1792 -7.8168 2.6880
-26.0721 -8.4237 2.7006
-25.9509 -9.0296 2.7131
-25.8155 -9.6342 2.7256
-25.6649 -10.2369 2.7379
-25.4146 -10.8012 2.7410
-25.1536 -11.3603 2.7443
-24.8821 -11.9139 2.7476
-24.6001 -12.4620 2.7512
-24.3317 -13.0172 2.7575
-24.0993 -13.5939 2.7694
-23.8544 -14.1675 2.7815
-23.5969 -14.7375 2.7936
-19.9431 -13.0839 2.3987
-23.0444 -15.8661 2.8180
-22.7493 -16.4242 2.8304
-22.4289 -16.9679 2.8412
-22.0912 -17.5022 2.8514
-21.7420 -18.0307 2.8617
-21.3811 -18.5533 2.8721
-21.0087 -19.0696 2.8825
-20.5985 -19.5544 2.8894
-20.1661 -20.0194 2.8946
-19.7229 -20.4747 2.8996
-19.2586 -20.9082 2.9030
-18.7811 -21.3273 2.9057
-18.7088 -22.2276 2.9741
-18.6946 -23.2461 3.0572
-18.2479 -23.7590 3.0737
-17.7079 -24.1546 3.0763
-17.1541 -24.5308 3.0778
-16.5880 -24.8877 3.0784
-16.0150 -25.2323 3.0790
-15.4353 -25.5645 3.0796
-14.8493 -25.8841 3.0802
-14.2570 -26.1911 3.0807
-13.6588 -26.4853 3.0812
-13.0550 -26.7667 3.0817
-12.4458 -27.0352 3.0822
-11.8315 -27.2906 3.0826
-11.2123 -27.5329 3.0831
-10.5885 -27.7619 3.0835
-9.9604 -27.9778 3.0838
-9.3270 -28.1765 3.0838
-8.6886 -28.3577 3.0833
-8.0473 -28.5259 3.0828
-7.4031 -28.6810 3.0823
-6.7564 -28.8231 3.0819
-6.1073 -28.9521 3.0815
-5.4561 -29.0680 3.0812
-4.8031 -29.1709 3.0809
-4.1483 -29.2605 3.0806
-3.4922 -29.3371 3.0804
-2.8348 -29.4004 3.0802
-2.1765 -29.4505 3.0801
-1.5175 -29.4875 3.0799
-0.8579 -29.5113 3.0799
-0.1980 -29.5219 3.0798
0.4620 -29.5192 3.0799
1.1217 -29.5034 3.0799
1.7812 -29.4743 3.0800
2.4400 -29.4321 3.0801
3.0979 -29.3766 3.0803
3.7548 -29.3080 3.0805
4.4104 -29.2262 3.0807
4.8179 -27.7129 2.9310
5.4376 -27.6055 2.9308
6.0551 -27.4851 2.9306
5.6054 -22.9861 2.4626
7.2595 -27.1202 2.9209
7.8302 -26.8357 2.9070
8.3887 -26.5287 2.8917
8.9249 -26.1748 2.8726
9.4510 -25.8138 2.8538
9.5663 -24.4236 2.7214
9.8588 -23.6027 2.6520
10.3737 -23.3535 2.6475
10.7565 -22.8260 2.6124
11.1300 -22.3114 2.5793
11.3366 -21.5081 2.5130
11.7943 -21.2131 2.5066
12.4220 -21.2114 2.5363
13.0662 -21.2097 2.5680
13.7282 -21.2079 2.6018
14.4096 -21.2060 2.6378
15.0071 -21.0571 2.6576
15.3914 -20.6060 2.6406
14.9999 -19.1727 2.4965
15.8307 -19.3284 2.5593
15.8283 -18.4677 2.4887
15.2191 -16.9740 2.3299
15.2716 -16.2852 2.2788
15.1711 -15.4702 2.2089
15.6724 -15.2827 2.2287
14.5749 -13.5905 2.0262
14.8464 -13.2360 2.0196
15.1374 -12.8999 2.0167
14.1657 -11.5356 1.8498
14.8891 -11.5811 1.9073
15.4876 -11.5005 1.9477
14.5966 -10.3410 1.8034
14.5658 -9.8379 1.7693
14.5605 -9.3675 1.7401
14.5677 -8.9183 1.7140
5.4622 -3.1784 0.6332
5.5832 -3.0839 0.6380
14.5625 -7.6241 1.6415
14.6194 -7.2425 1.6266
14.9498 -6.9946 1.6428
15.7808 -6.9581 1.7137
21.3014 -8.8292 2.2872
21.4158 -8.3210 2.2750
21.5162 -7.8114 2.2626
21.6027 -7.3008 2.2500
21.6748 -6.7896 2.2371
21.7329 -6.2782 2.2240
21.7770 -5.7672 2.2108
21.8073 -5.2569 2.1973
21.8239 -4.7477 2.1837
21.8268 -4.2400 2.1700
21.8161 -3.7343 2.1560
21.7919 -3.2310 2.1419
21.7543 -2.7303 2.1277
21.7229 -2.2347 2.1152
21.7003 -1.7436 2.1046
8.8708 -0.5137 0.8574
8.8702 -0.3151 0.8548
8.8697 -0.1168 0.8526
8.8692 0.0813 0.8509
8.8686 0.2795 0.8496
8.8681 0.4779 0.8487
8.8675 0.6768 0.8482
8.8734 0.8769 0.8488
8.9423 1.0859 0.8558
8.9417 1.2890 0.8566
8.9411 1.4935 0.8579
8.9406 1.6994 0.8596
8.9400 1.9071 0.8618
8.9394 2.1167 0.8644
8.8631 2.3088 0.8601
8.8625 2.5212 0.8637
8.8619 2.7364 0.8677
8.8613 2.9545 0.8723
8.8607 3.1758 0.8773
8.8655 3.4028 0.8834
8.8595 3.6294 0.8890
8.8588 3.8623 0.8957
8.8582 4.0998 0.9031
8.8575 4.3422 0.9110
8.8569 4.5899 0.9196
8.8599 4.8454 0.9293
8.8555 5.1030 0.9389
8.8547 5.3695 0.9496
8.8540 5.6431 0.9611
8.8532 5.9247 0.9735
8.8539 6.2157 0.9870
8.8713 6.5283 1.0032
8.8707 6.8383 1.0185
8.8701 7.1592 1.0349
8.7993 7.4325 1.0441
8.8480 7.8186 1.0687
8.8471 8.1766 1.0887
8.8460 8.5496 1.1101
8.8198 8.9136 1.1298
8.3223 8.7951 1.0894
7.9504 8.7868 1.0647
7.5998 8.7859 1.0423
7.2626 8.7849 1.0213
6.9377 8.7841 1.0017
6.6650 8.8373 0.9893
6.6638 9.2587 1.0183
6.6626 9.7068 1.0497
6.6613 10.1849 1.0838
6.7354 10.8178 1.1336
6.7339 11.3735 1.1745
6.6568 11.8383 1.2056
6.6550 12.4792 1.2542
6.6531 13.1758 1.3076
6.6552 13.9450 1.3676
6.6488 14.7709 1.4325
6.6631 15.7317 1.5096
6.6529 16.7383 1.5902
6.6403 17.8580 1.6809
5.7408 16.5612 1.5452
5.3324 16.5691 1.5335
6.8222 22.9421 2.1074
6.3122 23.1022 2.1074
5.7992 23.2542 2.1078
5.2813 23.3889 2.1078
4.9950 24.6718 2.2118
4.5206 25.2092 2.2495
3.9605 25.3269 2.2507
3.3973 25.4313 2.2520
2.8312 25.5224 2.2534
2.2628 25.5999 2.2547
1.6922 25.6638 2.2561
1.1198 25.7142 2.2575
0.5461 25.7508 2.2589
-0.0288 25.7737 2.2604
-0.6043 25.7828 2.2618
-1.1803 25.7780 2.2633
-1.7563 25.7595 2.2649
-2.3319 25.7269 2.2664
-2.9069 25.6807 2.2680
-3.4808 25.6205 2.2695
-4.0518 25.5374 2.2703
-4.6196 25.4343 2.2706
-5.1847 25.3179 2.2708
-5.7467 25.1880 2.2712
-6.3052 25.0450 2.2715
-6.8601 24.8889 2.2719
-7.4089 24.7132 2.2717
-7.9525 24.5226 2.2714
-8.4909 24.3194 2.2710
-9.0240 24.1036 2.2708
-9.5514 23.8754 2.2705
-10.0728 23.6350 2.2703
-10.5880 23.3826 2.2701
-11.0966 23.1184 2.2699
-11.5984 22.8425 2.2698
-12.1011 22.5701 2.2712
-12.6043 22.2986 2.2739
-13.1011 22.0155 2.2767
-13.5915 21.7213 2.2796
-14.0776 21.4197 2.2829
-14.5579 21.1083 2.2864
-15.0314 20.7865 2.2901
-15.4980 20.4542 2.2939
-15.9575 20.1118 2.2978
-16.4096 19.7592 2.3018
-16.8541 19.3967 2.3059
-17.2908 19.0244 2.3101
-17.7196 18.6425 2.3145
-18.1401 18.2512 2.3189
-18.5522 17.8506 2.3235
-18.6986 17.2044 2.2966
-18.7082 16.4574 2.2555
-18.7173 15.7383 2.2171
-18.9543 15.2285 2.2078
-19.3111 14.8181 2.2138
-19.6594 14.3996 2.2200
-19.9990 13.9733 2.2262
-20.3298 13.5392 2.2326
-20.6516 13.0977 2.2390
-20.9747 12.6550 2.2467
-21.2894 12.2050 2.2546
-21.5951 11.7476 2.2626
-21.8916 11.2830 2.2708
-22.1789 10.8113 2.2790
-22.4566 10.3327 2.2874
-22.7248 9.8474 2.2960
-22.9831 9.3555 2.3046
-23.2428 8.8616 2.3146
-23.4982 8.3630 2.3251
-19.9819 6.6127 1.9658
-23.9792 7.3457 2.3468
-24.2044 6.8274 2.3578
-24.4192 6.3029 2.3689
-24.6235 5.7724 2.3802
-24.8222 5.2371 2.3921
-25.0144 4.6968 2.4045
-25.1957 4.1507 2.4171
-25.3658 3.5989 2.4298
-25.5245 3.0416 2.4426
-25.6717 2.4791 2.4556
-25.8072 1.9116 2.4686
-25.9306 1.3393 2.4817
-26.0420 0.7624 2.4950
-26.1412 0.1812 2.5083
-26.2278 -0.4040 2.5217
-26.3018 -0.9931 2.5352
-26.3630 -1.5857 2.5488
-26.4112 -2.1815 2.5625
-26.4462 -2.7804 2.5762
-26.4680 -3.3820 2.5899
-26.4763 -3.9859 2.6037
-26.4710 -4.5920 2.6176
-26.4520 -5.1998 2.6314
-26.4193 -5.8092 2.6453
-26.3724 -6.4197 2.6593
-26.2974 -7.0273 2.6718
-26.2086 -7.6347 2.6843
-26.1057 -8.2417 2.6968
-25.9888 -8.8479 2.7093
-25.8577 -9.4530 2.7218
-25.7124 -10.0566 2.7343
-25.4908 -10.6324 2.7401
-25.2331 -11.1931 2.7433
-24.9647 -11.7484 2.7466
-24.6858 -12.2982 2.7501
-24.3966 -12.8423 2.7537
-24.1704 -13.4212 2.7659
-23.9292 -13.9958 2.7778
-23.6755 -14.5669 2.7899
-20.1809 -13.0472 2.4156
-19.9505 -13.5398 2.4274
-22.8391 -16.2572 2.8267
-22.5279 -16.8066 2.8381
-22.1937 -17.3425 2.8483
-21.8480 -17.8728 2.8586
-21.4906 -18.3972 2.8690
-21.1217 -18.9154 2.8794
-20.7261 -19.4130 2.8878
-20.2970 -19.8809 2.8930
-19.8570 -20.3392 2.8981
-19.4000 -20.7805 2.9021
-18.9253 -21.2027 2.9049
-18.7129 -21.9323 2.9503
-18.6990 -22.9349 3.0317
-18.4083 -23.6380 3.0729
-17.8708 -24.0372 3.0755
-17.3225 -24.4212 3.0776
-16.7586 -24.7819 3.0782
-16.1876 -25.1302 3.0789
-15.6099 -25.4662 3.0794
-15.0258 -25.7896 3.0800
-14.4353 -26.1003 3.0806
-13.8389 -26.3984 3.0811
-13.2367 -26.6836 3.0816
-12.6291 -26.9560 3.0821
-12.0163 -27.2153 3.0825
-11.3986 -27.4615 3.0829
-10.7761 -27.6946 3.0833
-10.1493 -27.9144 3.0837
-9.5179 -28.1197 3.0840
-8.8805 -28.3047 3.0834
-8.2400 -28.4767 3.0829
-7.5966 -28.6358 3.0824
-6.9507 -28.7818 3.0820
-6.3023 -28.9148 3.0816
-5.6517 -29.0347 3.0813
-4.9992 -29.1414 3.0810
-4.3449 -29.2350 3.0807
-3.6892 -29.3155 3.0804
-3.0322 -29.3827 3.0803
-2.3741 -29.4369 3.0801
-1.7152 -29.4778 3.0800
-1.0558 -29.5055 3.0799
-0.3960 -29.5201 3.0798
0.2640 -29.5214 3.0798
0.9238 -29.5095 3.0799
1.5834 -29.4844 3.0800
2.2424 -29.4461 3.0801
2.9007 -29.3947 3.0802
3.5579 -29.3300 3.0804
4.2139 -29.2521 3.0806
4.7107 -28.2165 2.9811
5.2519 -27.6391 2.9308
5.8701 -27.5226 2.9306
5.4444 -22.9948 2.4599
7.0867 -27.2037 2.9251
7.6599 -26.9220 2.9111
8.2248 -26.6310 2.8974
8.7649 -26.2813 2.8783
9.2943 -25.9229 2.8594
9.6151 -25.0415 2.7835
9.7390 -23.7627 2.6631
10.2569 -23.5144 2.6585
10.6427 -22.9829 2.6227
11.0189 -22.4645 2.5890
11.2210 -21.6394 2.5202
11.6091 -21.2137 2.4981
12.2320 -21.2120 2.5272
12.8711 -21.2102 2.5583
13.5276 -21.2084 2.5914
14.2031 -21.2066 2.6268
14.8897 -21.1917 2.6627
15.2773 -20.7418 2.6457
14.8486 -19.2439 2.4936
14.9290 -18.4789 2.4344
15.6380 -18.4952 2.4791
14.9912 -16.9470 2.3132
15.2722 -16.5062 2.2962
15.1717 -15.6797 2.2251
15.4642 -15.2832 2.2145
13.9619 -13.1950 1.9540
14.7166 -13.2984 2.0149
15.0373 -12.9897 2.0158
13.9632 -11.5272 1.8342
15.2398 -12.0187 1.9633
15.2736 -11.5013 1.9313
15.9987 -11.4962 1.9870
14.5727 -9.9854 1.7790
14.5610 -9.5064 1.7486
14.5656 -9.0518 1.7217
5.4459 -3.2180 0.6341
5.5331 -3.1048 0.6349
14.5694 -7.7526 1.6489
14.5857 -7.3480 1.6291
14.7815 -7.0370 1.6302
15.4774 -6.9486 1.6866
21.2645 -8.9813 2.2908
21.3832 -8.4737 2.2787
21.4875 -7.9644 2.2663
21.5780 -7.4540 2.2537
21.6546 -6.9430 2.2410
21.7172 -6.4317 2.2280
21.7654 -5.9205 2.2148
21.7998 -5.4099 2.2014
21.8203 -4.9003 2.1878
21.8272 -4.3921 2.1741
21.8204 -3.8857 2.1602
21.8001 -3.3816 2.1461
21.7665 -2.8801 2.1319
21.7280 -2.3825 2.1184
21.7079 -1.8907 2.1077
8.8710 -0.5733 0.8582
8.8704 -0.3746 0.8555
8.8699 -0.1763 0.8532
8.8693 0.0219 0.8513
8.8688 0.2200 0.8499
8.8682 0.4183 0.8489
8.8677 0.6170 0.8483
8.8695 0.8166 0.8484
8.9424 1.0251 0.8556
8.9419 1.2279 0.8563
8.9413 1.4320 0.8575
8.9407 1.6375 0.8591
8.9402 1.8446 0.8611
8.9396 2.0536 0.8636
8.8643 2.2458 0.8593
8.8627 2.4572 0.8626
8.8621 2.6716 0.8665
8.8615 2.8887 0.8708
8.8609 3.1091 0.8757
8.8625 3.3337 0.8814
8.8597 3.5604 0.8871
8.8590 3.7920 0.8937
8.8584 4.0281 0.9008
8.8577 4.2689 0.9086
8.8571 4.5150 0.9169
8.8564 4.7667 0.9260
8.8557 5.0245 0.9358
8.8549 5.2888 0.9463
8.8542 5.5602 0.9576
8.8534 5.8393 0.9697
8.8030 6.0923 0.9772
8.8715 6.4373 0.9989
8.8709 6.7442 1.0138
8.8703 7.0617 1.0299
8.8505 7.3747 1.0448
8.8483 7.7140 1.0629
8.8474 8.0677 1.0825
8.8464 8.4361 1.1035
8.8453 8.8204 1.1260
8.5476 8.9128 1.1116
8.0583 8.7871 1.0717
7.7036 8.7862 1.0489
7.3625 8.7852 1.0275
7.0340 8.7843 1.0074
6.7171 8.7835 0.9886
6.6642 9.1296 1.0093
6.6630 9.5694 1.0400
6.6617 10.0381 1.0733
6.7358 10.6588 1.1220
6.7343 11.2025 1.1618
6.6609 11.6621 1.1925
6.6556 12.2815 1.2391
6.6537 12.9605 1.2910
6.6567 13.7112 1.3494
6.6495 14.5121 1.4120
6.6470 15.4057 1.4829
6.6693 16.4578 1.5682
6.6413 17.5011 1.6518
7.8816 22.2545 2.0818
5.4463 16.5424 1.5346
6.9746 22.8925 2.1074
6.4655 23.0551 2.1073
5.9534 23.2095 2.1076
5.4376 23.3523 2.1080
5.1513 24.5954 2.2083
4.6809 25.1332 2.2457
4.1289 25.2930 2.2504
3.5665 25.4014 2.2516
3.0013 25.4965 2.2530
2.4336 25.5781 2.2543
1.8636 25.6461 2.2557
1.2917 25.7005 2.2571
0.7183 25.7412 2.2585
0.1438 25.7683 2.2599
-0.4316 25.7815 2.2614
-1.0075 25.7809 2.2629
-1.5835 25.7665 2.2644
-2.1593 25.7382 2.2659
-2.7345 25.6960 2.2675
-3.3087 25.6400 2.2691
-3.8810 25.5657 2.2703
-4.4496 25.4666 2.2705
-5.0155 25.3542 2.2708
-5.5784 25.2284 2.2711
-6.1381 25.0893 2.2714
-6.6940 24.9371 2.2718
-7.2449 24.7679 2.2718
-7.7900 24.5811 2.2715
-8.3299 24.3817 2.2711
-8.8647 24.1696 2.2708
-9.3938 23.9451 2.2706
-9.9171 23.7085 2.2704
-10.4341 23.4596 2.2702
-10.9447 23.1989 2.2700
-11.4486 22.9264 2.2698
-11.9490 22.6491 2.2704
-12.4540 22.3813 2.2731
-12.9527 22.1016 2.2759
-13.4451 21.8107 2.2787
-13.9323 21.5110 2.2819
-14.4145 21.2028 2.2854
-14.8900 20.8841 2.2890
-15.3588 20.5549 2.2927
-15.8204 20.2155 2.2966
-16.2747 19.8660 2.3006
-16.7216 19.5065 2.3046
-17.1607 19.1371 2.3088
-17.5918 18.7581 2.3131
-18.0148 18.3696 2.3176
-18.4295 17.9717 2.3221
-18.6956 17.4343 2.3094
-18.7054 16.6785 2.2675
-18.7146 15.9513 2.2283
-18.8457 15.3500 2.2060
-19.2050 14.9421 2.2120
-19.5558 14.5260 2.2181
-19.8980 14.1020 2.2243
-20.2315 13.6703 2.2306
-20.5560 13.2309 2.2371
-20.8786 12.7885 2.2444
-21.1959 12.3408 2.2522
-21.5043 11.8856 2.2602
-21.8036 11.4231 2.2683
-22.0937 10.9535 2.2765
-22.3743 10.4770 2.2849
-22.6454 9.9937 2.2934
-22.9066 9.5038 2.3020
-23.1643 9.0099 2.3114
-23.4226 8.5133 2.3220
-19.9818 6.7615 1.9691
-23.9096 7.5000 2.3435
-24.1379 6.9836 2.3545
-24.3559 6.4609 2.3656
-24.5633 5.9322 2.3768
-24.7624 5.3980 2.3884
-24.9579 4.8595 2.4008
-25.1425 4.3151 2.4133
-25.3160 3.7650 2.4260
-25.4782 3.2094 2.4388
-25.6288 2.6484 2.4517
-25.7678 2.0823 2.4647
-25.8949 1.5115 2.4778
-26.0099 0.9359 2.4910
-26.1127 0.3560 2.5043
-26.2031 -0.2280 2.5177
-26.2809 -0.8160 2.5312
-26.3460 -1.4075 2.5447
-26.3981 -2.0024 2.5584
-26.4371 -2.6004 2.5720
-26.4628 -3.2012 2.5858
-26.4752 -3.8045 2.5996
-26.4740 -4.4100 2.6134
-26.4592 -5.0173 2.6273
-26.4306 -5.6263 2.6412
-26.3880 -6.2365 2.6551
-26.3214 -6.8450 2.6680
-26.2367 -7.4525 2.6805
-26.1380 -8.0597 2.6931
-26.0253 -8.6662 2.7056
-25.8984 -9.2717 2.7181
-25.7575 -9.8756 2.7306
-25.5661 -10.4632 2.7391
-25.3115 -11.0255 2.7423
-25.0463 -11.5824 2.7456
-24.7706 -12.1339 2.7490
-24.4844 -12.6796 2.7526
-24.2403 -13.2482 2.7623
-24.0029 -13.8238 2.7742
-23.7529 -14.3960 2.7863
-23.4904 -14.9646 2.7984
-19.9271 -13.3297 2.4125
-22.9278 -16.0899 2.8230
-22.6258 -16.6447 2.8351
-22.2952 -17.1824 2.8453
-21.9529 -17.7144 2.8555
-21.5990 -18.2405 2.8659
-21.2336 -18.7606 2.8763
-20.8528 -19.2708 2.8862
-20.4269 -19.7416 2.8915
-19.9901 -20.2027 2.8966
-19.5407 -20.6518 2.9013
-19.0687 -21.0771 2.9040
-18.7168 -21.6414 2.9269
-18.7032 -22.6286 3.0067
-18.5678 -23.5159 3.0722
-18.0329 -23.9187 3.0747
-17.4894 -24.3095 3.0773
-16.9285 -24.6750 3.0781
-16.3596 -25.0270 3.0787
-15.7839 -25.3667 3.0793
-15.2017 -25.6939 3.0798
-14.6131 -26.0085 3.0804
-14.0184 -26.3104 3.0809
-13.4179 -26.5995 3.0814
-12.8119 -26.8757 3.0819
-12.2007 -27.1389 3.0824
-11.5844 -27.3891 3.0828
-10.9633 -27.6261 3.0832
-10.3378 -27.8499 3.0836
-9.7080 -28.0604 3.0840
