ply
format ascii 1.0
element vertex 2074
property float32 x
property float32 y
property float32 z
end_header
17.6896 -8.3405 2.3231
17.6716 -7.8545 2.2972
17.7065 -7.4009 2.2796
17.7147 -6.9438 2.2601
17.7228 -6.4942 2.2421
17.7308 -6.0514 2.2255
17.7386 -5.6150 2.2101
17.7464 -5.1844 2.1961
7.7371 -2.0739 0.9515
17.7616 -4.3382 2.1719
17.7691 -3.9217 2.1615
17.7765 -3.5089 2.1523
17.7839 -3.0994 2.1443
17.7069 -2.6800 2.1273
17.7141 -2.2776 2.1215
17.8058 -1.8862 2.1269
17.8130 -1.4855 2.1233
17.8202 -1.0860 2.1207
17.8274 -0.6872 2.1192
17.8345 -0.2888 2.1188
17.8417 0.1096 2.1194
17.8489 0.5085 2.1211
17.8561 0.9082 2.1238
17.8633 1.3091 2.1276
17.8705 1.7117 2.1325
17.8778 2.1163 2.1385
17.8003 2.5114 2.1354
10.0554 1.6485 1.2104
9.7968 1.8317 1.1839
17.9074 3.7639 2.1736
17.9150 4.1853 2.1854
17.9227 4.6116 2.1983
17.9305 5.0431 2.2125
17.9383 5.4805 2.2281
17.8324 5.8867 2.2307
17.5829 6.2432 2.2163
17.3261 6.5914 2.2020
17.0624 6.9311 2.1876
16.7922 7.2624 2.1732
16.5158 7.5851 2.1588
16.2334 7.8992 2.1445
15.9455 8.2045 2.1301
15.6523 8.5010 2.1158
15.3543 8.7888 2.1015
15.0516 9.0677 2.0873
14.7445 9.3378 2.0731
14.4334 9.5990 2.0590
14.1187 9.8514 2.0450
13.8004 10.0950 2.0311
13.4789 10.3298 2.0172
13.1545 10.5558 2.0035
12.8275 10.7730 1.9898
12.4981 10.9816 1.9763
12.1665 11.1815 1.9628
11.8330 11.3729 1.9495
11.4978 11.5557 1.9364
11.1611 11.7301 1.9233
10.8233 11.8961 1.9104
10.4844 12.0538 1.8977
10.1446 12.2033 1.8850
9.8043 12.3446 1.8726
9.4634 12.4778 1.8603
9.1680 12.6663 1.8574
8.8656 12.8429 1.8537
8.5604 13.0131 1.8502
8.2526 13.1771 1.8469
7.9424 13.3348 1.8437
7.6297 13.4861 1.8406
7.3382 13.6746 1.8435
7.3148 14.3939 1.9179
7.1594 14.9031 1.9639
6.8151 15.0380 1.9612
6.4689 15.1662 1.9586
6.1208 15.2875 1.9561
5.7709 15.4019 1.9537
5.4193 15.5095 1.9515
5.0662 15.6101 1.9495
4.7117 15.7039 1.9476
4.3558 15.7908 1.9458
3.9987 15.8708 1.9441
3.6404 15.9438 1.9426
3.2811 16.0100 1.9413
2.9209 16.0692 1.9401
2.5598 16.1216 1.9390
2.1981 16.1669 1.9381
1.8357 16.2054 1.9373
1.4728 16.2370 1.9366
1.1096 16.2616 1.9361
0.7459 16.2793 1.9358
0.3821 16.2900 1.9356
0.0182 16.2938 1.9355
-0.3457 16.2907 1.9355
-0.7096 16.2806 1.9357
-1.0732 16.2636 1.9361
-1.4365 16.2397 1.9366
-1.7995 16.2089 1.9372
-2.1619 16.1711 1.9380
-2.5237 16.1264 1.9389
-2.8848 16.0748 1.9400
-3.2451 16.0162 1.9412
-3.6045 15.9508 1.9425
-3.9629 15.8784 1.9440
-4.3202 15.7991 1.9456
-4.6762 15.7129 1.9474
-5.0309 15.6198 1.9493
-5.3841 15.5198 1.9513
-5.7358 15.4130 1.9535
-6.0859 15.2993 1.9558
-6.4342 15.1787 1.9583
-6.7806 15.0512 1.9609
-7.1250 14.9169 1.9637
-7.4674 14.7758 1.9666
-7.8076 14.6278 1.9696
-8.1454 14.4730 1.9728
-8.4808 14.3115 1.9761
-8.8137 14.1431 1.9795
-9.1439 13.9680 1.9831
-9.4714 13.7861 1.9868
-9.7959 13.5975 1.9907
-10.1174 13.4022 1.9947
-10.4358 13.2002 1.9988
-10.7510 12.9916 2.0031
-11.0628 12.7762 2.0075
-11.3710 12.5543 2.0121
-11.6757 12.3259 2.0167
-11.9766 12.0908 2.0215
-12.2736 11.8492 2.0265
-12.5666 11.6012 2.0316
-12.8554 11.3466 2.0368
-13.1401 11.0857 2.0421
-13.4202 10.8184 2.0476
-13.6959 10.5447 2.0532
-13.9669 10.2648 2.0589
-14.2330 9.9786 2.0648
-14.4943 9.6862 2.0708
-14.7504 9.3877 2.0769
-15.0013 9.0831 2.0831
-15.2468 8.7725 2.0895
-15.4869 8.4559 2.0960
-15.7212 8.1335 2.1026
-15.9498 7.8050 2.1093
-16.0820 7.4294 2.1043
-16.0874 7.0002 2.0840
-16.0926 6.5790 2.0651
-16.0974 6.1651 2.0476
-16.1019 5.7578 2.0313
-16.1106 5.3583 2.0168
-16.2080 4.9918 2.0145
-16.3730 4.6446 2.0216
-16.5313 4.2930 2.0288
-16.6828 3.9368 2.0361
-16.8274 3.5761 2.0435
-16.9649 3.2111 2.0510
-17.0952 2.8418 2.0585
-17.2181 2.4684 2.0662
-17.3335 2.0910 2.0739
-17.4413 1.7098 2.0817
-17.5413 1.3248 2.0896
-17.6334 0.9363 2.0976
-17.7175 0.5443 2.1056
-17.7934 0.1490 2.1137
-17.8609 -0.2494 2.1218
-17.9200 -0.6508 2.1301
-17.9706 -1.0548 2.1383
-18.0124 -1.4617 2.1467
-18.0455 -1.8709 2.1550
-18.0695 -2.2823 2.1635
-18.0846 -2.6958 2.1719
-18.0904 -3.1111 2.1804
-18.0870 -3.5282 2.1890
-18.0741 -3.9467 2.1975
-18.0518 -4.3664 2.2061
-18.0199 -4.7871 2.2148
-17.9783 -5.2086 2.2234
-17.9268 -5.6307 2.2320
-17.8655 -6.0530 2.2407
-17.7943 -6.4754 2.2493
-17.7131 -6.8976 2.2580
-17.6218 -7.3194 2.2666
-17.5203 -7.7405 2.2752
-17.4086 -8.1606 2.2838
-17.2843 -8.5783 2.2921
-17.1470 -8.9928 2.2999
-16.9995 -9.4054 2.3078
-16.8417 -9.8157 2.3155
-16.6737 -10.2234 2.3233
-16.4955 -10.6283 2.3309
-16.3071 -11.0299 2.3385
-16.1194 -11.4360 2.3477
-16.1034 -11.9740 2.3837
-16.0979 -12.5379 2.4238
-16.0921 -13.1212 2.4664
-16.0858 -13.7254 2.5118
-16.0349 -14.3130 2.5532
-15.7576 -14.7109 2.5607
-15.4698 -15.1028 2.5681
-15.1717 -15.4885 2.5754
-14.8631 -15.8674 2.5826
-14.5375 -16.2317 2.5884
-14.2024 -16.5886 2.5940
-13.8579 -16.9378 2.5996
-13.5043 -17.2791 2.6050
-13.1417 -17.6120 2.6103
-12.7703 -17.9365 2.6154
-12.3902 -18.2522 2.6205
-12.0017 -18.5588 2.6253
-11.6050 -18.8561 2.6301
-11.2004 -19.1438 2.6346
-10.7881 -19.4217 2.6390
-10.3683 -19.6895 2.6433
-9.9413 -19.9470 2.6474
-9.5074 -20.1939 2.6513
-9.0668 -20.4301 2.6551
-8.6199 -20.6553 2.6586
-8.1669 -20.8693 2.6620
-7.7080 -21.0720 2.6653
-7.2437 -21.2631 2.6683
-6.7742 -21.4424 2.6711
-6.2999 -21.6099 2.6738
-5.8211 -21.7653 2.6763
-5.3380 -21.9085 2.6786
-4.8512 -22.0393 2.6806
-4.3608 -22.1577 2.6825
-3.8673 -22.2635 2.6842
-3.3709 -22.3566 2.6857
-2.8721 -22.4370 2.6869
-2.3712 -22.5045 2.6880
-1.8686 -22.5592 2.6889
-1.3646 -22.6008 2.6896
-0.8596 -22.6295 2.6900
-0.3530 -22.5741 2.6818
0.1518 -22.6478 2.6903
0.6575 -22.6373 2.6901
1.1628 -22.6138 2.6898
1.6673 -22.5774 2.6892
2.1704 -22.5279 2.6884
2.6630 -22.3894 2.6783
3.1717 -22.3903 2.6862
3.6692 -22.3022 2.6848
4.1638 -22.2015 2.6832
4.6555 -22.0881 2.6814
5.1438 -21.9622 2.6794
5.6284 -21.8240 2.6772
6.1089 -21.6734 2.6748
6.5851 -21.5108 2.6722
7.0566 -21.3362 2.6695
7.3154 -20.5661 2.5929
7.4619 -19.5815 2.4892
7.8875 -19.3857 2.4861
8.3076 -19.1794 2.4828
8.7218 -18.9627 2.4793
9.1298 -18.7360 2.4757
9.5314 -18.4990 2.4720
9.9255 -18.2508 2.4678
10.3127 -17.9932 2.4635
10.6926 -17.7263 2.4591
11.0652 -17.4505 2.4545
11.4302 -17.1660 2.4498
11.7847 -16.8691 2.4444
12.1255 -16.5566 2.4377
12.4576 -16.2366 2.4310
12.7808 -15.9091 2.4241
13.0950 -15.5746 2.4171
13.4001 -15.2333 2.4100
13.6958 -14.8855 2.4027
13.9822 -14.5316 2.3954
14.2591 -14.1717 2.3880
14.5264 -13.8063 2.3806
14.7840 -13.4356 2.3730
15.0318 -13.0598 2.3653
15.2117 -12.6311 2.3487
15.5101 -12.3042 2.3517
15.8010 -11.9699 2.3547
16.0842 -11.6282 2.3576
16.3593 -11.2795 2.3604
16.6263 -10.9239 2.3631
16.8850 -10.5616 2.3657
17.1351 -10.1928 2.3683
17.3764 -9.8177 2.3707
17.6089 -9.4366 2.3731
17.6782 -8.9715 2.3549
17.6870 -8.4846 2.3302
17.6691 -7.9956 2.3037
17.6201 -7.5039 2.2749
17.7122 -7.0801 2.2658
17.7204 -6.6283 2.2474
17.7284 -6.1836 2.2303
17.7363 -5.7453 2.2146
17.7440 -5.3130 2.2002
17.7517 -4.8861 2.1871
17.7593 -4.4640 2.1752
17.7669 -4.0462 2.1645
17.7743 -3.6323 2.1550
17.7817 -3.2219 2.1466
17.7625 -2.8102 2.1362
17.7697 -2.4059 2.1301
17.8036 -2.0066 2.1282
17.8108 -1.6055 2.1243
17.8180 -1.2058 2.1214
17.8252 -0.8068 2.1196
17.8324 -0.4084 2.1188
17.8396 -0.0100 2.1191
17.8467 0.3887 2.1204
17.8539 0.7881 2.1229
17.8611 1.1886 2.1263
17.8684 1.5907 2.1309
17.8756 1.9946 2.1366
17.8562 2.3974 2.1401
17.8636 2.8058 2.1480
9.8087 1.7660 1.1839
9.8015 1.9917 1.1881
17.9127 4.0585 2.1817
17.9204 4.4832 2.1943
17.9281 4.9131 2.2081
17.9360 5.3487 2.2233
17.9058 5.7782 2.2350
17.6585 6.1372 2.2206
17.4039 6.4878 2.2063
17.1423 6.8301 2.1919
16.8740 7.1639 2.1776
16.5994 7.4892 2.1632
16.3188 7.8059 2.1488
16.0325 8.1138 2.1344
15.7409 8.4130 2.1201
15.4442 8.7034 2.1058
15.1428 8.9850 2.0916
14.8371 9.2577 2.0774
14.5272 9.5216 2.0632
14.2134 9.7766 2.0492
13.8962 10.0229 2.0352
13.5756 10.2603 2.0214
13.2521 10.4889 2.0076
12.9258 10.7088 1.9939
12.5971 10.9200 1.9803
12.2661 11.1225 1.9669
11.9332 11.3164 1.9535
11.5985 11.5018 1.9403
11.2623 11.6787 1.9272
10.9248 11.8472 1.9143
10.5861 12.0073 1.9015
10.2466 12.1593 1.8888
9.9064 12.3030 1.8763
9.5657 12.4387 1.8639
9.2583 12.6121 1.8585
8.9566 12.7905 1.8548
8.6522 12.9627 1.8513
8.3452 13.1286 1.8479
8.0357 13.2882 1.8446
7.7237 13.4414 1.8415
7.4095 13.5883 1.8385
7.3201 14.1683 1.8943
7.2622 14.8613 1.9648
6.9186 14.9983 1.9620
6.5729 15.1285 1.9593
6.2254 15.2518 1.9568
5.8760 15.3683 1.9544
5.5250 15.4779 1.9522
5.1724 15.5806 1.9501
4.8182 15.6765 1.9481
4.4627 15.7654 1.9463
4.1060 15.8475 1.9446
3.7480 15.9226 1.9431
3.3890 15.9908 1.9417
3.0291 16.0522 1.9404
2.6682 16.1066 1.9393
2.3067 16.1540 1.9383
1.9445 16.1946 1.9375
1.5817 16.2282 1.9368
1.2185 16.2549 1.9363
0.8550 16.2747 1.9359
0.4913 16.2875 1.9356
0.1274 16.2934 1.9355
-0.2366 16.2924 1.9355
-0.6005 16.2844 1.9357
-0.9642 16.2695 1.9360
-1.3275 16.2476 1.9364
-1.6906 16.2189 1.9370
-2.0532 16.1832 1.9377
-2.4152 16.1405 1.9386
-2.7766 16.0910 1.9396
-3.1371 16.0345 1.9408
-3.4968 15.9711 1.9421
-3.8555 15.9008 1.9435
-4.2131 15.8236 1.9451
-4.5695 15.7395 1.9468
-4.9246 15.6485 1.9487
-5.2783 15.5506 1.9507
-5.6305 15.4458 1.9528
-5.9811 15.3341 1.9551
-6.3299 15.2156 1.9576
-6.6769 15.0902 1.9601
-7.0220 14.9579 1.9628
-7.3650 14.8188 1.9657
-7.7058 14.6729 1.9687
-8.0443 14.5202 1.9718
-8.3805 14.3606 1.9751
-8.7141 14.1943 1.9785
-9.0451 14.0212 1.9820
-9.3734 13.8414 1.9857
-9.6989 13.6548 1.9895
-10.0213 13.4615 1.9935
-10.3407 13.2615 1.9976
-10.6568 13.0549 2.0018
-10.9696 12.8416 2.0062
-11.2789 12.6216 2.0107
-11.5847 12.3951 2.0153
-11.8867 12.1620 2.0201
-12.1849 11.9224 2.0250
-12.4791 11.6762 2.0300
-12.7693 11.4236 2.0352
-13.0551 11.1646 2.0405
-13.3367 10.8992 2.0459
-13.6137 10.6274 2.0515
-13.8861 10.3494 2.0572
-14.1537 10.0651 2.0630
-14.4164 9.7746 2.0690
-14.6741 9.4779 2.0751
-14.9266 9.1751 2.0813
-15.1737 8.8663 2.0876
-15.4154 8.5515 2.0940
-15.6515 8.2308 2.1006
-15.8818 7.9041 2.1073
-16.0804 7.5598 2.1107
-16.0858 7.1282 2.0900
-16.0911 6.7046 2.0707
-16.0959 6.2885 2.0527
-16.1006 5.8793 2.0360
-16.1050 5.4765 2.0206
-16.1573 5.0946 2.0124
-16.3242 4.7491 2.0195
-16.4845 4.3989 2.0267
-16.6381 4.0441 2.0339
-16.7848 3.6847 2.0413
-16.9244 3.3211 2.0487
-17.0569 2.9531 2.0563
-17.1820 2.5809 2.0639
-17.2997 2.2047 2.0716
-17.4098 1.8246 2.0794
-17.5122 1.4407 2.0872
-17.6067 1.0532 2.0952
-17.6931 0.6622 2.1032
-17.7715 0.2679 2.1112
-17.8415 -0.1295 2.1194
-17.9032 -0.5300 2.1276
-17.9563 -0.9334 2.1358
-18.0008 -1.3394 2.1442
-18.0365 -1.7479 2.1525
-18.0633 -2.1587 2.1609
-18.0810 -2.5716 2.1694
-18.0896 -2.9865 2.1779
-18.0890 -3.4030 2.1864
-18.0790 -3.8211 2.1950
-18.0595 -4.2404 2.2036
-18.0305 -4.6608 2.2122
-17.9917 -5.0821 2.2208
-17.9433 -5.5040 2.2294
-17.8850 -5.9262 2.2381
-17.8168 -6.3486 2.2467
-17.7385 -6.7710 2.2554
-17.6503 -7.1929 2.2640
-17.5518 -7.6142 2.2726
-17.4432 -8.0347 2.2813
-17.3235 -8.4536 2.2897
-17.1893 -8.8687 2.2976
-17.0448 -9.2819 2.3054
-16.8901 -9.6929 2.3132
-16.7252 -10.1015 2.3210
-16.5500 -10.5072 2.3286
-16.3646 -10.9098 2.3363
-16.1691 -11.3091 2.3438
-16.1049 -11.8085 2.3722
-16.0996 -12.3668 2.4115
-16.0939 -12.9440 2.4533
-16.0878 -13.5418 2.4979
-16.0812 -14.1618 2.5454
-15.8419 -14.5921 2.5584
-15.5572 -14.9859 2.5659
-15.2622 -15.3735 2.5732
-14.9569 -15.7546 2.5805
-14.6362 -16.1232 2.5866
-14.3039 -16.4823 2.5923
-13.9623 -16.8339 2.5979
-13.6113 -17.1776 2.6034
-13.2514 -17.5131 2.6087
-12.8826 -17.8401 2.6139
-12.5051 -18.1584 2.6190
-12.1191 -18.4678 2.6239
-11.7249 -18.7679 2.6287
-11.3226 -19.0585 2.6333
-10.9126 -19.3394 2.6377
-10.4949 -19.6102 2.6420
-10.0702 -19.8708 2.6462
-9.6384 -20.1209 2.6502
-9.1997 -20.3604 2.6540
-8.7547 -20.5889 2.6576
-8.3034 -20.8063 2.6610
-7.8463 -21.0124 2.6643
-7.3836 -21.2070 2.6674
-6.9156 -21.3899 2.6703
-6.4427 -21.5609 2.6730
-5.9652 -21.7199 2.6756
-5.4834 -21.8668 2.6779
-4.9976 -22.0013 2.6800
-4.5082 -22.1235 2.6820
-4.0156 -22.2331 2.6837
-3.5200 -22.3300 2.6852
-3.0219 -22.4142 2.6866
-2.5216 -22.4856 2.6877
-2.0195 -22.5441 2.6887
-1.5158 -22.5897 2.6894
-1.0112 -22.6223 2.6899
-0.5043 -22.5708 2.6818
0.0000 -18.5249 2.6248
0.4137 -18.5197 2.6247
0.8272 -18.5041 2.6245
1.2401 -18.4781 2.6240
1.6521 -18.4418 2.6235
2.0630 -18.3951 2.6227
2.4724 -18.3381 2.6218
2.8803 -18.2708 2.6207
3.2861 -18.1934 2.6195
3.6896 -18.1058 2.6181
4.0906 -18.0082 2.6166
4.4889 -17.9007 2.6149
4.8841 -17.7833 2.6130
5.2760 -17.6561 2.6110
5.6642 -17.5192 2.6088
6.0487 -17.3729 2.6065
6.4291 -17.2171 2.6040
6.8052 -17.0520 2.6014
7.1767 -16.8778 2.5986
7.3166 -16.1926 2.5177
7.3835 -15.4137 2.4216
7.7144 -15.2221 2.4180
8.0398 -15.0225 2.4142
8.3597 -14.8150 2.4103
8.6738 -14.5998 2.4062
8.9819 -14.3772 2.4020
9.2839 -14.1473 2.3976
9.5788 -13.9092 2.3929
9.8652 -13.6615 2.3876
10.1448 -13.4074 2.3822
10.4176 -13.1470 2.3767
10.6834 -12.8806 2.3711
10.9420 -12.6083 2.3654
11.1934 -12.3306 2.3596
11.4375 -12.0474 2.3537
11.6741 -11.7591 2.3478
11.9031 -11.4658 2.3417
12.1244 -11.1679 2.3356
12.3381 -10.8655 2.3294
12.5289 -10.5462 2.3204
12.7752 -10.2748 2.3229
13.0152 -9.9975 2.3254
13.2489 -9.7143 2.3278
13.4759 -9.4254 2.3301
13.6963 -9.1308 2.3323
13.9097 -8.8309 2.3345
14.1162 -8.5257 2.3366
14.3155 -8.2154 2.3386
14.5075 -7.9002 2.3406
14.6920 -7.5802 2.3424
14.8690 -7.2557 2.3442
15.0383 -6.9269 2.3459
15.1998 -6.5939 2.3476
15.3534 -6.2569 2.3491
15.4990 -5.9161 2.3506
15.6364 -5.5717 2.3520
15.7656 -5.2239 2.3532
15.8864 -4.8730 2.3544
15.9988 -4.5191 2.3556
16.1028 -4.1625 2.3566
16.1982 -3.8033 2.3575
16.2849 -3.4418 2.3584
16.3630 -3.0783 2.3591
16.4322 -2.7128 2.3598
16.4927 -2.3457 2.3604
16.4964 -1.9714 2.3540
16.4791 -1.5969 2.3458
16.4514 -1.2241 2.3374
16.4136 -0.8532 2.3288
16.3658 -0.4845 2.3199
16.3082 -0.1184 2.3108
16.2409 0.2449 2.3014
16.1642 0.6050 2.2919
16.0781 0.9618 2.2822
15.9829 1.3149 2.2723
15.8788 1.6641 2.2622
15.7660 2.0092 2.2519
15.6446 2.3500 2.2415
9.7435 1.6869 1.4011
9.7482 1.9129 1.4076
15.2318 3.3439 2.2096
15.0787 3.6651 2.1987
14.9182 3.9809 2.1877
14.7505 4.2913 2.1766
14.5759 4.5960 2.1655
14.3946 4.8949 2.1543
14.2070 5.1879 2.1430
14.0131 5.4748 2.1317
13.8132 5.7555 2.1203
13.6076 6.0300 2.1089
13.3966 6.2981 2.0975
13.1803 6.5597 2.0860
12.9589 6.8149 2.0746
12.7328 7.0634 2.0631
12.5022 7.3053 2.0517
12.2672 7.5404 2.0402
12.0281 7.7689 2.0288
11.7852 7.9905 2.0175
11.5385 8.2054 2.0061
11.2885 8.4134 1.9948
11.0352 8.6146 1.9836
10.7789 8.8089 1.9724
10.5198 8.9964 1.9613
10.2580 9.1771 1.9502
9.9939 9.3509 1.9392
9.7275 9.5179 1.9283
9.4591 9.6781 1.9175
9.1887 9.8315 1.9067
8.9861 10.0558 1.9108
8.7425 10.2344 1.9071
8.4959 10.4077 1.9036
8.2464 10.5757 1.9002
7.9941 10.7384 1.8968
7.7391 10.8957 1.8936
7.4815 11.0476 1.8905
7.3268 11.3575 1.9150
7.3126 11.9114 1.9804
7.1761 12.2969 2.0173
6.8899 12.4364 2.0145
6.6015 12.5701 2.0117
6.3108 12.6979 2.0091
6.0182 12.8197 2.0066
5.7235 12.9356 2.0042
5.4271 13.0456 2.0020
5.1289 13.1495 1.9999
4.8292 13.2475 1.9979
4.5278 13.3395 1.9960
4.2250 13.4254 1.9942
3.9209 13.5053 1.9926
3.6156 13.5792 1.9911
3.3090 13.6470 1.9897
3.0015 13.7088 1.9884
2.6930 13.7645 1.9873
2.3837 13.8142 1.9862
2.0737 13.8578 1.9854
1.7630 13.8952 1.9846
1.4517 13.9266 1.9839
1.1400 13.9519 1.9834
0.8279 13.9712 1.9830
0.5156 13.9843 1.9828
0.2032 13.9913 1.9826
-0.1094 13.9922 1.9826
-0.4219 13.9870 1.9827
-0.7343 13.9757 1.9829
-1.0464 13.9583 1.9833
-1.3582 13.9349 1.9838
-1.6696 13.9053 1.9844
-1.9805 13.8697 1.9851
-2.2907 13.8279 1.9860
-2.6003 13.7801 1.9869
-2.9090 13.7262 1.9881
-3.2169 13.6662 1.9893
-3.5237 13.6002 1.9906
-3.8294 13.5282 1.9921
-4.1339 13.4500 1.9937
-4.4371 13.3659 1.9954
-4.7389 13.2757 1.9973
-5.0392 13.1796 1.9992
-5.3378 13.0774 2.0013
-5.6348 12.9692 2.0036
-5.9300 12.8552 2.0059
-6.2232 12.7351 2.0083
-6.5145 12.6091 2.0109
-6.8036 12.4772 2.0136
-7.0905 12.3394 2.0165
-7.3751 12.1957 2.0194
-7.6572 12.0462 2.0225
-7.9368 11.8908 2.0256
-8.2137 11.7297 2.0289
-8.4879 11.5628 2.0324
-8.7593 11.3901 2.0359
-9.0277 11.2117 2.0395
-9.2930 11.0276 2.0433
-9.5551 10.8379 2.0472
-9.8139 10.6425 2.0512
-10.0693 10.4416 2.0553
-10.3212 10.2351 2.0595
-10.5694 10.0231 2.0639
-10.8139 9.8057 2.0683
-11.0546 9.5828 2.0729
-11.2912 9.3546 2.0776
-11.5238 9.1210 2.0824
-11.7522 8.8822 2.0872
-11.9763 8.6381 2.0922
-12.1958 8.3889 2.0973
-12.4109 8.1345 2.1026
-12.6213 7.8752 2.1079
-12.8269 7.6108 2.1133
-13.0276 7.3415 2.1188
-13.2233 7.0674 2.1244
-13.4138 6.7885 2.1301
-13.5990 6.5049 2.1359
-13.7789 6.2167 2.1418
-13.9532 5.9239 2.1478
-14.1220 5.6267 2.1539
-14.2850 5.3251 2.1601
-14.4421 5.0193 2.1663
-14.5932 4.7092 2.1727
-14.7382 4.3951 2.1791
-14.8771 4.0770 2.1856
-15.0096 3.7550 2.1922
-15.1356 3.4292 2.1989
-15.2551 3.0998 2.2057
-15.3678 2.7668 2.2125
-15.4738 2.4305 2.2194
-15.5729 2.0908 2.2263
-15.6650 1.7479 2.2333
-15.7499 1.4021 2.2404
-15.8276 1.0533 2.2476
-15.8979 0.7018 2.2548
-15.9608 0.3476 2.2620
-16.0161 -0.0088 2.2693
-16.0638 -0.3679 2.2767
-16.0805 -0.7278 2.2808
-16.0813 -1.0882 2.2838
-16.0820 -1.4497 2.2879
-16.0824 -1.8127 2.2931
-16.0826 -2.1775 2.2995
-16.0826 -2.5445 2.3071
-16.0824 -2.9140 2.3158
-16.0820 -3.2865 2.3257
-16.0813 -3.6624 2.3369
-16.0805 -4.0420 2.3493
-16.0564 -4.4194 2.3596
-16.0053 -4.7924 2.3673
-15.9455 -5.1653 2.3749
-15.8771 -5.5378 2.3825
-15.7998 -5.9099 2.3901
-15.7137 -6.2812 2.3977
-15.6187 -6.6516 2.4053
-15.5148 -7.0208 2.4129
-15.4021 -7.3885 2.4204
-15.2804 -7.7546 2.4279
-15.1498 -8.1188 2.4354
-15.0093 -8.4804 2.4426
-14.8573 -8.8379 2.4494
-14.6964 -9.1927 2.4561
-14.5267 -9.5445 2.4628
-14.3483 -9.8930 2.4694
-14.1612 -10.2380 2.4759
-13.9653 -10.5793 2.4824
-13.7609 -10.9166 2.4888
-13.5479 -11.2497 2.4951
-13.3264 -11.5783 2.5013
-13.0966 -11.9022 2.5075
-12.8584 -12.2211 2.5135
-12.6120 -12.5348 2.5195
-12.3575 -12.8430 2.5253
-12.0949 -13.1456 2.5310
-11.8246 -13.4422 2.5366
-11.5464 -13.7327 2.5422
-11.2605 -14.0168 2.5475
-10.9673 -14.2942 2.5528
-10.6667 -14.5648 2.5579
-10.3589 -14.8283 2.5629
-10.0441 -15.0844 2.5678
-9.7225 -15.3331 2.5725
-9.3942 -15.5740 2.5770
-9.0596 -15.8070 2.5815
-8.7166 -16.0281 2.5851
-8.3673 -16.2399 2.5885
-8.0125 -16.4432 2.5917
-7.6524 -16.6379 2.5948
-7.2872 -16.8238 2.5978
-6.9171 -17.0007 2.6006
-6.5424 -17.1685 2.6032
-6.1633 -17.3271 2.6058
-5.7800 -17.4764 2.6081
-5.3928 -17.6161 2.6103
-5.0020 -17.7462 2.6124
-4.6078 -17.8665 2.6143
-4.2104 -17.9770 2.6161
-3.8101 -18.0776 2.6177
-3.4073 -18.1682 2.6191
-3.0022 -18.2487 2.6204
-2.5950 -18.3190 2.6215
-2.1860 -18.3791 2.6225
-1.7755 -18.4288 2.6233
-1.3638 -18.4683 2.6239
-0.9511 -18.4974 2.6244
-0.5378 -18.5162 2.6246
-0.1241 -18.5245 2.6248
0.2897 -18.5224 2.6247
0.7032 -18.5099 2.6245
1.1163 -18.4870 2.6242
1.5286 -18.4538 2.6237
1.9399 -18.4101 2.6230
2.3498 -18.3562 2.6221
2.7581 -18.2921 2.6211
3.1645 -18.2177 2.6199
3.5688 -18.1331 2.6186
3.9706 -18.0386 2.6171
4.3697 -17.9340 2.6154
4.7658 -17.8195 2.6136
5.1587 -17.6952 2.6116
5.5481 -17.5613 2.6095
5.9338 -17.4178 2.6072
6.3154 -17.2648 2.6048
6.6928 -17.1025 2.6022
7.0657 -16.9310 2.5995
7.3108 -16.4730 2.5536
7.3305 -15.5699 2.4384
7.6157 -15.2804 2.4191
7.9428 -15.0832 2.4153
8.2643 -14.8780 2.4114
8.5802 -14.6652 2.4074
8.8901 -14.4448 2.4032
9.1940 -14.2170 2.3989
9.4916 -13.9822 2.3945
9.7800 -13.7365 2.3892
10.0617 -13.4843 2.3838
10.3366 -13.2257 2.3784
10.6044 -12.9611 2.3728
10.8652 -12.6906 2.3671
11.1188 -12.4145 2.3614
11.3650 -12.1329 2.3555
11.6038 -11.8461 2.3496
11.8352 -11.5543 2.3435
12.0588 -11.2578 2.3375
12.2749 -10.9567 2.3313
12.4539 -10.6263 2.3196
12.7020 -10.3569 2.3222
12.9439 -10.0813 2.3246
13.1794 -9.7999 2.3271
13.4085 -9.5126 2.3294
13.6309 -9.2198 2.3317
13.8464 -8.9214 2.3339
14.0550 -8.6178 2.3360
14.2564 -8.3090 2.3380
14.4506 -7.9952 2.3400
14.6375 -7.6767 2.3419
14.8167 -7.3536 2.3437
14.9884 -7.0260 2.3454
15.1522 -6.6942 2.3471
15.3082 -6.3584 2.3487
15.4561 -6.0187 2.3501
15.5960 -5.6754 2.3516
15.7277 -5.3286 2.3529
15.8510 -4.9786 2.3541
15.9660 -4.6256 2.3552
7.8131 -2.0756 1.1454
16.1705 -3.9113 2.3573
16.2598 -3.5505 2.3581
16.3404 -3.1875 2.3589
16.4124 -2.8226 2.3596
16.4755 -2.4560 2.3602
16.4996 -2.0840 2.3564
16.4854 -1.7091 2.3483
16.4608 -1.3357 2.3400
16.4260 -0.9642 2.3314
16.3812 -0.5948 2.3226
16.3265 -0.2279 2.3135
16.2621 0.1362 2.3042
16.1882 0.4973 2.2948
16.1049 0.8551 2.2851
16.0124 1.2094 2.2752
15.9109 1.5598 2.2652
15.8007 1.9062 2.2550
15.6819 2.2482 2.2447
9.7671 1.6236 1.4029
9.7468 1.8449 1.4055
15.2763 3.2465 2.2128
15.1254 3.5693 2.2020
14.9671 3.8868 2.1910
14.8015 4.1988 2.1800
14.6290 4.5052 2.1688
14.4497 4.8059 2.1576
14.2639 5.1006 2.1464
14.0719 5.3894 2.1351
13.8738 5.6720 2.1237
13.6699 5.9483 2.1123
13.4604 6.2183 2.1009
13.2457 6.4819 2.0894
13.0258 6.7390 2.0780
12.8011 6.9895 2.0665
12.5718 7.2334 2.0551
12.3381 7.4706 2.0437
12.1003 7.7011 2.0323
11.8584 7.9248 2.0209
11.6129 8.1416 2.0095
11.3638 8.3517 1.9982
11.1115 8.5549 1.9870
10.8561 8.7513 1.9757
10.5978 8.9409 1.9646
10.3368 9.1236 1.9535
10.0733 9.2994 1.9425
9.8076 9.4685 1.9316
9.5398 9.6307 1.9207
9.2700 9.7862 1.9099
9.0586 10.0012 1.9119
8.8159 10.1814 1.9082
8.5701 10.3562 1.9047
8.3215 10.5258 1.9012
8.0701 10.6901 1.8978
7.8159 10.8491 1.8946
7.5591 11.0026 1.8914
7.3348 11.2042 1.8975
7.3170 11.7415 1.9602
7.2615 12.2539 2.0182
6.9760 12.3952 2.0153
6.6882 12.5306 2.0125
6.3982 12.6602 2.0099
6.1062 12.7838 2.0073
5.8122 12.9015 2.0049
5.5162 13.0132 2.0026
5.2186 13.1190 2.0005
4.9193 13.2187 1.9984
4.6184 13.3125 1.9965
4.3160 13.4003 1.9947
4.0123 13.4820 1.9931
3.7073 13.5577 1.9915
3.4011 13.6273 1.9901
3.0939 13.6909 1.9888
2.7857 13.7485 1.9876
2.4766 13.8000 1.9865
2.1668 13.8453 1.9856
1.8562 13.8846 1.9848
1.5451 13.9179 1.9841
1.2335 13.9450 1.9836
0.9216 13.9660 1.9831
0.6093 13.9810 1.9828
0.2969 13.9898 1.9827
-0.0157 13.9926 1.9826
-0.3281 13.9892 1.9827
-0.6406 13.9798 1.9829
-0.9528 13.9642 1.9832
-1.2647 13.9426 1.9836
-1.5763 13.9148 1.9842
-1.8873 13.8810 1.9849
-2.1978 13.8411 1.9857
-2.5075 13.7951 1.9866
-2.8165 13.7430 1.9877
-3.1246 13.6849 1.9889
-3.4317 13.6207 1.9902
-3.7378 13.5504 1.9917
-4.0427 13.4741 1.9932
-4.3463 13.3918 1.9949
-4.6485 13.3034 1.9967
-4.9492 13.2091 1.9986
-5.2484 13.1087 2.0007
-5.5459 13.0023 2.0029
-5.8417 12.8900 2.0052
-6.1355 12.7717 2.0076
-6.4273 12.6475 2.0101
-6.7171 12.5174 2.0128
-7.0047 12.3814 2.0156
-7.2899 12.2394 2.0185
-7.5728 12.0917 2.0215
-7.8532 11.9381 2.0247
-8.1310 11.7787 2.0279
-8.4060 11.6135 2.0313
-8.6782 11.4425 2.0348
-8.9475 11.2658 2.0384
-9.2137 11.0834 2.0422
-9.4768 10.8954 2.0460
-9.7366 10.7017 2.0500
-9.9931 10.5025 2.0541
-10.2460 10.2976 2.0583
-10.4953 10.0873 2.0626
-10.7410 9.8715 2.0670
-10.9828 9.6502 2.0715
-11.2207 9.4236 2.0762
-11.4545 9.1916 2.0809
-11.6841 8.9543 2.0858
-11.9095 8.7118 2.0907
-12.1304 8.4642 2.0958
-12.3469 8.2114 2.1010
-12.5587 7.9535 2.1063
-12.7658 7.6906 2.1116
-12.9679 7.4228 2.1171
-13.1651 7.1501 2.1227
-13.3572 6.8727 2.1284
-13.5440 6.5905 2.1342
-13.7255 6.3036 2.1400
-13.9015 6.0122 2.1460
-14.0720 5.7163 2.1521
-14.2367 5.4161 2.1582
-14.3955 5.1115 2.1645
-14.5485 4.8027 2.1708
-14.6954 4.4898 2.1772
-14.8361 4.1728 2.1837
-14.9705 3.8520 2.1903
-15.0985 3.5273 2.1969
-15.2199 3.1990 2.2036
-15.3347 2.8671 2.2104
-15.4428 2.5317 2.2173
-15.5439 2.1930 2.2242
-15.6381 1.8511 2.2312
-15.7251 1.5061 2.2383
-15.8050 1.1582 2.2454
-15.8776 0.8075 2.2526
-15.9427 0.4542 2.2598
-16.0003 0.0983 2.2671
-16.0503 -0.2600 2.2745
-16.0802 -0.6199 2.2801
-16.0811 -0.9800 2.2828
-16.0818 -1.3411 2.2865
-16.0822 -1.7036 2.2914
-16.0825 -2.0678 2.2975
-16.0826 -2.4341 2.3047
-16.0825 -2.8028 2.3131
-16.0821 -3.1745 2.3226
-16.0815 -3.5492 2.3334
-16.0808 -3.9277 2.3455
-16.0700 -4.3074 2.3573
-16.0216 -4.6805 2.3650
-15.9644 -5.0534 2.3726
-15.8985 -5.4261 2.3802
-15.8239 -5.7984 2.3879
-15.7404 -6.1699 2.3955
-15.6481 -6.5406 2.4031
-15.5469 -6.9101 2.4106
-15.4368 -7.2783 2.4182
-15.3179 -7.6450 2.4257
-15.1899 -8.0098 2.4331
-15.0530 -8.3725 2.4406
-14.9038 -8.7309 2.4474
-14.7455 -9.0866 2.4541
-14.5785 -9.4393 2.4608
-14.4027 -9.7888 2.4674
-14.2182 -10.1349 2.4740
-14.0250 -10.4773 2.4805
-13.8231 -10.8158 2.4869
-13.6127 -11.1502 2.4932
-13.3938 -11.4802 2.4995
-13.1664 -11.8055 2.5056
-12.9307 -12.1259 2.5117
-12.6868 -12.4413 2.5177
-12.4347 -12.7511 2.5236
-12.1746 -13.0554 2.5293
-11.9065 -13.3539 2.5350
-11.6306 -13.6462 2.5405
-11.3471 -13.9323 2.5459
-11.0560 -14.2117 2.5512
-10.7576 -14.4844 2.5564
-10.4520 -14.7500 2.5614
-10.1392 -15.0084 2.5663
-9.8197 -15.2593 2.5711
-9.4934 -15.5026 2.5757
-9.1606 -15.7379 2.5801
-8.8203 -15.9629 2.5841
-8.4727 -16.1772 2.5875
-8.1196 -16.3831 2.5908
-7.7610 -16.5804 2.5939
-7.3973 -16.7689 2.5969
-7.0286 -16.9486 2.5997
-6.6553 -17.1192 2.6025
-6.2774 -17.2805 2.6050
-5.8954 -17.4326 2.6074
-5.5094 -17.5752 2.6097
-5.1196 -17.7082 2.6118
-4.7264 -17.8314 2.6138
-4.3299 -17.9449 2.6156
-3.9305 -18.0485 2.6172
-3.5284 -18.1421 2.6187
-3.1240 -18.2256 2.6200
-2.7173 -18.2989 2.6212
-2.3088 -18.3621 2.6222
-1.8987 -18.4150 2.6230
-1.4874 -18.4575 2.6237
-1.0750 -18.4898 2.6242
-0.6619 -18.5116 2.6246
-0.2482 -18.5231 2.6248
0.1655 -18.5241 2.6248
0.5792 -18.5147 2.6246
0.9925 -18.4950 2.6243
1.4050 -18.4648 2.6238
1.8166 -18.4243 2.6232
2.2270 -18.3735 2.6224
2.6358 -18.3124 2.6214
3.0428 -18.2411 2.6203
3.4477 -18.1596 2.6190
3.8503 -18.0680 2.6175
4.2503 -17.9664 2.6159
4.6473 -17.8549 2.6141
5.0413 -17.7336 2.6122
5.4317 -17.6025 2.6101
5.8185 -17.4618 2.6079
6.2014 -17.3117 2.6055
6.5801 -17.1521 2.6030
6.9543 -16.9834 2.6003
7.3047 -16.7614 2.5906
7.3241 -15.8307 2.4715
7.5165 -15.3380 2.4202
7.8452 -15.1432 2.4165
8.1684 -14.9404 2.4126
8.4860 -14.7298 2.4086
8.7978 -14.5117 2.4045
9.1035 -14.2861 2.4002
9.4030 -14.0534 2.3958
9.6942 -13.8109 2.3908
9.9778 -13.5606 2.3855
10.2548 -13.3040 2.3800
10.5248 -13.0411 2.3745
10.7877 -12.7724 2.3688
11.0435 -12.4979 2.3631
11.2919 -12.2179 2.3573
11.5330 -11.9327 2.3514
11.7665 -11.6424 2.3454
11.9925 -11.3472 2.3393
12.2109 -11.0475 2.3332
12.3782 -10.7060 2.3189
12.6242 -10.4351 2.3207
12.8720 -10.1646 2.3239
13.1095 -9.8849 2.3263
13.3405 -9.5994 2.3287
13.5649 -9.3082 2.3310
13.7825 -9.0115 2.3332
13.9932 -8.7094 2.3353
14.1968 -8.4022 2.3374
14.3931 -8.0899 2.3394
14.5822 -7.7727 2.3413
14.7637 -7.4510 2.3432
14.9377 -7.1247 2.3449
15.1039 -6.7942 2.3466
15.2622 -6.4595 2.3482
15.4126 -6.1210 2.3497
15.5549 -5.7787 2.3511
15.6890 -5.4330 2.3525
15.8149 -5.0839 2.3537
15.9324 -4.7318 2.3549
7.7364 -2.1108 1.1362
16.1420 -4.0191 2.3570
16.2339 -3.6590 2.3579
16.3172 -3.2966 2.3587
16.3917 -2.9323 2.3594
16.4575 -2.5661 2.3600
16.5019 -2.1967 2.3588
16.4907 -1.8214 2.3508
16.4692 -1.4475 2.3425
16.4375 -1.0754 2.3340
16.3957 -0.7054 2.3252
16.3439 -0.3377 2.3163
16.2824 0.0273 2.3070
16.2114 0.3893 2.2976
16.1308 0.7482 2.2880
16.0411 1.1035 2.2782
15.9423 1.4551 2.2682
15.8347 1.8027 2.2581
15.7185 2.1461 2.2478
10.0042 1.5943 1.4354
9.7454 1.7770 1.4036
9.7500 2.0039 1.4103
15.1714 3.4730 2.2052
15.0153 3.7921 2.1943
14.8519 4.1058 2.1833
14.6815 4.4139 2.1722
14.5042 4.7163 2.1610
14.3203 5.0128 2.1498
14.1301 5.3034 2.1385
13.9338 5.5878 2.1271
13.7317 5.8661 2.1157
13.5238 6.1380 2.1043
13.3107 6.4035 2.0929
13.0923 6.6626 2.0814
12.8691 6.9151 2.0700
12.6411 7.1609 2.0585
12.4087 7.4002 2.0471
12.1720 7.6326 2.0357
11.9314 7.8584 2.0243
11.6869 8.0773 2.0129
11.4389 8.2894 2.0016
11.1876 8.4947 1.9903
10.9330 8.6931 1.9791
10.6756 8.8848 1.9679
10.4154 9.0695 1.9568
10.1526 9.2474 1.9458
9.8876 9.4185 1.9348
9.6203 9.5828 1.9240
9.3511 9.7403 1.9132
9.1307 9.9462 1.9131
8.8890 10.1279 1.9093
8.6442 10.3043 1.9057
8.3964 10.4755 1.9022
8.1458 10.6414 1.8988
7.8924 10.8019 1.8955
7.6364 10.9571 1.8923
7.3777 11.1069 1.8893
7.3212 11.5747 1.9405
7.3066 12.1436 2.0081
7.0619 12.3534 2.0162
6.7748 12.4906 2.0133
6.4855 12.6219 2.0107
6.1940 12.7473 2.0081
5.9006 12.8668 2.0056
5.6052 12.9803 2.0033
5.3081 13.0878 2.0011
5.0092 13.1894 1.9990
4.7088 13.2850 1.9971
4.4069 13.3746 1.9953
4.1035 13.4581 1.9935
3.7989 13.5356 1.9920
3.4931 13.6071 1.9905
3.1861 13.6725 1.9892
2.8783 13.7319 1.9879
2.5694 13.7851 1.9868
2.2598 13.8324 1.9859
1.9495 13.8735 1.9850
1.6385 13.9085 1.9843
1.3271 13.9375 1.9837
1.0152 13.9604 1.9833
0.7030 13.9771 1.9829
0.3906 13.9878 1.9827
0.0782 13.9924 1.9826
-0.2344 13.9908 1.9826
-0.5469 13.9832 1.9828
-0.8592 13.9695 1.9831
-1.1712 13.9497 1.9835
-1.4828 13.9238 1.9840
-1.7940 13.8918 1.9847
-2.1047 13.8537 1.9854
-2.4147 13.8095 1.9863
-2.7239 13.7593 1.9874
-3.0323 13.7029 1.9885
-3.3397 13.6406 1.9898
-3.6461 13.5721 1.9912
-3.9513 13.4976 1.9927
-4.2553 13.4171 1.9944
-4.5580 13.3306 1.9962
-4.8592 13.2380 1.9981
-5.1589 13.1394 2.0001
-5.4568 13.0348 2.0022
-5.7531 12.9243 2.0045
-6.0475 12.8078 2.0069
-6.3400 12.6854 2.0094
-6.6304 12.5570 2.0120
-6.9186 12.4228 2.0147
-7.2046 12.2826 2.0176
-7.4882 12.1366 2.0206
-7.7694 11.9848 2.0237
-8.0479 11.8271 2.0269
-8.3238 11.6636 2.0303
-8.5968 11.4944 2.0338
-8.8670 11.3194 2.0373
-9.1342 11.1388 2.0410
-9.3982 10.9524 2.0449
-9.6590 10.7604 2.0488
-9.9165 10.5628 2.0528
-10.1705 10.3597 2.0570
-10.4209 10.1510 2.0613
-10.6677 9.9368 2.0657
-10.9107 9.7172 2.0701
-11.1498 9.4921 2.0748
-11.3848 9.2618 2.0795
-11.6157 9.0261 2.0843
-11.8423 8.7851 2.0892
-12.0646 8.5390 2.0943
-12.2825 8.2877 2.0994
-12.4956 8.0314 2.1047
-12.7042 7.7700 2.1100
-12.9078 7.5037 2.1155
-13.1065 7.2324 2.1210
-13.3001 6.9564 2.1267
-13.4885 6.6756 2.1324
-13.6716 6.3902 2.1383
-13.8493 6.1001 2.1442
-14.0214 5.8056 2.1502
-14.1879 5.5066 2.1564
-14.3485 5.2033 2.1626
-14.5033 4.8958 2.1689
-14.6519 4.5840 2.1753
-14.7945 4.2683 2.1817
-14.9308 3.9486 2.1883
-15.0608 3.6251 2.1949
-15.1842 3.2979 2.2016
-15.3010 2.9670 2.2084
-15.4111 2.6327 2.2152
-15.5143 2.2950 2.2221
-15.6106 1.9540 2.2291
-15.6998 1.6099 2.2362
-15.7818 1.2629 2.2433
-15.8566 0.9130 2.2504
-15.9239 0.5604 2.2577
-15.9838 0.2052 2.2649
-16.0361 -0.1521 2.2722
-16.0799 -0.5120 2.2795
-16.0808 -0.8719 2.2818
-16.0816 -1.2327 2.2853
-16.0821 -1.5947 2.2898
-16.0825 -1.9584 2.2955
-16.0826 -2.3240 2.3024
-16.0825 -2.6920 2.3104
-16.0822 -3.0626 2.3196
-16.0817 -3.4365 2.3301
-16.0810 -3.8137 2.3417
-16.0801 -4.1949 2.3546
-16.0370 -4.5687 2.3627
-15.9824 -4.9416 2.3703
-15.9192 -5.3144 2.3779
-15.8472 -5.6868 2.3856
-15.7664 -6.0585 2.3932
-15.6767 -6.4295 2.4008
-15.5782 -6.7994 2.4084
-15.4708 -7.1681 2.4159
-15.3545 -7.5352 2.4234
-15.2292 -7.9006 2.4309
-15.0951 -8.2639 2.4383
-14.9495 -8.6237 2.4454
-14.7939 -8.9802 2.4521
-14.6296 -9.3338 2.4588
-14.4564 -9.6843 2.4654
-14.2745 -10.0314 2.4720
-14.0839 -10.3750 2.4785
-13.8846 -10.7147 2.4850
-13.6767 -11.0504 2.4913
-13.4603 -11.3817 2.4976
-13.2355 -11.7084 2.5038
-13.0023 -12.0303 2.5099
-12.7608 -12.3472 2.5159
-12.5112 -12.6587 2.5218
-12.2534 -12.9648 2.5276
-11.9877 -13.2650 2.5333
-11.7142 -13.5592 2.5389
-11.4330 -13.8472 2.5443
-11.1441 -14.1286 2.5497
-10.8479 -14.4033 2.5549
-10.5444 -14.6711 2.5599
-10.2338 -14.9316 2.5649
-9.9163 -15.1848 2.5697
-9.5920 -15.4304 2.5743
-9.2612 -15.6682 2.5788
-8.9234 -15.8970 2.5830
-8.5776 -16.1138 2.5865
-8.2260 -16.3222 2.5898
-7.8691 -16.5221 2.5930
-7.5069 -16.7133 2.5960
-7.1397 -16.8956 2.5989
-6.7678 -17.0689 2.6017
-6.3912 -17.2331 2.6043
-6.0104 -17.3879 2.6067
-5.6256 -17.5334 2.6090
-5.2369 -17.6693 2.6112
-4.8447 -17.7955 2.6132
-4.4492 -17.9119 2.6150
-4.0506 -18.0185 2.6167
-3.6493 -18.1151 2.6183
-3.2456 -18.2016 2.6197
-2.8395 -18.2780 2.6209
-2.4315 -18.3442 2.6219
-2.0219 -18.4002 2.6228
-1.6109 -18.4459 2.6235
-1.1988 -18.4812 2.6241
-0.7858 -18.5062 2.6245
-0.3723 -18.5207 2.6247
0.0414 -18.5249 2.6248
0.4551 -18.5186 2.6247
0.8685 -18.5020 2.6244
1.2813 -18.4750 2.6240
1.6932 -18.4375 2.6234
2.1040 -18.3898 2.6226
2.5133 -18.3318 2.6217
2.9209 -18.2635 2.6206
3.3265 -18.1851 2.6194
3.7299 -18.0965 2.6180
4.1306 -17.9979 2.6164
4.5286 -17.8894 2.6147
4.9234 -17.7710 2.6128
5.3149 -17.6428 2.6108
5.7029 -17.5050 2.6086
6.0870 -17.3577 2.6062
6.4669 -17.2010 2.6037
6.8426 -17.0350 2.6011
7.2136 -16.8598 2.5983
7.3185 -16.1009 2.5059
7.4168 -15.3949 2.4212
7.7471 -15.2025 2.4176
8.0720 -15.0021 2.4138
8.3914 -14.7938 2.4098
8.7049 -14.5779 2.4058
9.0124 -14.3546 2.4015
9.3138 -14.1239 2.3972
9.6078 -13.8847 2.3924
9.8935 -13.6364 2.3871
10.1725 -13.3816 2.3817
10.4445 -13.1206 2.3761
10.7096 -12.8536 2.3705
10.9675 -12.5808 2.3648
11.2182 -12.3025 2.3590
11.4614 -12.0188 2.3531
11.6973 -11.7300 2.3472
11.9255 -11.4362 2.3411
12.1462 -11.1379 2.3350
12.3021 -10.7851 2.3181
12.5538 -10.5193 2.3207
12.7995 -10.2474 2.3232
13.0389 -9.9694 2.3256
13.2719 -9.6857 2.3280
13.4983 -9.3962 2.3303
13.7179 -9.1011 2.3325
13.9307 -8.8006 2.3347
14.1365 -8.4949 2.3368
14.3350 -8.1841 2.3388
14.5263 -7.8684 2.3408
14.7101 -7.5480 2.3426
14.8863 -7.2231 2.3444
15.0549 -6.8938 2.3461
15.2155 -6.5603 2.3477
15.3683 -6.2230 2.3493
15.5131 -5.8818 2.3507
15.6497 -5.5371 2.3521
15.7780 -5.1890 2.3534
15.8980 -4.8378 2.3546
16.0096 -4.4836 2.3557
16.1127 -4.1267 2.3567
16.2072 -3.7673 2.3576
16.2931 -3.4056 2.3584
16.3703 -3.0418 2.3592
16.4387 -2.6761 2.3598
16.4983 -2.3089 2.3604
16.4952 -1.9339 2.3532
16.4767 -1.5595 2.3450
16.4480 -1.1869 2.3366
16.4093 -0.8162 2.3279
16.3605 -0.4478 2.3190
16.3019 -0.0819 2.3098
16.2337 0.2810 2.3005
16.1559 0.6409 2.2909
16.0690 0.9973 2.2812
15.9729 1.3500 2.2713
15.8679 1.6988 2.2612
15.7542 2.0435 2.2509
15.6320 2.3838 2.2405
9.7440 1.7094 1.4017
9.7486 1.9356 1.4082
15.2168 3.3762 2.2085
15.0630 3.6969 2.1976
14.9017 4.0122 2.1866
14.7333 4.3220 2.1755
14.5581 4.6262 2.1644
14.3762 4.9245 2.1531
14.1879 5.2169 2.1419
13.9933 5.5032 2.1305
13.7929 5.7833 2.1191
13.5868 6.0571 2.1077
13.3752 6.3245 2.0963
13.1583 6.5855 2.0849
12.9365 6.8400 2.0734
12.7100 7.0879 2.0620
12.4789 7.3291 2.0505
12.2434 7.5636 2.0391
12.0040 7.7914 2.0277
11.7607 8.0123 2.0163
11.5137 8.2265 2.0050
11.2633 8.4338 1.9937
11.0097 8.6343 1.9825
10.7531 8.8280 1.9713
10.4937 9.0148 1.9602
10.2317 9.1948 1.9491
9.9673 9.3679 1.9381
9.7007 9.5342 1.9272
9.4320 9.6937 1.9164
9.2026 9.8906 1.9142
8.9619 10.0739 1.9104
8.7180 10.2519 1.9068
8.4710 10.4247 1.9033
8.2213 10.5922 1.8998
7.9687 10.7544 1.8965
7.7134 10.9111 1.8933
7.4556 11.0626 1.8902
7.3254 11.4113 1.9213
7.3111 11.9689 1.9872
7.1476 12.3111 2.0170
6.8611 12.4501 2.0142
6.5725 12.5831 2.0115
6.2816 12.7103 2.0089
5.9888 12.8316 2.0064
5.6940 12.9469 2.0040
5.3974 13.0562 2.0018
5.0990 13.1596 1.9997
4.7991 13.2570 1.9977
4.4976 13.3483 1.9958
4.1947 13.4337 1.9940
3.8904 13.5130 1.9924
3.5849 13.5863 1.9909
3.2784 13.6535 1.9895
2.9707 13.7147 1.9883
2.6621 13.7698 1.9872
2.3527 13.8188 1.9862
2.0426 13.8618 1.9853
1.7318 13.8986 1.9845
1.4205 13.9295 1.9839
1.1088 13.9541 1.9834
0.7967 13.9727 1.9830
0.4844 13.9852 1.9827
0.1719 13.9917 1.9826
-0.1406 13.9920 1.9826
-0.4531 13.9862 1.9827
-0.7655 13.9743 1.9830
-1.0776 13.9563 1.9833
-1.3894 13.9322 1.9838
-1.7007 13.9020 1.9845
-2.0115 13.8657 1.9852
-2.3217 13.8234 1.9861
-2.6312 13.7750 1.9871
-2.9399 13.7205 1.9882
-3.2476 13.6599 1.9894
-3.5543 13.5933 1.9908
-3.8599 13.5206 1.9923
-4.1643 13.4419 1.9939
-4.4673 13.3571 1.9956
-4.7690 13.2664 1.9975
-5.0691 13.1696 1.9995
-5.3676 13.0669 2.0016
-5.6644 12.9581 2.0038
-5.9594 12.8434 2.0061
-6.2525 12.7228 2.0086
-6.5435 12.5962 2.0112
-6.8324 12.4637 2.0139
-7.1191 12.3253 2.0167
-7.4034 12.1810 2.0197
-7.6853 12.0309 2.0228
-7.9646 11.8750 2.0260
-8.2413 11.7133 2.0293
-8.5152 11.5458 2.0327
-8.7863 11.3725 2.0363
-9.0544 11.1936 2.0399
-9.3193 11.0089 2.0437
-9.5811 10.8186 2.0476
-9.8396 10.6227 2.0516
-10.0947 10.4212 2.0557
-10.3462 10.2142 2.0600
-10.5940 10.0016 2.0643
-10.8382 9.7836 2.0688
-11.0784 9.5602 2.0734
-11.3147 9.3314 2.0780
-11.5469 9.0973 2.0828
-11.7748 8.8580 2.0877
-11.9984 8.6134 2.0928
-12.2176 8.3636 2.0979
-12.4322 8.1088 2.1031
-12.6421 7.8489 2.1084
-12.8472 7.5841 2.1138
-13.0474 7.3143 2.1194
-13.2426 7.0397 2.1250
-13.4325 6.7603 2.1307
-13.6172 6.4763 2.1365
-13.7966 6.1876 2.1424
-13.9704 5.8944 2.1484
-14.1385 5.5967 2.1545
-14.3009 5.2947 2.1607
-14.4574 4.9884 2.1670
-14.6080 4.6780 2.1733
-14.7524 4.3635 2.1798
-14.8906 4.0449 2.1863
-15.0225 3.7226 2.1929
-15.1478 3.3964 2.1996
-15.2667 3.0667 2.2063
-15.3788 2.7333 2.2132
-15.4840 2.3966 2.2201
-15.5824 2.0566 2.2270
-15.6738 1.7135 2.2340
-15.7580 1.3673 2.2411
-15.8349 1.0183 2.2483
-15.9045 0.6665 2.2555
-15.9666 0.3120 2.2627
-16.0212 -0.0448 2.2700
-16.0681 -0.4038 2.2774
-16.0806 -0.7639 2.2810
-16.0814 -1.1243 2.2841
-16.0820 -1.4860 2.2884
-16.0824 -1.8491 2.2937
-16.0826 -2.2141 2.3002
-16.0826 -2.5813 2.3079
-16.0823 -2.9511 2.3167
-16.0819 -3.3240 2.3268
-16.0813 -3.7002 2.3381
-16.0804 -4.0802 2.3506
-16.0516 -4.4567 2.3604
-15.9997 -4.8297 2.3680
-15.9391 -5.2026 2.3757
-15.8697 -5.5751 2.3833
-15.7915 -5.9471 2.3909
-15.7045 -6.3183 2.3985
-15.6087 -6.6886 2.4061
-15.5040 -7.0576 2.4136
-15.3903 -7.4252 2.4212
-15.2677 -7.7911 2.4287
-15.1362 -8.1552 2.4361
-14.9945 -8.5162 2.4433
-14.8416 -8.8735 2.4501
-14.6798 -9.2280 2.4568
-14.5092 -9.5795 2.4635
-14.3300 -9.9277 2.4701
-14.1419 -10.2723 2.4766
-13.9453 -10.6132 2.4830
-13.7400 -10.9501 2.4894
-13.5261 -11.2828 2.4957
-13.3038 -11.6109 2.5020
-13.0731 -11.9343 2.5081
-12.8341 -12.2527 2.5141
-12.5869 -12.5659 2.5200
-12.3316 -12.8735 2.5259
-12.0682 -13.1755 2.5316
-11.7970 -13.4716 2.5372
-11.5181 -13.7614 2.5427
-11.2316 -14.0448 2.5481
-10.9375 -14.3216 2.5533
-10.6362 -14.5915 2.5584
-10.3277 -14.8542 2.5634
-10.0122 -15.1097 2.5682
-9.6900 -15.3575 2.5729
-9.3611 -15.5977 2.5775
-9.0257 -15.8298 2.5819
-8.6819 -16.0496 2.5855
-8.3321 -16.2606 2.5888
-7.9767 -16.4631 2.5920
-7.6161 -16.6569 2.5951
-7.2504 -16.8419 2.5980
-6.8798 -17.0179 2.6008
-6.5046 -17.1848 2.6035
-6.1251 -17.3425 2.6060
-5.7414 -17.4907 2.6084
-5.3539 -17.6295 2.6106
-4.9627 -17.7586 2.6126
-4.5681 -17.8780 2.6145
-4.1705 -17.9875 2.6163
-3.7700 -18.0871 2.6178
-3.3669 -18.1767 2.6193
-2.9615 -18.2561 2.6205
-2.5541 -18.3255 2.6216
-2.1449 -18.3845 2.6226
-1.7344 -18.4333 2.6233
-1.3225 -18.4717 2.6239
-0.9098 -18.4998 2.6244
-0.4964 -18.5175 2.6247
-0.0827 -18.5247 2.6248
0.3310 -18.5216 2.6247
0.7445 -18.5081 2.6245
1.1575 -18.4841 2.6241
1.5698 -18.4499 2.6236
1.9809 -18.4052 2.6229
2.3907 -18.3503 2.6220
2.7988 -18.2851 2.6210
3.2051 -18.2097 2.6198
3.6091 -18.1241 2.6184
4.0107 -18.0285 2.6169
4.4095 -17.9230 2.6152
4.8053 -17.8075 2.6134
5.1979 -17.6823 2.6114
5.5869 -17.5474 2.6093
5.9721 -17.4029 2.6070
6.3534 -17.2490 2.6045
6.7303 -17.0857 2.6019
7.1028 -16.9133 2.5992
7.3127 -16.3786 2.5415
7.3381 -15.4961 2.4294
7.6486 -15.2611 2.4187
7.9751 -15.0630 2.4150
8.2962 -14.8571 2.4110
8.6115 -14.6435 2.4070
8.9208 -14.4223 2.4028
9.2240 -14.1939 2.3985
9.5208 -13.9580 2.3940
9.8085 -13.7116 2.3887
10.0895 -13.4587 2.3833
10.3636 -13.1996 2.3778
10.6308 -12.9343 2.3722
10.8909 -12.6632 2.3665
11.1437 -12.3865 2.3608
11.3892 -12.1044 2.3549
11.6273 -11.8171 2.3490
11.8579 -11.5249 2.3429
12.0808 -11.2278 2.3368
12.2960 -10.9263 2.3307
12.4789 -10.5997 2.3199
12.7264 -10.3296 2.3224
12.9677 -10.0535 2.3249
13.2026 -9.7714 2.3273
13.4310 -9.4836 2.3296
13.6527 -9.1902 2.3319
13.8676 -8.8913 2.3341
14.0755 -8.5871 2.3362
14.2762 -8.2778 2.3382
14.4697 -7.9636 2.3402
14.6557 -7.6446 2.3421
14.8343 -7.3210 2.3439
15.0051 -6.9930 2.3456
15.1682 -6.6608 2.3473
15.3233 -6.3246 2.3488
15.4705 -5.9845 2.3503
15.6095 -5.6408 2.3517
15.7404 -5.2937 2.3530
15.8629 -4.9434 2.3542
15.9770 -4.5901 2.3553
16.0827 -4.2340 2.3564
16.1797 -3.8753 2.3573
16.2682 -3.5143 2.3582
16.3481 -3.1511 2.3590
16.4191 -2.7860 2.3597
16.4813 -2.4192 2.3602
16.4986 -2.0464 2.3556
16.4833 -1.6717 2.3475
16.4577 -1.2985 2.3391
16.4219 -0.9271 2.3305
16.3762 -0.5580 2.3217
16.3205 -0.1914 2.3126
16.2551 0.1725 2.3033
16.1803 0.5333 2.2938
16.0960 0.8907 2.2841
16.0027 1.2446 2.2743
15.9003 1.5946 2.2642
15.7892 1.9406 2.2540
15.6695 2.2822 2.2436
9.7510 1.6434 1.4011
9.7472 1.8675 1.4062
15.2615 3.2790 2.2117
15.1099 3.6013 2.2009
14.9508 3.9182 2.1899
14.7846 4.2297 2.1789
14.6113 4.5355 2.1677
14.4314 4.8356 2.1565
14.2450 5.1298 2.1452
14.0523 5.4179 2.1339
13.8537 5.6999 2.1226
13.6492 5.9756 2.1112
13.4392 6.2450 2.0997
13.2239 6.5079 2.0883
13.0035 6.7644 2.0768
12.7784 7.0142 2.0654
12.5487 7.2575 2.0540
12.3145 7.4940 2.0425
12.0762 7.7237 2.0311
11.8340 7.9468 2.0197
11.5882 8.1630 2.0084
11.3388 8.3723 1.9971
11.0861 8.5749 1.9858
10.8304 8.7706 1.9746
10.5718 8.9595 1.9635
10.3106 9.1415 1.9524
10.0469 9.3167 1.9414
9.7809 9.4850 1.9305
9.5129 9.6466 1.9196
9.2430 9.8014 1.9089
9.0344 10.0195 1.9115
8.7914 10.1991 1.9079
8.5454 10.3734 1.9043
8.2965 10.5425 1.9008
8.0448 10.7063 1.8975
7.7903 10.8647 1.8942
7.5332 11.0177 1.8911
7.3295 11.2511 1.9026
7.3155 11.7977 1.9669
7.2331 12.2682 2.0179
6.9473 12.4090 2.0150
6.6593 12.5438 2.0123
6.3691 12.6728 2.0096
6.0769 12.7958 2.0071
5.7826 12.9129 2.0047
5.4865 13.0241 2.0024
5.1887 13.1292 2.0003
4.8892 13.2284 1.9982
4.5882 13.3216 1.9963
4.2857 13.4087 1.9946
3.9818 13.4898 1.9929
3.6767 13.5649 1.9914
3.3704 13.6340 1.9899
3.0631 13.6970 1.9886
2.7548 13.7539 1.9875
2.4456 13.8048 1.9864
2.1357 13.8495 1.9855
1.8251 13.8882 1.9847
1.5140 13.9209 1.9841
1.2024 13.9474 1.9835
0.8904 13.9678 1.9831
0.5781 13.9821 1.9828
0.2656 13.9904 1.9826
-0.0469 13.9925 1.9826
-0.3594 13.9885 1.9827
-0.6718 13.9785 1.9829
-0.9840 13.9623 1.9832
-1.2959 13.9400 1.9837
-1.6074 13.9117 1.9843
-1.9184 13.8773 1.9850
-2.2288 13.8367 1.9858
-2.5385 13.7902 1.9867
-2.8474 13.7375 1.9878
-3.1554 13.6787 1.9890
-3.4624 13.6139 1.9904
-3.7684 13.5430 1.9918
-4.0731 13.4661 1.9934
-4.3766 13.3832 1.9951
-4.6786 13.2943 1.9969
-4.9792 13.1993 1.9988
-5.2783 13.0983 2.0009
-5.5756 12.9914 2.0031
-5.8711 12.8784 2.0054
-6.1647 12.7596 2.0078
-6.4564 12.6348 2.0104
-6.7459 12.5040 2.0131
-7.0333 12.3674 2.0159
-7.3183 12.2249 2.0188
-7.6010 12.0766 2.0218
-7.8811 11.9224 2.0250
-8.1586 11.7624 2.0283
-8.4333 11.5966 2.0317
-8.7053 11.4251 2.0352
-8.9743 11.2478 2.0388
-9.2402 11.0649 2.0426
-9.5029 10.8763 2.0464
-9.7624 10.6820 2.0504
-10.0185 10.4822 2.0545
-10.2711 10.2768 2.0587
-10.5201 10.0659 2.0630
-10.7654 9.8496 2.0674
-11.0068 9.6278 2.0720
-11.2442 9.4006 2.0766
-11.4777 9.1681 2.0814
-11.7069 8.9303 2.0863
-11.9318 8.6873 2.0912
-12.1523 8.4391 2.0963
-12.3683 8.1858 2.1015
-12.5796 7.9274 2.1068
-12.7862 7.6641 2.1122
-12.9879 7.3958 2.1177
-13.1845 7.1226 2.1233
-13.3761 6.8446 2.1290
-13.5624 6.5620 2.1348
-13.7433 6.2747 2.1406
-13.9188 5.9828 2.1466
-14.0887 5.6865 2.1527
-14.2528 5.3858 2.1588
-14.4111 5.0808 2.1651
-14.5635 4.7715 2.1714
-14.7098 4.4582 2.1778
-14.8498 4.1409 2.1843
-14.9836 3.8197 2.1909
-15.1109 3.4946 2.1976
-15.2317 3.1659 2.2043
-15.3459 2.8337 2.2111
-15.4532 2.4980 2.2180
-15.5537 2.1590 2.2249
-15.6471 1.8168 2.2319
-15.7335 1.4715 2.2390
-15.8126 1.1233 2.2461
-15.8844 0.7723 2.2533
-15.9488 0.4187 2.2606
-16.0056 0.0625 2.2678
-16.0549 -0.2960 2.2752
-16.0803 -0.6558 2.2803
-16.0812 -1.0161 2.2831
-16.0818 -1.3773 2.2870
-16.0823 -1.7400 2.2920
-16.0826 -2.1044 2.2982
-16.0826 -2.4709 2.3055
-16.0824 -2.8399 2.3140
-16.0821 -3.2118 2.3237
-16.0815 -3.5869 2.3346
-16.0807 -3.9658 2.3467
-16.0656 -4.3448 2.3581
-16.0162 -4.7178 2.3657
-15.9582 -5.0907 2.3734
-15.8914 -5.4634 2.3810
-15.8159 -5.8356 2.3886
-15.7316 -6.2070 2.3962
-15.6384 -6.5776 2.4038
-15.5363 -6.9471 2.4114
-15.4254 -7.3151 2.4189
-15.3054 -7.6816 2.4264
-15.1766 -8.0461 2.4339
-15.0386 -8.4086 2.4413
-14.8884 -8.7666 2.4481
-14.7292 -9.1220 2.4548
-14.5613 -9.4744 2.4615
-14.3846 -9.8236 2.4681
-14.1993 -10.1693 2.4746
-14.0052 -10.5114 2.4811
-13.8024 -10.8495 2.4875
-13.5912 -11.1834 2.4939
-13.3714 -11.5129 2.5001
-13.1432 -11.8378 2.5062
-12.9067 -12.1577 2.5123
-12.6619 -12.4725 2.5183
-12.4090 -12.7818 2.5241
-12.1481 -13.0856 2.5299
-11.8792 -13.3834 2.5355
-11.6026 -13.6752 2.5411
-11.3183 -13.9605 2.5465
-11.0265 -14.2393 2.5518
-10.7274 -14.5112 2.5569
-10.4210 -14.7762 2.5619
-10.1076 -15.0338 2.5668
-9.7873 -15.2840 2.5715
-9.4604 -15.5265 2.5761
-9.1270 -15.7610 2.5806
-8.7858 -15.9847 2.5844
-8.4376 -16.1982 2.5878
-8.0839 -16.4032 2.5911
-7.7249 -16.5996 2.5942
-7.3606 -16.7873 2.5972
-6.9915 -16.9660 2.6000
-6.6177 -17.1357 2.6027
-6.2394 -17.2962 2.6053
-5.8570 -17.4473 2.6077
-5.4705 -17.5889 2.6099
-5.0804 -17.7209 2.6120
-4.6868 -17.8432 2.6140
-4.2901 -17.9557 2.6157
-3.8904 -18.0583 2.6174
-3.4881 -18.1509 2.6188
-3.0834 -18.2334 2.6202
-2.6765 -18.3057 2.6213
-2.2679 -18.3678 2.6223
-1.8577 -18.4197 2.6231
-1.4461 -18.4612 2.6238
-1.0337 -18.4924 2.6243
-0.6204 -18.5132 2.6246
-0.2068 -18.5236 2.6248
0.2069 -18.5236 2.6248
0.6205 -18.5132 2.6246
1.0337 -18.4924 2.6243
1.4462 -18.4612 2.6238
1.8577 -18.4197 2.6231
2.2679 -18.3678 2.6223
2.6766 -18.3057 2.6213
3.0834 -18.2334 2.6202
3.4881 -18.1509 2.6188
3.8905 -18.0583 2.6174
4.2901 -17.9557 2.6157
4.6869 -17.8432 2.6140
5.0805 -17.7209 2.6120
5.4706 -17.5888 2.6099
5.8570 -17.4472 2.6077
6.2395 -17.2961 2.6053
6.6177 -17.1357 2.6027
6.9915 -16.9660 2.6000
7.3068 -16.6644 2.5782
7.3259 -15.7422 2.4602
7.5496 -15.3189 2.4198
7.8778 -15.1233 2.4161
8.2005 -14.9197 2.4122
8.5175 -14.7083 2.4082
8.8286 -14.4894 2.4041
9.1337 -14.2632 2.3998
9.4326 -14.0297 2.3954
9.7229 -13.7862 2.3903
10.0059 -13.5352 2.3849
10.2821 -13.2779 2.3795
10.5514 -13.0145 2.3739
10.8136 -12.7452 2.3683
11.0686 -12.4701 2.3625
11.3164 -12.1896 2.3567
11.5567 -11.9038 2.3508
11.7895 -11.6130 2.3448
12.0147 -11.3174 2.3387
12.2323 -11.0172 2.3325
12.4035 -10.6795 2.3191
12.6528 -10.4113 2.3217
12.8960 -10.1369 2.3242
13.1328 -9.8566 2.3266
13.3632 -9.5705 2.3289
13.5870 -9.2788 2.3312
13.8039 -8.9815 2.3334
14.0139 -8.6789 2.3356
14.2167 -8.3711 2.3376
14.4124 -8.0584 2.3396
14.6007 -7.7408 2.3415
14.7815 -7.4186 2.3433
14.9547 -7.0919 2.3451
15.1201 -6.7609 2.3468
15.2776 -6.4258 2.3484
15.4272 -6.0869 2.3499
15.5687 -5.7443 2.3513
15.7020 -5.3982 2.3526
15.8270 -5.0488 2.3539
15.9437 -4.6964 2.3550
7.7368 -2.0924 1.1356
16.1516 -3.9832 2.3571
16.2426 -3.6228 2.3580
16.3250 -3.2603 2.3588
16.3987 -2.8957 2.3595
16.4636 -2.5294 2.3601
16.5012 -2.1591 2.3580
16.4890 -1.7839 2.3500
16.4665 -1.4102 2.3417
16.4338 -1.0383 2.3331
16.3909 -0.6685 2.3244
16.3383 -0.3011 2.3153
16.2758 0.0636 2.3061
16.2037 0.4254 2.2967
16.1223 0.7839 2.2871
16.0316 1.1388 2.2772
15.9319 1.4901 2.2672
15.8234 1.8373 2.2571
15.7064 2.1802 2.2468
9.8920 1.5990 1.4198
9.7458 1.7996 1.4042
9.7565 2.0279 1.4119
15.1562 3.5051 2.2041
14.9993 3.8237 2.1932
14.8352 4.1368 2.1822
14.6640 4.4444 2.1711
14.4861 4.7462 2.1599
14.3016 5.0422 2.1486
14.1108 5.3321 2.1373
13.9139 5.6159 2.1260
13.7111 5.8935 2.1146
13.5028 6.1648 2.1032
13.2891 6.4297 2.0917
13.0702 6.6881 2.0803
12.8465 6.9400 2.0688
12.6181 7.1852 2.0574
12.3852 7.4237 2.0459
12.1481 7.6555 2.0345
11.9071 7.8805 2.0231
11.6623 8.0988 2.0118
11.4139 8.3102 2.0005
11.1622 8.5148 1.9892
10.9074 8.7126 1.9780
10.6497 8.9035 1.9668
10.3892 9.0876 1.9557
10.1262 9.2648 1.9447
9.8609 9.4353 1.9337
9.5935 9.5988 1.9229
9.3241 9.7556 1.9121
9.1067 9.9646 1.9127
8.8647 10.1458 1.9090
8.6195 10.3217 1.9054
8.3715 10.4923 1.9019
8.1206 10.6577 1.8985
7.8669 10.8177 1.8952
7.6106 10.9724 1.8920
7.3518 11.1216 1.8890
7.3199 11.6299 1.9471
7.3050 12.2027 2.0151
7.0333 12.3674 2.0159
6.7459 12.5040 2.0131
6.4564 12.6347 2.0104
6.1648 12.7595 2.0078
5.8711 12.8784 2.0054
5.5756 12.9913 2.0031
5.2783 13.0983 2.0009
4.9792 13.1993 1.9988
4.6787 13.2942 1.9969
4.3766 13.3832 1.9951
4.0731 13.4661 1.9934
3.7684 13.5430 1.9918
3.4624 13.6139 1.9904
3.1554 13.6787 1.9890
2.8473 13.7375 1.9878
2.5384 13.7901 1.9867
2.2287 13.8367 1.9858
1.9184 13.8773 1.9850
1.6074 13.9117 1.9843
1.2959 13.9401 1.9837
0.9840 13.9623 1.9832
0.6718 13.9785 1.9829
0.3594 13.9885 1.9827
0.0468 13.9925 1.9826
-0.2657 13.9904 1.9826
-0.5781 13.9821 1.9828
-0.8904 13.9678 1.9831
-1.2023 13.9474 1.9835
-1.5140 13.9209 1.9841
-1.8251 13.8882 1.9847
-2.1357 13.8496 1.9855
-2.4456 13.8048 1.9864
-2.7548 13.7539 1.9875
-3.0631 13.6970 1.9887
-3.3704 13.6340 1.9899
-3.6767 13.5649 1.9914
-3.9818 13.4899 1.9929
-4.2857 13.4087 1.9946
