ply
format ascii 1.0
element vertex 2174
property float32 x
property float32 y
property float32 z
end_header
-0.8281 1.1881 0.7932
-2.1485 2.9405 1.9945
-2.2136 2.8918 1.9945
-2.2777 2.8416 1.9945
-2.3406 2.7900 1.9945
-2.4023 2.7370 1.9945
-2.4628 2.6827 1.9945
-2.5221 2.6271 1.9945
-2.5802 2.5701 1.9945
-2.6369 2.5118 1.9945
-2.6924 2.4523 1.9945
-2.7465 2.3915 1.9945
-2.7992 2.3296 1.9945
-2.8505 2.2665 1.9945
-2.9004 2.2023 1.9945
-2.9489 2.1369 1.9945
-2.9959 2.0705 1.9945
-3.0414 2.0031 1.9945
-3.0854 1.9347 1.9945
-3.1278 1.8653 1.9945
-3.1687 1.7950 1.9945
-3.2080 1.7238 1.9945
-3.2457 1.6517 1.9945
-3.2818 1.5788 1.9945
-3.3162 1.5051 1.9945
-3.3490 1.4307 1.9945
-3.3801 1.3555 1.9945
-3.4095 1.2797 1.9945
-3.4373 1.2032 1.9945
-3.4633 1.1261 1.9945
-3.4876 1.0485 1.9945
-3.5101 0.9704 1.9945
-3.5309 0.8917 1.9945
-3.5500 0.8126 1.9945
-3.5672 0.7332 1.9945
-3.5827 0.6533 1.9945
-3.5964 0.5731 1.9945
-3.6083 0.4927 1.9945
-3.6184 0.4119 1.9945
-3.6267 0.3310 1.9945
-3.6332 0.2500 1.9945
-3.6379 0.1688 1.9945
-3.6407 0.0875 1.9945
-3.6417 0.0061 1.9945
-3.6410 -0.0752 1.9945
-3.6384 -0.1565 1.9945
-3.6340 -0.2377 1.9945
-3.6278 -0.3188 1.9945
-3.6198 -0.3998 1.9945
-3.6099 -0.4805 1.9945
-3.5983 -0.5610 1.9945
-3.5848 -0.6412 1.9945
-3.5696 -0.7212 1.9945
-3.5526 -0.8007 1.9945
-3.5338 -0.8798 1.9945
-3.5133 -0.9585 1.9945
-3.4910 -1.0368 1.9945
-3.4670 -1.1145 1.9945
-3.4413 -1.1916 1.9945
-3.4138 -1.2682 1.9945
-3.3846 -1.3441 1.9945
-3.3537 -1.4194 1.9945
-3.3212 -1.4939 1.9945
-3.2870 -1.5677 1.9945
-3.2511 -1.6407 1.9945
-3.2137 -1.7129 1.9945
-3.1746 -1.7843 1.9945
-3.1340 -1.8547 1.9945
-3.0918 -1.9243 1.9945
-3.0480 -1.9928 1.9945
-3.0027 -2.0604 1.9945
-2.9560 -2.1270 1.9945
-2.9077 -2.1924 1.9945
-2.8580 -2.2568 1.9945
-2.8069 -2.3201 1.9945
-2.7544 -2.3822 1.9945
-2.7005 -2.4431 1.9945
-2.6453 -2.5028 1.9945
-2.5887 -2.5613 1.9945
-2.5308 -2.6185 1.9945
-2.4717 -2.6743 1.9945
-2.4114 -2.7289 1.9945
-2.3498 -2.7820 1.9945
-2.2871 -2.8338 1.9945
-2.2232 -2.8842 1.9945
-2.1582 -2.9331 1.9945
-2.0922 -2.9806 1.9945
-0.8240 -1.2315 0.8116
-0.7964 -1.2498 0.8117
-0.7685 -1.2675 0.8118
-0.7401 -1.2846 0.8120
-0.7113 -1.3010 0.8121
-0.6822 -1.3167 0.8122
-0.6527 -1.3318 0.8123
-0.6229 -1.3462 0.8124
-0.5927 -1.3600 0.8125
-0.5623 -1.3731 0.8126
-0.5315 -1.3854 0.8127
-0.5005 -1.3971 0.8128
-0.4692 -1.4081 0.8129
-0.4377 -1.4183 0.8130
-0.4059 -1.4279 0.8131
-0.3740 -1.4367 0.8131
-0.3418 -1.4448 0.8132
-0.3095 -1.4522 0.8132
-0.2770 -1.4588 0.8133
-0.2443 -1.4647 0.8133
-0.2116 -1.4699 0.8134
-0.1787 -1.4743 0.8134
-0.1457 -1.4780 0.8134
-0.1127 -1.4809 0.8135
-0.0796 -1.4831 0.8135
-0.0465 -1.4845 0.8135
-0.0133 -1.4852 0.8135
0.0199 -1.4851 0.8135
0.0531 -1.4843 0.8135
0.0862 -1.4827 0.8135
0.1193 -1.4804 0.8134
0.1523 -1.4773 0.8134
0.1853 -1.4734 0.8134
0.2181 -1.4689 0.8134
0.2508 -1.4636 0.8133
0.2835 -1.4575 0.8133
0.3159 -1.4507 0.8132
0.3482 -1.4432 0.8132
0.3803 -1.4350 0.8131
0.4122 -1.4260 0.8130
0.4440 -1.4163 0.8129
0.4754 -1.4059 0.8129
0.5067 -1.3948 0.8128
0.5376 -1.3829 0.8127
0.5683 -1.3704 0.8126
0.5987 -1.3572 0.8125
0.6288 -1.3433 0.8124
0.6585 -1.3288 0.8123
0.6879 -1.3135 0.8122
0.7170 -1.2976 0.8120
0.7457 -1.2811 0.8119
0.7740 -1.2639 0.8118
0.8019 -1.2461 0.8116
0.8294 -1.2277 0.8115
2.1053 -2.9711 1.9945
2.1711 -2.9233 1.9945
2.2359 -2.8741 1.9945
2.2995 -2.8234 1.9945
2.3620 -2.7714 1.9945
2.4233 -2.7179 1.9945
2.4834 -2.6631 1.9945
2.5423 -2.6070 1.9945
2.5999 -2.5495 1.9945
2.6561 -2.4908 1.9945
2.7111 -2.4309 1.9945
2.7647 -2.3697 1.9945
2.8169 -2.3074 1.9945
2.8678 -2.2439 1.9945
2.9172 -2.1793 1.9945
2.9651 -2.1136 1.9945
3.0116 -2.0468 1.9945
3.0566 -1.9791 1.9945
3.1000 -1.9103 1.9945
3.1419 -1.8406 1.9945
3.1822 -1.7700 1.9945
3.2210 -1.6984 1.9945
3.2581 -1.6261 1.9945
3.2936 -1.5529 1.9945
3.3275 -1.4789 1.9945
3.3597 -1.4043 1.9945
3.3902 -1.3289 1.9945
3.4190 -1.2528 1.9945
3.4462 -1.1762 1.9945
3.4716 -1.0989 1.9945
3.4952 -1.0211 1.9945
3.5172 -0.9428 1.9945
3.5373 -0.8640 1.9945
3.5558 -0.7848 1.9945
3.5724 -0.7051 1.9945
3.5873 -0.6252 1.9945
3.6003 -0.5449 1.9945
3.6116 -0.4643 1.9945
3.6211 -0.3836 1.9945
3.6288 -0.3026 1.9945
3.6346 -0.2215 1.9945
3.6386 -0.1402 1.9945
3.6409 -0.0589 1.9945
3.6413 0.0224 1.9945
3.6399 0.1037 1.9945
3.6366 0.1850 1.9945
3.6316 0.2662 1.9945
3.6248 0.3472 1.9945
3.6161 0.4281 1.9945
3.6057 0.5087 1.9945
3.5934 0.5892 1.9945
3.5793 0.6693 1.9945
3.5635 0.7490 1.9945
3.5459 0.8284 1.9945
3.5265 0.9074 1.9945
3.5054 0.9860 1.9945
3.4825 1.0640 1.9945
3.4578 1.1415 1.9945
3.4315 1.2185 1.9945
3.4034 1.2948 1.9945
3.3736 1.3705 1.9945
3.3422 1.4455 1.9945
3.3091 1.5198 1.9945
3.2743 1.5934 1.9945
3.2379 1.6661 1.9945
3.1999 1.7380 1.9945
3.1603 1.8090 1.9945
3.1191 1.8792 1.9945
3.0764 1.9483 1.9945
3.0321 2.0166 1.9945
2.9863 2.0838 1.9945
2.9390 2.1500 1.9945
2.8903 2.2151 1.9945
2.8401 2.2791 1.9945
2.7885 2.3419 1.9945
2.7355 2.4036 1.9945
2.6811 2.4642 1.9945
2.6254 2.5234 1.9945
2.5684 2.5814 1.9945
2.5101 2.6381 1.9945
2.4505 2.6936 1.9945
2.3898 2.7476 1.9945
2.3278 2.8003 1.9945
2.2647 2.8516 1.9945
2.2004 2.9015 1.9945
2.1351 2.9499 1.9945
0.8226 1.1917 0.7931
0.7957 1.2096 0.7930
0.7683 1.2268 0.7928
0.7406 1.2435 0.7927
0.7125 1.2595 0.7926
0.6841 1.2749 0.7925
0.6554 1.2897 0.7924
0.6263 1.3038 0.7922
0.5970 1.3173 0.7921
0.5673 1.3302 0.7920
0.5374 1.3424 0.7920
0.5073 1.3539 0.7919
0.4769 1.3648 0.7918
0.4462 1.3749 0.7917
0.4154 1.3844 0.7916
0.3843 1.3932 0.7916
0.3531 1.4014 0.7915
0.3216 1.4088 0.7915
0.2901 1.4156 0.7914
0.2584 1.4216 0.7914
0.2266 1.4269 0.7913
0.1946 1.4316 0.7913
0.1626 1.4355 0.7913
0.1305 1.4388 0.7912
0.0983 1.4413 0.7912
0.0661 1.4431 0.7912
0.0339 1.4442 0.7912
0.0016 1.4446 0.7912
-0.0307 1.4443 0.7912
-0.0629 1.4432 0.7912
-0.0951 1.4415 0.7912
-0.1273 1.4391 0.7912
-0.1594 1.4359 0.7913
-0.1915 1.4320 0.7913
-0.2234 1.4275 0.7913
-0.2553 1.4222 0.7914
-0.2870 1.4162 0.7914
-0.3185 1.4096 0.7915
-0.3500 1.4022 0.7915
-0.3812 1.3941 0.7916
-0.4123 1.3854 0.7917
-0.4432 1.3760 0.7917
-0.4739 1.3659 0.7918
-0.5043 1.3551 0.7919
-0.5345 1.3436 0.7920
-0.5644 1.3315 0.7921
-0.5941 1.3187 0.7922
-0.6235 1.3053 0.7923
-0.6526 1.2912 0.7924
-0.6814 1.2765 0.7925
-0.7098 1.2612 0.7926
-0.7379 1.2452 0.7927
-0.7657 1.2286 0.7929
-0.7930 1.2114 0.7930
-0.8200 1.1936 0.7931
-2.1287 2.9548 1.9945
-2.1942 2.9065 1.9945
-2.2586 2.8568 1.9945
-2.3218 2.8056 1.9945
-2.3839 2.7531 1.9945
-2.4448 2.6992 1.9945
-2.5045 2.6439 1.9945
-2.5629 2.5873 1.9945
-2.6200 2.5294 1.9945
-2.6759 2.4703 1.9945
-2.7304 2.4099 1.9945
-2.7835 2.3483 1.9945
-2.8353 2.2856 1.9945
-2.8856 2.2217 1.9945
-2.9345 2.1567 1.9945
-2.9819 2.0906 1.9945
-3.0279 2.0235 1.9945
-3.0723 1.9553 1.9945
-3.1152 1.8862 1.9945
-3.1566 1.8162 1.9945
-3.1964 1.7452 1.9945
-3.2345 1.6734 1.9945
-3.2711 1.6008 1.9945
-3.3060 1.5273 1.9945
-3.3393 1.4531 1.9945
-3.3710 1.3781 1.9945
-3.4009 1.3025 1.9945
-3.4291 1.2262 1.9945
-3.4557 1.1493 1.9945
-3.4805 1.0719 1.9945
-3.5035 0.9939 1.9945
-3.5248 0.9154 1.9945
-3.5444 0.8364 1.9945
-3.5622 0.7570 1.9945
-3.5782 0.6773 1.9945
-3.5925 0.5972 1.9945
-3.6049 0.5168 1.9945
-3.6156 0.4362 1.9945
-3.6244 0.3553 1.9945
-3.6314 0.2743 1.9945
-3.6366 0.1931 1.9945
-3.6400 0.1118 1.9945
-3.6416 0.0305 1.9945
-3.6414 -0.0508 1.9945
-3.6394 -0.1321 1.9945
-3.6355 -0.2134 1.9945
-3.6298 -0.2945 1.9945
-3.6223 -0.3755 1.9945
-3.6130 -0.4563 1.9945
-3.6020 -0.5369 1.9945
-3.5890 -0.6172 1.9945
-3.5744 -0.6972 1.9945
-3.5579 -0.7769 1.9945
-3.5397 -0.8561 1.9945
-3.5197 -0.9350 1.9945
-3.4979 -1.0134 1.9945
-3.4744 -1.0912 1.9945
-3.4491 -1.1686 1.9945
-3.4222 -1.2453 1.9945
-3.3935 -1.3214 1.9945
-3.3631 -1.3969 1.9945
-3.3311 -1.4716 1.9945
-3.2974 -1.5457 1.9945
-3.2621 -1.6189 1.9945
-3.2251 -1.6914 1.9945
-3.1865 -1.7630 1.9945
-3.1463 -1.8337 1.9945
-3.1046 -1.9035 1.9945
-3.0613 -1.9724 1.9945
-3.0165 -2.0402 1.9945
-2.9701 -2.1071 1.9945
-2.9224 -2.1729 1.9945
-2.8731 -2.2376 1.9945
-2.8224 -2.3012 1.9945
-2.7703 -2.3637 1.9945
-2.7168 -2.4250 1.9945
-2.6620 -2.4851 1.9945
-2.6058 -2.5439 1.9945
-2.5483 -2.6015 1.9945
-2.4896 -2.6577 1.9945
-2.4296 -2.7127 1.9945
-2.3684 -2.7662 1.9945
-2.3060 -2.8184 1.9945
-2.2425 -2.8692 1.9945
-2.1779 -2.9186 1.9945
-2.1121 -2.9665 1.9945
-0.8322 -1.2259 0.8115
-0.8048 -1.2444 0.8117
-0.7769 -1.2623 0.8118
-0.7486 -1.2795 0.8119
-0.7200 -1.2961 0.8121
-0.6910 -1.3121 0.8122
-0.6616 -1.3274 0.8123
-0.6318 -1.3420 0.8124
-0.6018 -1.3559 0.8125
-0.5714 -1.3692 0.8126
-0.5408 -1.3818 0.8127
-0.5098 -1.3937 0.8128
-0.4786 -1.4049 0.8129
-0.4472 -1.4153 0.8130
-0.4155 -1.4251 0.8130
-0.3836 -1.4341 0.8131
-0.3515 -1.4425 0.8132
-0.3192 -1.4500 0.8132
-0.2868 -1.4569 0.8133
-0.2542 -1.4630 0.8133
-0.2214 -1.4684 0.8134
-0.1886 -1.4731 0.8134
-0.1556 -1.4769 0.8134
-0.1226 -1.4801 0.8134
-0.0895 -1.4825 0.8135
-0.0564 -1.4841 0.8135
-0.0232 -1.4850 0.8135
0.0099 -1.4852 0.8135
0.0431 -1.4846 0.8135
0.0763 -1.4832 0.8135
0.1094 -1.4811 0.8134
0.1424 -1.4783 0.8134
0.1754 -1.4747 0.8134
0.2083 -1.4703 0.8134
0.2410 -1.4652 0.8133
0.2737 -1.4594 0.8133
0.3062 -1.4528 0.8132
0.3385 -1.4455 0.8132
0.3707 -1.4375 0.8131
0.4027 -1.4287 0.8130
0.4345 -1.4193 0.8130
0.4660 -1.4091 0.8129
0.4973 -1.3982 0.8128
0.5284 -1.3866 0.8127
0.5591 -1.3742 0.8126
0.5896 -1.3612 0.8125
0.6198 -1.3476 0.8124
0.6496 -1.3332 0.8123
0.6792 -1.3182 0.8122
0.7083 -1.3025 0.8121
0.7371 -1.2861 0.8120
0.7655 -1.2691 0.8118
0.7936 -1.2515 0.8117
0.8212 -1.2333 0.8115
2.0853 -2.9851 1.9945
2.1515 -2.9378 1.9945
2.2166 -2.8890 1.9945
2.2805 -2.8388 1.9945
2.3434 -2.7871 1.9945
2.4050 -2.7341 1.9945
2.4655 -2.6797 1.9945
2.5247 -2.6239 1.9945
2.5827 -2.5669 1.9945
2.6394 -2.5086 1.9945
2.6948 -2.4490 1.9945
2.7488 -2.3882 1.9945
2.8014 -2.3262 1.9945
2.8527 -2.2631 1.9945
2.9025 -2.1988 1.9945
2.9509 -2.1334 1.9945
2.9978 -2.0670 1.9945
3.0432 -1.9995 1.9945
3.0871 -1.9310 1.9945
3.1295 -1.8616 1.9945
3.1703 -1.7912 1.9945
3.2095 -1.7200 1.9945
3.2471 -1.6479 1.9945
3.2831 -1.5749 1.9945
3.3175 -1.5012 1.9945
3.3502 -1.4268 1.9945
3.3812 -1.3516 1.9945
3.4106 -1.2757 1.9945
3.4382 -1.1992 1.9945
3.4641 -1.1221 1.9945
3.4883 -1.0445 1.9945
3.5108 -0.9663 1.9945
3.5315 -0.8876 1.9945
3.5504 -0.8086 1.9945
3.5676 -0.7291 1.9945
3.5830 -0.6492 1.9945
3.5966 -0.5690 1.9945
3.6084 -0.4885 1.9945
3.6184 -0.4078 1.9945
3.6266 -0.3269 1.9945
3.6330 -0.2458 1.9945
3.6376 -0.1646 1.9945
3.6404 -0.0833 1.9945
3.6414 -0.0020 1.9945
3.6405 0.0793 1.9945
3.6378 0.1606 1.9945
3.6333 0.2418 1.9945
3.6270 0.3229 1.9945
3.6189 0.4038 1.9945
3.6090 0.4846 1.9945
3.5973 0.5651 1.9945
3.5837 0.6453 1.9945
3.5684 0.7251 1.9945
3.5514 0.8047 1.9945
3.5325 0.8838 1.9945
3.5119 0.9625 1.9945
3.4895 1.0407 1.9945
3.4654 1.1183 1.9945
3.4396 1.1955 1.9945
3.4120 1.2720 1.9945
3.3828 1.3479 1.9945
3.3518 1.4231 1.9945
3.3192 1.4976 1.9945
3.2849 1.5714 1.9945
3.2490 1.6443 1.9945
3.2115 1.7165 1.9945
3.1723 1.7878 1.9945
3.1316 1.8582 1.9945
3.0893 1.9277 1.9945
3.0455 1.9962 1.9945
3.0002 2.0637 1.9945
2.9533 2.1302 1.9945
2.9050 2.1957 1.9945
2.8553 2.2600 1.9945
2.8041 2.3232 1.9945
2.7515 2.3853 1.9945
2.6975 2.4461 1.9945
2.6422 2.5058 1.9945
2.5856 2.5641 1.9945
2.5277 2.6213 1.9945
2.4685 2.6771 1.9945
2.4081 2.7315 1.9945
2.3465 2.7847 1.9945
2.2838 2.8364 1.9945
2.2198 2.8867 1.9945
2.1548 2.9355 1.9945
0.8306 1.1862 0.7931
0.8038 1.2043 0.7930
0.7766 1.2217 0.7929
0.7490 1.2385 0.7927
0.7210 1.2548 0.7926
0.6927 1.2704 0.7925
0.6641 1.2853 0.7924
0.6351 1.2997 0.7923
0.6058 1.3134 0.7922
0.5763 1.3264 0.7921
0.5464 1.3388 0.7920
0.5163 1.3505 0.7919
0.4860 1.3616 0.7918
0.4554 1.3719 0.7917
0.4246 1.3817 0.7917
0.3936 1.3907 0.7916
0.3625 1.3990 0.7915
0.3311 1.4067 0.7915
0.2996 1.4136 0.7914
0.2679 1.4199 0.7914
0.2361 1.4254 0.7913
0.2042 1.4303 0.7913
0.1722 1.4344 0.7913
0.1401 1.4379 0.7912
0.1080 1.4406 0.7912
0.0758 1.4426 0.7912
0.0435 1.4439 0.7912
0.0113 1.4446 0.7912
-0.0210 1.4444 0.7912
-0.0532 1.4436 0.7912
-0.0855 1.4421 0.7912
-0.1177 1.4399 0.7912
-0.1498 1.4369 0.7913
-0.1819 1.4333 0.7913
-0.2138 1.4289 0.7913
-0.2457 1.4239 0.7914
-0.2775 1.4181 0.7914
-0.3091 1.4116 0.7914
-0.3406 1.4045 0.7915
-0.3719 1.3966 0.7916
-0.4030 1.3881 0.7916
-0.4339 1.3789 0.7917
-0.4647 1.3690 0.7918
-0.4952 1.3584 0.7919
-0.5255 1.3471 0.7919
-0.5555 1.3352 0.7920
-0.5852 1.3226 0.7921
-0.6147 1.3094 0.7922
-0.6439 1.2955 0.7923
-0.6728 1.2810 0.7924
-0.7013 1.2658 0.7926
-0.7295 1.2501 0.7927
-0.7574 1.2337 0.7928
-0.7849 1.2166 0.7929
-0.8120 1.1990 0.7931
-2.1089 2.9690 1.9945
-2.1747 2.9212 1.9945
-2.2394 2.8719 1.9945
-2.3029 2.8211 1.9945
-2.3654 2.7690 1.9945
-2.4266 2.7155 1.9945
-2.4867 2.6606 1.9945
-2.5455 2.6044 1.9945
-2.6030 2.5469 1.9945
-2.6593 2.4881 1.9945
-2.7142 2.4281 1.9945
-2.7677 2.3669 1.9945
-2.8199 2.3045 1.9945
-2.8707 2.2409 1.9945
-2.9200 2.1763 1.9945
-2.9679 2.1105 1.9945
-3.0143 2.0437 1.9945
-3.0592 1.9759 1.9945
-3.1025 1.9071 1.9945
-3.1443 1.8373 1.9945
-3.1846 1.7666 1.9945
-3.2233 1.6950 1.9945
-3.2603 1.6226 1.9945
-3.2957 1.5494 1.9945
-3.3295 1.4754 1.9945
-3.3616 1.4007 1.9945
-3.3921 1.3253 1.9945
-3.4208 1.2492 1.9945
-3.4479 1.1725 1.9945
-3.4732 1.0952 1.9945
-3.4968 1.0173 1.9945
-3.5186 0.9390 1.9945
-3.5387 0.8601 1.9945
-3.5571 0.7809 1.9945
-3.5736 0.7013 1.9945
-3.5884 0.6213 1.9945
-3.6014 0.5410 1.9945
-3.6125 0.4604 1.9945
-3.6219 0.3796 1.9945
-3.6295 0.2986 1.9945
-3.6353 0.2175 1.9945
-3.6392 0.1362 1.9945
-3.6413 0.0549 1.9945
-3.6417 -0.0264 1.9945
-3.6402 -0.1077 1.9945
-3.6368 -0.1890 1.9945
-3.6317 -0.2702 1.9945
-3.6248 -0.3512 1.9945
-3.6160 -0.4321 1.9945
-3.6055 -0.5128 1.9945
-3.5931 -0.5932 1.9945
-3.5790 -0.6732 1.9945
-3.5630 -0.7530 1.9945
-3.5453 -0.8324 1.9945
-3.5259 -0.9114 1.9945
-3.5046 -0.9899 1.9945
-3.4816 -1.0679 1.9945
-3.4569 -1.1454 1.9945
-3.4304 -1.2223 1.9945
-3.4023 -1.2986 1.9945
-3.3724 -1.3743 1.9945
-3.3409 -1.4493 1.9945
-3.3077 -1.5235 1.9945
-3.2728 -1.5970 1.9945
-3.2363 -1.6697 1.9945
-3.1982 -1.7416 1.9945
-3.1585 -1.8126 1.9945
-3.1173 -1.8827 1.9945
-3.0745 -1.9518 1.9945
-3.0301 -2.0200 1.9945
-2.9842 -2.0872 1.9945
-2.9368 -2.1533 1.9945
-2.8880 -2.2183 1.9945
-2.8378 -2.2823 1.9945
-2.7861 -2.3451 1.9945
-2.7330 -2.4067 1.9945
-2.6786 -2.4671 1.9945
-2.6228 -2.5264 1.9945
-2.5657 -2.5843 1.9945
-2.5073 -2.6410 1.9945
-2.4477 -2.6963 1.9945
-2.3869 -2.7503 1.9945
-2.3249 -2.8029 1.9945
-2.2617 -2.8541 1.9945
-2.1974 -2.9039 1.9945
-2.1320 -2.9523 1.9945
-0.8404 -1.2203 0.8115
-0.8130 -1.2389 0.8116
-0.7853 -1.2570 0.8118
-0.7572 -1.2744 0.8119
-0.7286 -1.2912 0.8120
-0.6997 -1.3074 0.8121
-0.6704 -1.3229 0.8123
-0.6408 -1.3377 0.8124
-0.6108 -1.3518 0.8125
-0.5806 -1.3653 0.8126
-0.5500 -1.3781 0.8127
-0.5191 -1.3902 0.8128
-0.4880 -1.4016 0.8129
-0.4566 -1.4123 0.8129
-0.4250 -1.4222 0.8130
-0.3932 -1.4315 0.8131
-0.3611 -1.4400 0.8131
-0.3289 -1.4478 0.8132
-0.2965 -1.4549 0.8133
-0.2639 -1.4613 0.8133
-0.2313 -1.4669 0.8133
-0.1984 -1.4717 0.8134
-0.1655 -1.4759 0.8134
-0.1325 -1.4792 0.8134
-0.0995 -1.4819 0.8135
-0.0663 -1.4837 0.8135
-0.0332 -1.4849 0.8135
-0.0000 -1.4079 0.8129
0.0314 -1.4076 0.8129
0.0629 -1.4065 0.8129
0.0942 -1.4047 0.8129
0.1256 -1.4022 0.8128
0.1569 -1.3990 0.8128
0.1881 -1.3951 0.8128
0.2192 -1.3905 0.8128
0.2502 -1.3852 0.8127
0.2810 -1.3792 0.8127
0.3118 -1.3725 0.8126
0.3423 -1.3651 0.8126
0.3727 -1.3570 0.8125
0.4029 -1.3482 0.8124
0.4328 -1.3388 0.8124
0.4626 -1.3286 0.8123
0.4921 -1.3178 0.8122
0.5213 -1.3064 0.8121
0.5503 -1.2943 0.8120
0.5790 -1.2815 0.8119
0.6074 -1.2681 0.8118
0.6355 -1.2540 0.8117
0.6633 -1.2393 0.8116
0.6907 -1.2240 0.8115
0.7177 -1.2081 0.8114
0.7444 -1.1916 0.8112
0.7707 -1.1745 0.8111
0.7966 -1.1568 0.8110
0.8221 -1.1385 0.8108
2.0843 -2.7547 1.9945
2.1453 -2.7074 1.9945
2.2053 -2.6589 1.9945
2.2641 -2.6089 1.9945
2.3218 -2.5577 1.9945
2.3783 -2.5052 1.9945
2.4337 -2.4515 1.9945
2.4878 -2.3965 1.9945
2.5407 -2.3403 1.9945
2.5924 -2.2830 1.9945
2.6427 -2.2245 1.9945
2.6918 -2.1650 1.9945
2.7394 -2.1043 1.9945
2.7857 -2.0426 1.9945
2.8307 -1.9799 1.9945
2.8742 -1.9161 1.9945
2.9163 -1.8515 1.9945
2.9569 -1.7859 1.9945
2.9960 -1.7194 1.9945
3.0337 -1.6520 1.9945
3.0698 -1.5839 1.9945
3.1045 -1.5149 1.9945
3.1375 -1.4452 1.9945
3.1690 -1.3748 1.9945
3.1989 -1.3036 1.9945
3.2272 -1.2318 1.9945
3.2539 -1.1595 1.9945
3.2790 -1.0865 1.9945
3.3025 -1.0130 1.9945
3.3243 -0.9390 1.9945
3.3444 -0.8645 1.9945
3.3629 -0.7896 1.9945
3.3797 -0.7143 1.9945
3.3948 -0.6386 1.9945
3.4082 -0.5626 1.9945
3.4199 -0.4864 1.9945
3.4299 -0.4099 1.9945
3.4383 -0.3332 1.9945
3.4449 -0.2563 1.9945
3.4497 -0.1793 1.9945
3.4529 -0.1022 1.9945
3.4543 -0.0250 1.9945
3.4540 0.0521 1.9945
3.4520 0.1292 1.9945
3.4482 0.2063 1.9945
3.4427 0.2833 1.9945
3.4356 0.3601 1.9945
3.4267 0.4367 1.9945
3.4161 0.5131 1.9945
3.4037 0.5893 1.9945
3.3897 0.6652 1.9945
3.3740 0.7407 1.9945
3.3566 0.8159 1.9945
3.3376 0.8907 1.9945
3.3169 0.9650 1.9945
3.2945 1.0389 1.9945
3.2705 1.1122 1.9945
3.2448 1.1850 1.9945
3.2175 1.2571 1.9945
3.1887 1.3287 1.9945
3.1582 1.3996 1.9945
3.1262 1.4697 1.9945
3.0926 1.5392 1.9945
3.0574 1.6079 1.9945
3.0207 1.6758 1.9945
2.9826 1.7429 1.9945
2.9429 1.8090 1.9945
2.9018 1.8743 1.9945
2.8592 1.9386 1.9945
2.8152 2.0020 1.9945
2.7698 2.0644 1.9945
2.7230 2.1258 1.9945
2.6748 2.1860 1.9945
2.6253 2.2452 1.9945
2.5745 2.3033 1.9945
2.5225 2.3602 1.9945
2.4691 2.4160 1.9945
2.4145 2.4705 1.9945
2.3587 2.5239 1.9945
2.3018 2.5759 1.9945
2.2437 2.6267 1.9945
2.1845 2.6761 1.9945
2.1242 2.7243 1.9945
0.8210 1.1028 0.7938
0.7960 1.1207 0.7936
0.7706 1.1380 0.7935
0.7449 1.1547 0.7934
0.7188 1.1709 0.7933
0.6924 1.1865 0.7931
0.6656 1.2015 0.7930
0.6385 1.2159 0.7929
0.6111 1.2297 0.7928
0.5835 1.2429 0.7927
0.5555 1.2555 0.7926
0.5272 1.2674 0.7925
0.4988 1.2787 0.7924
0.4700 1.2894 0.7924
0.4411 1.2995 0.7923
0.4119 1.3089 0.7922
0.3825 1.3177 0.7921
0.3530 1.3258 0.7921
0.3232 1.3332 0.7920
0.2934 1.3400 0.7920
0.2634 1.3462 0.7919
0.2332 1.3516 0.7919
0.2030 1.3565 0.7919
0.1726 1.3606 0.7918
0.1422 1.3641 0.7918
0.1117 1.3669 0.7918
0.0811 1.3690 0.7918
0.0505 1.3705 0.7918
0.0199 1.3712 0.7917
-0.0107 1.3713 0.7917
-0.0414 1.3708 0.7918
-0.0720 1.3695 0.7918
-0.1025 1.3676 0.7918
-0.1331 1.3650 0.7918
-0.1635 1.3617 0.7918
-0.1939 1.3578 0.7919
-0.2242 1.3532 0.7919
-0.2544 1.3479 0.7919
-0.2844 1.3420 0.7920
-0.3143 1.3354 0.7920
-0.3441 1.3281 0.7921
-0.3737 1.3202 0.7921
-0.4032 1.3116 0.7922
-0.4324 1.3024 0.7923
-0.4614 1.2926 0.7924
-0.4902 1.2821 0.7924
-0.5188 1.2709 0.7925
-0.5471 1.2592 0.7926
-0.5752 1.2468 0.7927
-0.6029 1.2338 0.7928
-0.6304 1.2202 0.7929
-0.6576 1.2060 0.7930
-0.6845 1.1912 0.7931
-0.7110 1.1757 0.7933
-0.7372 1.1598 0.7934
-0.7631 1.1432 0.7935
-0.7885 1.1260 0.7936
-0.8136 1.1083 0.7938
-2.1061 2.7386 1.9945
-2.1667 2.6909 1.9945
-2.2263 2.6418 1.9945
-2.2847 2.5914 1.9945
-2.3420 2.5397 1.9945
-2.3982 2.4868 1.9945
-2.4531 2.4326 1.9945
-2.5068 2.3772 1.9945
-2.5593 2.3207 1.9945
-2.6105 2.2629 1.9945
-2.6604 2.2040 1.9945
-2.7090 2.1441 1.9945
-2.7561 2.0830 1.9945
-2.8020 2.0210 1.9945
-2.8464 1.9579 1.9945
-2.8895 1.8938 1.9945
-2.9310 1.8288 1.9945
-2.9711 1.7629 1.9945
-3.0098 1.6961 1.9945
-3.0469 1.6285 1.9945
-3.0825 1.5600 1.9945
-3.1166 1.4908 1.9945
-3.1491 1.4208 1.9945
-3.1800 1.3501 1.9945
-3.2094 1.2787 1.9945
-3.2372 1.2067 1.9945
-3.2633 1.1341 1.9945
-3.2878 1.0610 1.9945
-3.3107 0.9873 1.9945
-3.3319 0.9131 1.9945
-3.3515 0.8385 1.9945
-3.3694 0.7634 1.9945
-3.3856 0.6879 1.9945
-3.4001 0.6122 1.9945
-3.4129 0.5361 1.9945
-3.4240 0.4597 1.9945
-3.4335 0.3831 1.9945
-3.4411 0.3064 1.9945
-3.4471 0.2294 1.9945
-3.4514 0.1524 1.9945
-3.4539 0.0753 1.9945
-3.4548 -0.0019 1.9945
-3.4539 -0.0790 1.9945
-3.4512 -0.1562 1.9945
-3.4469 -0.2332 1.9945
-3.4408 -0.3101 1.9945
-3.4330 -0.3869 1.9945
-3.4235 -0.4635 1.9945
-3.4123 -0.5398 1.9945
-3.3994 -0.6159 1.9945
-3.3848 -0.6917 1.9945
-3.3685 -0.7671 1.9945
-3.3505 -0.8421 1.9945
-3.3309 -0.9167 1.9945
-3.3095 -0.9909 1.9945
-3.2866 -1.0646 1.9945
-3.2620 -1.1377 1.9945
-3.2358 -1.2103 1.9945
-3.2079 -1.2822 1.9945
-3.1785 -1.3536 1.9945
-3.1475 -1.4242 1.9945
-3.1149 -1.4942 1.9945
-3.0807 -1.5634 1.9945
-3.0450 -1.6318 1.9945
-3.0078 -1.6994 1.9945
-2.9691 -1.7661 1.9945
-2.9289 -1.8320 1.9945
-2.8873 -1.8969 1.9945
-2.8442 -1.9610 1.9945
-2.7997 -2.0240 1.9945
-2.7538 -2.0860 1.9945
-2.7065 -2.1470 1.9945
-2.6579 -2.2069 1.9945
-2.6079 -2.2657 1.9945
-2.5566 -2.3234 1.9945
-2.5041 -2.3799 1.9945
-2.4503 -2.4352 1.9945
-2.3953 -2.4894 1.9945
-2.3391 -2.5422 1.9945
-2.2818 -2.5938 1.9945
-2.2233 -2.6441 1.9945
-2.1636 -2.6931 1.9945
-2.1030 -2.7408 1.9945
-0.8298 -1.1330 0.8108
-0.8044 -1.1515 0.8110
-0.7786 -1.1693 0.8111
-0.7525 -1.1866 0.8112
-0.7259 -1.2033 0.8114
-0.6989 -1.2194 0.8115
-0.6716 -1.2349 0.8116
-0.6440 -1.2498 0.8117
-0.6160 -1.2640 0.8118
-0.5876 -1.2776 0.8119
-0.5590 -1.2906 0.8120
-0.5301 -1.3029 0.8121
-0.5010 -1.3145 0.8122
-0.4715 -1.3255 0.8123
-0.4418 -1.3359 0.8124
-0.4119 -1.3455 0.8124
-0.3818 -1.3545 0.8125
-0.3515 -1.3628 0.8126
-0.3210 -1.3704 0.8126
-0.2903 -1.3773 0.8127
-0.2595 -1.3835 0.8127
-0.2285 -1.3890 0.8128
-0.1975 -1.3939 0.8128
-0.1663 -1.3980 0.8128
-0.1350 -1.4014 0.8128
-0.1037 -1.4041 0.8129
-0.0723 -1.4061 0.8129
-0.0409 -1.4073 0.8129
-0.0094 -1.4079 0.8129
0.0220 -1.4078 0.8129
0.0534 -1.4069 0.8129
0.0848 -1.4053 0.8129
0.1162 -1.4031 0.8129
0.1475 -1.4001 0.8128
0.1787 -1.3964 0.8128
0.2099 -1.3920 0.8128
0.2409 -1.3869 0.8127
0.2718 -1.3811 0.8127
0.3025 -1.3746 0.8126
0.3332 -1.3674 0.8126
0.3636 -1.3595 0.8125
0.3938 -1.3509 0.8125
0.4239 -1.3417 0.8124
0.4537 -1.3317 0.8123
0.4833 -1.3211 0.8122
0.5126 -1.3099 0.8121
0.5417 -1.2980 0.8120
0.5704 -1.2854 0.8120
0.5989 -1.2722 0.8118
0.6271 -1.2583 0.8117
0.6550 -1.2438 0.8116
0.6825 -1.2287 0.8115
0.7097 -1.2130 0.8114
0.7365 -1.1966 0.8113
0.7629 -1.1797 0.8111
0.7889 -1.1622 0.8110
0.8145 -1.1441 0.8109
2.0658 -2.7686 1.9945
2.1271 -2.7218 1.9945
2.1874 -2.6736 1.9945
2.2466 -2.6240 1.9945
2.3046 -2.5732 1.9945
2.3615 -2.5211 1.9945
2.4172 -2.4677 1.9945
2.4717 -2.4131 1.9945
2.5250 -2.3573 1.9945
2.5770 -2.3003 1.9945
2.6277 -2.2422 1.9945
2.6772 -2.1829 1.9945
2.7253 -2.1226 1.9945
2.7720 -2.0612 1.9945
2.8173 -1.9988 1.9945
2.8613 -1.9354 1.9945
2.9038 -1.8710 1.9945
2.9449 -1.8056 1.9945
2.9844 -1.7394 1.9945
3.0225 -1.6723 1.9945
3.0591 -1.6044 1.9945
3.0942 -1.5357 1.9945
3.1278 -1.4662 1.9945
3.1597 -1.3960 1.9945
3.1901 -1.3250 1.9945
3.2189 -1.2535 1.9945
3.2461 -1.1812 1.9945
3.2717 -1.1084 1.9945
3.2956 -1.0351 1.9945
3.3179 -0.9612 1.9945
3.3386 -0.8869 1.9945
3.3575 -0.8121 1.9945
3.3748 -0.7369 1.9945
3.3904 -0.6614 1.9945
3.4044 -0.5855 1.9945
3.4166 -0.5093 1.9945
3.4271 -0.4328 1.9945
3.4360 -0.3562 1.9945
3.4430 -0.2794 1.9945
3.4484 -0.2024 1.9945
3.4521 -0.1253 1.9945
3.4540 -0.0482 1.9945
3.4542 0.0290 1.9945
3.4527 0.1061 1.9945
3.4495 0.1832 1.9945
3.4446 0.2602 1.9945
3.4379 0.3371 1.9945
3.4295 0.4138 1.9945
3.4194 0.4903 1.9945
3.4076 0.5665 1.9945
3.3941 0.6425 1.9945
3.3789 0.7181 1.9945
3.3620 0.7934 1.9945
3.3435 0.8683 1.9945
3.3233 0.9428 1.9945
3.3014 1.0168 1.9945
3.2779 1.0902 1.9945
3.2527 1.1632 1.9945
3.2259 1.2355 1.9945
3.1975 1.3073 1.9945
3.1675 1.3784 1.9945
3.1359 1.4488 1.9945
3.1028 1.5185 1.9945
3.0681 1.5874 1.9945
3.0319 1.6555 1.9945
2.9942 1.7228 1.9945
2.9549 1.7893 1.9945
2.9142 1.8548 1.9945
2.8721 1.9194 1.9945
2.8285 1.9831 1.9945
2.7835 2.0458 1.9945
2.7372 2.1075 1.9945
2.6894 2.1681 1.9945
2.6403 2.2276 1.9945
2.5899 2.2860 1.9945
2.5382 2.3433 1.9945
2.4852 2.3994 1.9945
2.4310 2.4543 1.9945
2.3756 2.5080 1.9945
2.3190 2.5604 1.9945
2.2612 2.6116 1.9945
2.2023 2.6615 1.9945
2.1424 2.7100 1.9945
0.8284 1.0973 0.7938
0.8035 1.1154 0.7937
0.7783 1.1329 0.7935
0.7527 1.1498 0.7934
0.7267 1.1661 0.7933
0.7004 1.1819 0.7932
0.6737 1.1971 0.7931
0.6467 1.2116 0.7929
0.6194 1.2256 0.7928
0.5918 1.2390 0.7927
0.5639 1.2518 0.7926
0.5357 1.2639 0.7926
0.5073 1.2754 0.7925
0.4787 1.2863 0.7924
0.4498 1.2965 0.7923
0.4207 1.3061 0.7922
0.3914 1.3151 0.7922
0.3619 1.3234 0.7921
0.3322 1.3311 0.7920
0.3024 1.3381 0.7920
0.2724 1.3444 0.7919
0.2423 1.3501 0.7919
0.2121 1.3551 0.7919
0.1817 1.3594 0.7918
0.1513 1.3631 0.7918
0.1208 1.3661 0.7918
0.0903 1.3684 0.7918
0.0597 1.3701 0.7918
0.0291 1.3711 0.7917
-0.0016 1.3714 0.7917
-0.0322 1.3710 0.7918
-0.0628 1.3700 0.7918
-0.0934 1.3683 0.7918
-0.1239 1.3659 0.7918
-0.1544 1.3628 0.7918
-0.1848 1.3591 0.7918
-0.2151 1.3546 0.7919
-0.2453 1.3496 0.7919
-0.2754 1.3438 0.7920
-0.3054 1.3374 0.7920
-0.3352 1.3304 0.7921
-0.3649 1.3227 0.7921
-0.3943 1.3143 0.7922
-0.4236 1.3053 0.7923
-0.4527 1.2956 0.7923
-0.4816 1.2853 0.7924
-0.5102 1.2743 0.7925
-0.5386 1.2628 0.7926
-0.5668 1.2506 0.7927
-0.5946 1.2378 0.7928
-0.6222 1.2243 0.7929
-0.6495 1.2103 0.7930
-0.6765 1.1957 0.7931
-0.7031 1.1804 0.7932
-0.7294 1.1646 0.7933
-0.7553 1.1482 0.7935
-0.7809 1.1312 0.7936
-0.8061 1.1137 0.7937
-2.0877 2.7526 1.9945
-2.1486 2.7053 1.9945
-2.2085 2.6567 1.9945
-2.2673 2.6067 1.9945
-2.3250 2.5554 1.9945
-2.3815 2.5028 1.9945
-2.4367 2.4490 1.9945
-2.4908 2.3940 1.9945
-2.5437 2.3377 1.9945
-2.5953 2.2803 1.9945
-2.6455 2.2218 1.9945
-2.6945 2.1622 1.9945
-2.7421 2.1015 1.9945
-2.7884 2.0397 1.9945
-2.8332 1.9769 1.9945
-2.8767 1.9131 1.9945
-2.9187 1.8484 1.9945
-2.9593 1.7828 1.9945
-2.9983 1.7162 1.9945
-3.0359 1.6488 1.9945
-3.0720 1.5806 1.9945
-3.1065 1.5116 1.9945
-3.1395 1.4419 1.9945
-3.1709 1.3714 1.9945
-3.2008 1.3002 1.9945
-3.2290 1.2284 1.9945
-3.2556 1.1560 1.9945
-3.2806 1.0830 1.9945
-3.3040 1.0094 1.9945
-3.3257 0.9354 1.9945
-3.3458 0.8609 1.9945
-3.3642 0.7860 1.9945
-3.3809 0.7106 1.9945
-3.3959 0.6349 1.9945
-3.4092 0.5589 1.9945
-3.4209 0.4827 1.9945
-3.4308 0.4061 1.9945
-3.4390 0.3294 1.9945
-3.4455 0.2525 1.9945
-3.4503 0.1755 1.9945
-3.4534 0.0984 1.9945
-3.4547 0.0213 1.9945
-3.4543 -0.0559 1.9945
-3.4522 -0.1330 1.9945
-3.4484 -0.2101 1.9945
-3.4428 -0.2871 1.9945
-3.4355 -0.3639 1.9945
-3.4265 -0.4405 1.9945
-3.4158 -0.5170 1.9945
-3.4034 -0.5931 1.9945
-3.3893 -0.6690 1.9945
-3.3735 -0.7445 1.9945
-3.3561 -0.8197 1.9945
-3.3369 -0.8944 1.9945
-3.3161 -0.9687 1.9945
-3.2936 -1.0425 1.9945
-3.2695 -1.1158 1.9945
-3.2438 -1.1886 1.9945
-3.2165 -1.2607 1.9945
-3.1875 -1.3323 1.9945
-3.1569 -1.4031 1.9945
-3.1248 -1.4733 1.9945
-3.0911 -1.5427 1.9945
-3.0559 -1.6113 1.9945
-3.0191 -1.6792 1.9945
-2.9809 -1.7462 1.9945
-2.9411 -1.8123 1.9945
-2.8999 -1.8776 1.9945
-2.8573 -1.9419 1.9945
-2.8132 -2.0052 1.9945
-2.7677 -2.0675 1.9945
-2.7208 -2.1288 1.9945
-2.6726 -2.1890 1.9945
-2.6230 -2.2482 1.9945
-2.5722 -2.3062 1.9945
-2.5200 -2.3631 1.9945
-2.4666 -2.4188 1.9945
-2.4120 -2.4732 1.9945
-2.3561 -2.5265 1.9945
-2.2991 -2.5785 1.9945
-2.2409 -2.6292 1.9945
-2.1816 -2.6786 1.9945
-2.1213 -2.7266 1.9945
-0.8373 -1.1274 0.8108
-0.8121 -1.1460 0.8109
-0.7864 -1.1640 0.8111
-0.7604 -1.1815 0.8112
-0.7339 -1.1984 0.8113
-0.7070 -1.2147 0.8114
-0.6798 -1.2303 0.8116
-0.6523 -1.2454 0.8117
-0.6244 -1.2598 0.8118
-0.5962 -1.2736 0.8119
-0.5676 -1.2868 0.8120
-0.5388 -1.2993 0.8121
-0.5097 -1.3111 0.8122
-0.4804 -1.3223 0.8123
-0.4508 -1.3328 0.8123
-0.4209 -1.3427 0.8124
-0.3909 -1.3519 0.8125
-0.3606 -1.3604 0.8125
-0.3302 -1.3682 0.8126
-0.2995 -1.3753 0.8127
-0.2688 -1.3817 0.8127
-0.2378 -1.3875 0.8127
-0.2068 -1.3925 0.8128
-0.1756 -1.3968 0.8128
-0.1444 -1.4004 0.8128
-0.1131 -1.4033 0.8129
-0.0817 -1.4055 0.8129
-0.0503 -1.4070 0.8129
-0.0189 -1.4078 0.8129
0.0126 -1.4079 0.8129
0.0440 -1.4072 0.8129
0.0754 -1.4059 0.8129
0.1068 -1.4038 0.8129
0.1381 -1.4010 0.8128
0.1694 -1.3976 0.8128
0.2005 -1.3934 0.8128
0.2316 -1.3885 0.8127
0.2625 -1.3829 0.8127
0.2933 -1.3766 0.8127
0.3240 -1.3696 0.8126
0.3545 -1.3619 0.8125
0.3848 -1.3536 0.8125
0.4149 -1.3445 0.8124
0.4448 -1.3348 0.8123
0.4744 -1.3244 0.8122
0.5038 -1.3133 0.8122
0.5330 -1.3016 0.8121
0.5618 -1.2892 0.8120
0.5904 -1.2762 0.8119
0.6187 -1.2625 0.8118
0.6467 -1.2482 0.8117
0.6743 -1.2333 0.8116
0.7015 -1.2178 0.8114
0.7285 -1.2016 0.8113
0.7550 -1.1848 0.8112
0.7811 -1.1675 0.8110
0.8069 -1.1496 0.8109
2.0472 -2.7824 1.9945
2.1088 -2.7360 1.9945
2.1694 -2.6882 1.9945
2.2289 -2.6390 1.9945
2.2873 -2.5886 1.9945
2.3446 -2.5369 1.9945
2.4006 -2.4839 1.9945
2.4555 -2.4296 1.9945
2.5092 -2.3742 1.9945
2.5616 -2.3175 1.9945
2.6127 -2.2598 1.9945
2.6625 -2.2008 1.9945
2.7110 -2.1408 1.9945
2.7581 -2.0797 1.9945
2.8039 -2.0176 1.9945
2.8483 -1.9545 1.9945
2.8912 -1.8904 1.9945
2.9327 -1.8253 1.9945
2.9727 -1.7594 1.9945
3.0113 -1.6925 1.9945
3.0483 -1.6249 1.9945
3.0839 -1.5564 1.9945
3.1179 -1.4871 1.9945
3.1503 -1.4171 1.9945
3.1812 -1.3464 1.9945
3.2104 -1.2750 1.9945
3.2381 -1.2030 1.9945
3.2642 -1.1304 1.9945
3.2886 -1.0572 1.9945
3.3114 -0.9834 1.9945
3.3326 -0.9092 1.9945
3.3520 -0.8346 1.9945
3.3698 -0.7595 1.9945
3.3859 -0.6841 1.9945
3.4004 -0.6083 1.9945
3.4131 -0.5322 1.9945
3.4242 -0.4558 1.9945
3.4335 -0.3792 1.9945
3.4411 -0.3024 1.9945
3.4470 -0.2255 1.9945
3.4512 -0.1485 1.9945
3.4536 -0.0713 1.9945
3.4544 0.0058 1.9945
3.4534 0.0830 1.9945
3.4507 0.1601 1.9945
3.4462 0.2371 1.9945
3.4401 0.3140 1.9945
3.4322 0.3908 1.9945
3.4226 0.4673 1.9945
3.4113 0.5437 1.9945
3.3983 0.6197 1.9945
3.3837 0.6955 1.9945
3.3673 0.7709 1.9945
3.3492 0.8459 1.9945
3.3295 0.9205 1.9945
3.3081 0.9946 1.9945
3.2851 1.0682 1.9945
3.2604 1.1414 1.9945
3.2341 1.2139 1.9945
3.2062 1.2858 1.9945
3.1767 1.3571 1.9945
3.1456 1.4277 1.9945
3.1129 1.4976 1.9945
3.0787 1.5668 1.9945
3.0429 1.6351 1.9945
3.0057 1.7027 1.9945
2.9669 1.7694 1.9945
2.9266 1.8353 1.9945
2.8849 1.9002 1.9945
2.8418 1.9641 1.9945
2.7972 2.0271 1.9945
2.7512 2.0891 1.9945
2.7039 2.1500 1.9945
2.6552 2.2099 1.9945
2.6051 2.2686 1.9945
2.5539 2.3262 1.9945
2.5013 2.3827 1.9945
2.4474 2.4380 1.9945
2.3923 2.4920 1.9945
2.3361 2.5448 1.9945
2.2787 2.5964 1.9945
2.2201 2.6466 1.9945
2.1605 2.6956 1.9945
0.8358 1.0918 0.7939
0.8110 1.1100 0.7937
0.7859 1.1277 0.7936
0.7604 1.1448 0.7935
0.7345 1.1613 0.7933
0.7083 1.1772 0.7932
0.6817 1.1926 0.7931
0.6548 1.2073 0.7930
0.6276 1.2215 0.7929
0.6001 1.2351 0.7928
0.5723 1.2480 0.7927
0.5442 1.2603 0.7926
0.5159 1.2720 0.7925
0.4873 1.2831 0.7924
0.4585 1.2935 0.7923
0.4294 1.3033 0.7923
0.4002 1.3125 0.7922
0.3707 1.3210 0.7921
0.3411 1.3288 0.7921
0.3113 1.3360 0.7920
0.2814 1.3426 0.7920
0.2513 1.3484 0.7919
0.2211 1.3537 0.7919
0.1908 1.3582 0.7918
0.1604 1.3621 0.7918
0.1300 1.3653 0.7918
0.0994 1.3678 0.7918
0.0689 1.3697 0.7918
0.0383 1.3708 0.7918
0.0076 1.3714 0.7917
-0.0230 1.3712 0.7917
-0.0536 1.3704 0.7918
-0.0842 1.3688 0.7918
-0.1148 1.3666 0.7918
-0.1453 1.3638 0.7918
-0.1757 1.3602 0.7918
-0.2060 1.3560 0.7919
-0.2363 1.3512 0.7919
-0.2664 1.3456 0.7919
-0.2964 1.3394 0.7920
-0.3263 1.3326 0.7921
-0.3560 1.3250 0.7921
-0.3855 1.3169 0.7922
-0.4149 1.3080 0.7922
-0.4440 1.2986 0.7923
-0.4730 1.2884 0.7924
-0.5017 1.2777 0.7925
-0.5301 1.2663 0.7926
-0.5584 1.2543 0.7927
-0.5863 1.2417 0.7927
-0.6140 1.2284 0.7928
-0.6413 1.2146 0.7930
-0.6684 1.2001 0.7931
-0.6951 1.1851 0.7932
-0.7215 1.1694 0.7933
-0.7476 1.1532 0.7934
-0.7733 1.1364 0.7936
-0.7986 1.1190 0.7937
-0.8235 1.1011 0.7938
-2.1305 2.7196 1.9945
-2.1907 2.6714 1.9945
-2.2498 2.6218 1.9945
-2.3078 2.5709 1.9945
-2.3646 2.5187 1.9945
-2.4203 2.4653 1.9945
-2.4747 2.4106 1.9945
-2.5280 2.3547 1.9945
-2.5799 2.2977 1.9945
-2.6306 2.2395 1.9945
-2.6800 2.1802 1.9945
-2.7280 2.1198 1.9945
-2.7746 2.0583 1.9945
-2.8199 1.9959 1.9945
-2.8638 1.9324 1.9945
-2.9063 1.8679 1.9945
-2.9472 1.8026 1.9945
-2.9867 1.7363 1.9945
-3.0248 1.6691 1.9945
-3.0613 1.6012 1.9945
-3.0963 1.5324 1.9945
-3.1298 1.4629 1.9945
-3.1617 1.3926 1.9945
-3.1920 1.3216 1.9945
-3.2207 1.2500 1.9945
-3.2478 1.1778 1.9945
-3.2733 1.1050 1.9945
-3.2972 1.0316 1.9945
-3.3194 0.9577 1.9945
-3.3399 0.8833 1.9945
-3.3588 0.8085 1.9945
-3.3760 0.7333 1.9945
-3.3916 0.6577 1.9945
-3.4054 0.5818 1.9945
-3.4176 0.5056 1.9945
-3.4280 0.4291 1.9945
-3.4367 0.3524 1.9945
-3.4438 0.2756 1.9945
-3.4490 0.1986 1.9945
-3.4526 0.1215 1.9945
-3.4545 0.0444 1.9945
-3.4546 -0.0328 1.9945
-3.4530 -0.1099 1.9945
-3.4497 -0.1870 1.9945
-3.4446 -0.2640 1.9945
-3.4379 -0.3409 1.9945
-3.4294 -0.4176 1.9945
-3.4192 -0.4940 1.9945
-3.4073 -0.5703 1.9945
-3.3937 -0.6462 1.9945
-3.3785 -0.7219 1.9945
-3.3615 -0.7972 1.9945
-3.3429 -0.8720 1.9945
-3.3225 -0.9465 1.9945
-3.3006 -1.0204 1.9945
-3.2770 -1.0939 1.9945
-3.2517 -1.1668 1.9945
-3.2248 -1.2391 1.9945
-3.1963 -1.3109 1.9945
-3.1663 -1.3819 1.9945
-3.1346 -1.4523 1.9945
-3.1014 -1.5219 1.9945
-3.0666 -1.5908 1.9945
-3.0303 -1.6589 1.9945
-2.9925 -1.7262 1.9945
-2.9532 -1.7926 1.9945
-2.9124 -1.8581 1.9945
-2.8702 -1.9227 1.9945
-2.8265 -1.9863 1.9945
-2.7815 -2.0489 1.9945
-2.7350 -2.1105 1.9945
-2.6872 -2.1711 1.9945
-2.6380 -2.2306 1.9945
-2.5875 -2.2889 1.9945
-2.5358 -2.3461 1.9945
-2.4827 -2.4022 1.9945
-2.4285 -2.4570 1.9945
-2.3730 -2.5106 1.9945
-2.3163 -2.5630 1.9945
-2.2585 -2.6141 1.9945
-2.1995 -2.6639 1.9945
-2.1395 -2.7124 1.9945
-2.0784 -2.7595 1.9945
-0.8197 -1.1405 0.8109
-0.7942 -1.1587 0.8110
-0.7682 -1.1763 0.8111
-0.7419 -1.1934 0.8113
-0.7151 -1.2098 0.8114
-0.6880 -1.2257 0.8115
-0.6606 -1.2409 0.8116
-0.6328 -1.2555 0.8117
-0.6047 -1.2695 0.8119
-0.5762 -1.2829 0.8120
-0.5475 -1.2956 0.8121
-0.5185 -1.3076 0.8121
-0.4892 -1.3190 0.8122
-0.4597 -1.3297 0.8123
-0.4299 -1.3398 0.8124
-0.3999 -1.3492 0.8125
-0.3697 -1.3579 0.8125
-0.3393 -1.3659 0.8126
-0.3087 -1.3732 0.8126
-0.2780 -1.3799 0.8127
-0.2471 -1.3858 0.8127
-0.2161 -1.3911 0.8128
-0.1850 -1.3956 0.8128
-0.1538 -1.3994 0.8128
-0.1225 -1.4025 0.8129
-0.0912 -1.4050 0.8129
-0.0598 -1.4067 0.8129
-0.0283 -1.4077 0.8129
0.0031 -1.4079 0.8129
0.0346 -1.4075 0.8129
0.0660 -1.4064 0.8129
0.0974 -1.4045 0.8129
0.1287 -1.4020 0.8128
0.1600 -1.3987 0.8128
0.1912 -1.3947 0.8128
0.2223 -1.3900 0.8128
0.2533 -1.3846 0.8127
0.2841 -1.3786 0.8127
0.3148 -1.3718 0.8126
0.3453 -1.3643 0.8126
0.3757 -1.3561 0.8125
0.4059 -1.3473 0.8124
0.4358 -1.3378 0.8124
0.4655 -1.3276 0.8123
0.4950 -1.3167 0.8122
0.5242 -1.3052 0.8121
0.5532 -1.2930 0.8120
0.5819 -1.2802 0.8119
0.6102 -1.2667 0.8118
0.6383 -1.2526 0.8117
0.6660 -1.2378 0.8116
0.6934 -1.2225 0.8115
0.7204 -1.2065 0.8113
0.7471 -1.1899 0.8112
0.7733 -1.1728 0.8111
0.7992 -1.1550 0.8110
0.8247 -1.1367 0.8108
2.0905 -2.7500 1.9945
2.1514 -2.7026 1.9945
2.2112 -2.6539 1.9945
2.2699 -2.6039 1.9945
2.3275 -2.5525 1.9945
2.3839 -2.4999 1.9945
2.4392 -2.4460 1.9945
2.4932 -2.3909 1.9945
2.5460 -2.3346 1.9945
2.5975 -2.2772 1.9945
2.6477 -2.2186 1.9945
2.6966 -2.1589 1.9945
2.7441 -2.0982 1.9945
2.7903 -2.0364 1.9945
2.8351 -1.9735 1.9945
2.8785 -1.9097 1.9945
2.9204 -1.8449 1.9945
2.9609 -1.7792 1.9945
2.9999 -1.7127 1.9945
3.0374 -1.6452 1.9945
3.0734 -1.5770 1.9945
3.1078 -1.5080 1.9945
3.1407 -1.4382 1.9945
3.1721 -1.3677 1.9945
3.2018 -1.2965 1.9945
3.2300 -1.2246 1.9945
3.2565 -1.1522 1.9945
3.2814 -1.0792 1.9945
3.3047 -1.0056 1.9945
3.3264 -0.9315 1.9945
3.3464 -0.8570 1.9945
3.3647 -0.7821 1.9945
3.3813 -0.7067 1.9945
3.3962 -0.6310 1.9945
3.4095 -0.5550 1.9945
3.4210 -0.4787 1.9945
3.4309 -0.4022 1.9945
3.4390 -0.3255 1.9945
3.4454 -0.2486 1.9945
3.4501 -0.1716 1.9945
3.4531 -0.0945 1.9945
3.4543 -0.0173 1.9945
3.4538 0.0598 1.9945
3.4516 0.1370 1.9945
3.4477 0.2140 1.9945
3.4421 0.2910 1.9945
3.4348 0.3678 1.9945
3.4257 0.4444 1.9945
3.4149 0.5208 1.9945
3.4024 0.5969 1.9945
3.3882 0.6728 1.9945
3.3724 0.7483 1.9945
3.3548 0.8234 1.9945
3.3356 0.8982 1.9945
3.3147 0.9724 1.9945
3.2922 1.0462 1.9945
3.2680 1.1195 1.9945
3.2422 1.1922 1.9945
3.2147 1.2643 1.9945
3.1857 1.3358 1.9945
3.1551 1.4066 1.9945
3.1229 1.4767 1.9945
3.0891 1.5461 1.9945
3.0538 1.6147 1.9945
3.0170 1.6825 1.9945
2.9787 1.7495 1.9945
2.9388 1.8156 1.9945
2.8976 1.8808 1.9945
2.8548 1.9450 1.9945
2.8107 2.0083 1.9945
2.7651 2.0706 1.9945
2.7182 2.1318 1.9945
2.6699 2.1920 1.9945
2.6203 2.2511 1.9945
2.5694 2.3091 1.9945
2.5172 2.3659 1.9945
2.4637 2.4215 1.9945
2.4090 2.4759 1.9945
2.3531 2.5291 1.9945
2.2960 2.5811 1.9945
2.2378 2.6317 1.9945
2.1785 2.6810 1.9945
0.8431 1.0863 0.7939
0.8185 1.1046 0.7938
0.7935 1.1224 0.7936
0.7681 1.1397 0.7935
0.7423 1.1564 0.7934
0.7162 1.1725 0.7932
0.6897 1.1880 0.7931
0.6629 1.2030 0.7930
0.6358 1.2173 0.7929
0.6084 1.2310 0.7928
0.5807 1.2442 0.7927
0.5527 1.2567 0.7926
0.5244 1.2686 0.7925
0.4959 1.2798 0.7924
0.4671 1.2905 0.7924
0.4381 1.3005 0.7923
0.4090 1.3098 0.7922
0.3796 1.3185 0.7921
0.3500 1.3265 0.7921
0.3203 1.3339 0.7920
0.2904 1.3407 0.7920
0.2603 1.3468 0.7919
0.2302 1.3522 0.7919
0.1999 1.3569 0.7919
0.1696 1.3610 0.7918
0.1391 1.3644 0.7918
0.1086 1.3671 0.7918
0.0780 1.3692 0.7918
0.0475 1.3706 0.7918
0.0168 1.3713 0.7917
-0.0138 1.3713 0.7917
-0.0444 1.3707 0.7918
-0.0750 1.3694 0.7918
-0.1056 1.3674 0.7918
-0.1361 1.3647 0.7918
-0.1666 1.3614 0.7918
-0.1969 1.3574 0.7919
-0.2272 1.3527 0.7919
-0.2574 1.3474 0.7919
-0.2874 1.3414 0.7920
-0.3173 1.3347 0.7920
-0.3471 1.3274 0.7921
-0.3767 1.3194 0.7922
-0.4061 1.3108 0.7922
-0.4353 1.3015 0.7923
-0.4643 1.2916 0.7924
-0.4931 1.2810 0.7924
-0.5216 1.2698 0.7925
-0.5499 1.2580 0.7926
-0.5779 1.2455 0.7927
-0.6057 1.2325 0.7928
-0.6332 1.2188 0.7929
-0.6603 1.2045 0.7930
-0.6872 1.1896 0.7931
-0.7137 1.1742 0.7933
-0.7398 1.1581 0.7934
-0.7656 1.1415 0.7935
-0.7911 1.1243 0.7936
-0.8161 1.1065 0.7938
-2.1122 2.7339 1.9945
-2.1727 2.6860 1.9945
-2.2322 2.6368 1.9945
-2.2905 2.5863 1.9945
-2.3477 2.5345 1.9945
-2.4037 2.4814 1.9945
-2.4585 2.4271 1.9945
-2.5121 2.3716 1.9945
-2.5645 2.3149 1.9945
-2.6155 2.2571 1.9945
-2.6653 2.1981 1.9945
-2.7137 2.1380 1.9945
-2.7608 2.0769 1.9945
-2.8065 2.0147 1.9945
-2.8508 1.9515 1.9945
-2.8937 1.8874 1.9945
-2.9351 1.8223 1.9945
-2.9752 1.7562 1.9945
-3.0135 1.6894 1.9945
-3.0505 1.6217 1.9945
-3.0860 1.5531 1.9945
-3.1199 1.4838 1.9945
-3.1523 1.4137 1.9945
-3.1831 1.3430 1.9945
-3.2122 1.2716 1.9945
-3.2398 1.1995 1.9945
-3.2658 1.1269 1.9945
-3.2902 1.0537 1.9945
-3.3129 0.9799 1.9945
-3.3340 0.9057 1.9945
-3.3534 0.8310 1.9945
-3.3711 0.7559 1.9945
-3.3871 0.6804 1.9945
-3.4015 0.6046 1.9945
-3.4141 0.5285 1.9945
-3.4251 0.4521 1.9945
-3.4343 0.3755 1.9945
-3.4418 0.2987 1.9945
-3.4476 0.2217 1.9945
-3.4517 0.1447 1.9945
-3.4541 0.0675 1.9945
-3.4547 -0.0096 1.9945
-3.4537 -0.0868 1.9945
-3.4509 -0.1639 1.9945
-3.4463 -0.2409 1.9945
-3.4401 -0.3178 1.9945
-3.4321 -0.3946 1.9945
-3.4225 -0.4711 1.9945
-3.4111 -0.5475 1.9945
-3.3980 -0.6235 1.9945
-3.3832 -0.6992 1.9945
-3.3668 -0.7746 1.9945
-3.3486 -0.8496 1.9945
-3.3288 -0.9242 1.9945
-3.3073 -0.9983 1.9945
-3.2842 -1.0719 1.9945
-3.2594 -1.1450 1.9945
-3.2331 -1.2175 1.9945
-3.2051 -1.2894 1.9945
-3.1755 -1.3607 1.9945
-3.1443 -1.4313 1.9945
-3.1115 -1.5011 1.9945
-3.0772 -1.5702 1.9945
-3.0414 -1.6386 1.9945
-3.0040 -1.7061 1.9945
-2.9652 -1.7727 1.9945
-2.9248 -1.8385 1.9945
-2.8830 -1.9034 1.9945
-2.8398 -1.9673 1.9945
-2.7951 -2.0302 1.9945
-2.7491 -2.0922 1.9945
-2.7017 -2.1530 1.9945
-2.6529 -2.2128 1.9945
-2.6028 -2.2715 1.9945
-2.5515 -2.3291 1.9945
-2.4988 -2.3855 1.9945
-2.4449 -2.4407 1.9945
-2.3898 -2.4947 1.9945
-2.3334 -2.5474 1.9945
-2.2760 -2.5989 1.9945
-2.2173 -2.6491 1.9945
-2.1576 -2.6980 1.9945
-2.0968 -2.7455 1.9945
-0.8273 -1.1349 0.8108
-0.8019 -1.1533 0.8110
-0.7760 -1.1711 0.8111
-0.7498 -1.1883 0.8112
-0.7232 -1.2050 0.8114
-0.6962 -1.2210 0.8115
-0.6689 -1.2364 0.8116
-0.6412 -1.2512 0.8117
-0.6131 -1.2654 0.8118
-0.5848 -1.2789 0.8119
-0.5562 -1.2918 0.8120
-0.5272 -1.3041 0.8121
-0.4980 -1.3157 0.8122
-0.4686 -1.3266 0.8123
-0.4388 -1.3369 0.8124
-0.4089 -1.3464 0.8124
-0.3788 -1.3554 0.8125
-0.3484 -1.3636 0.8126
-0.3179 -1.3711 0.8126
-0.2872 -1.3780 0.8127
-0.2564 -1.3841 0.8127
-0.2254 -1.3896 0.8128
-0.1943 -1.3943 0.8128
-0.1632 -1.3983 0.8128
-0.1319 -1.4017 0.8129
-0.1006 -1.4043 0.8129
-0.0692 -1.4062 0.8129
-0.0378 -1.4074 0.8129
-0.0063 -1.4079 0.8129
0.0251 -1.4077 0.8129
0.0566 -1.4068 0.8129
0.0880 -1.4051 0.8129
0.1193 -1.4028 0.8129
0.1506 -1.3997 0.8128
0.1819 -1.3960 0.8128
0.2130 -1.3915 0.8128
0.2440 -1.3863 0.8127
0.2749 -1.3805 0.8127
0.3056 -1.3739 0.8126
0.3362 -1.3666 0.8126
0.3666 -1.3587 0.8125
0.3968 -1.3500 0.8124
0.4269 -1.3407 0.8124
0.4566 -1.3307 0.8123
0.4862 -1.3200 0.8122
0.5155 -1.3087 0.8121
0.5446 -1.2967 0.8120
0.5733 -1.2841 0.8119
0.6018 -1.2708 0.8118
0.6299 -1.2569 0.8117
0.6577 -1.2423 0.8116
0.6852 -1.2272 0.8115
0.7124 -1.2114 0.8114
0.7391 -1.1950 0.8113
0.7655 -1.1780 0.8111
0.7915 -1.1604 0.8110
0.8171 -1.1422 0.8109
2.0720 -2.7640 1.9945
2.1332 -2.7170 1.9945
2.1934 -2.6687 1.9945
2.2524 -2.6190 1.9945
2.3103 -2.5681 1.9945
2.3671 -2.5158 1.9945
2.4227 -2.4623 1.9945
2.4771 -2.4076 1.9945
2.5303 -2.3517 1.9945
2.5822 -2.2946 1.9945
2.6328 -2.2363 1.9945
2.6821 -2.1769 1.9945
2.7300 -2.1165 1.9945
2.7766 -2.0550 1.9945
2.8218 -1.9925 1.9945
2.8656 -1.9290 1.9945
2.9080 -1.8645 1.9945
2.9489 -1.7990 1.9945
2.9883 -1.7327 1.9945
3.0263 -1.6656 1.9945
3.0627 -1.5976 1.9945
3.0976 -1.5288 1.9945
3.1310 -1.4592 1.9945
3.1628 -1.3889 1.9945
3.1931 -1.3179 1.9945
3.2217 -1.2463 1.9945
3.2487 -1.1740 1.9945
3.2741 -1.1011 1.9945
3.2979 -1.0277 1.9945
3.3201 -0.9538 1.9945
3.3405 -0.8794 1.9945
3.3593 -0.8046 1.9945
3.3765 -0.7294 1.9945
3.3919 -0.6538 1.9945
3.4057 -0.5779 1.9945
3.4177 -0.5016 1.9945
3.4281 -0.4252 1.9945
3.4367 -0.3485 1.9945
3.4437 -0.2717 1.9945
3.4489 -0.1947 1.9945
3.4524 -0.1176 1.9945
3.4541 -0.0405 1.9945
3.4542 0.0367 1.9945
3.4525 0.1138 1.9945
3.4491 0.1909 1.9945
3.4440 0.2679 1.9945
3.4371 0.3448 1.9945
3.4286 0.4214 1.9945
3.4183 0.4979 1.9945
3.4064 0.5741 1.9945
3.3927 0.6501 1.9945
3.3773 0.7257 1.9945
3.3603 0.8009 1.9945
3.3415 0.8758 1.9945
3.3211 0.9502 1.9945
3.2991 1.0241 1.9945
3.2754 1.0976 1.9945
3.2501 1.1705 1.9945
3.2231 1.2427 1.9945
3.1946 1.3144 1.9945
3.1644 1.3855 1.9945
3.1327 1.4558 1.9945
3.0994 1.5254 1.9945
3.0646 1.5942 1.9945
3.0282 1.6623 1.9945
2.9903 1.7295 1.9945
2.9510 1.7959 1.9945
2.9101 1.8613 1.9945
2.8678 1.9259 1.9945
2.8241 1.9894 1.9945
2.7789 2.0520 1.9945
2.7324 2.1136 1.9945
2.6845 2.1741 1.9945
2.6353 2.2335 1.9945
2.5848 2.2918 1.9945
2.5330 2.3489 1.9945
2.4799 2.4049 1.9945
2.4255 2.4597 1.9945
2.3700 2.5133 1.9945
2.3133 2.5656 1.9945
2.2554 2.6166 1.9945
2.1964 2.6664 1.9945
2.1363 2.7148 1.9945
0.8259 1.0992 0.7938
0.8010 1.1172 0.7937
0.7757 1.1346 0.7935
0.7501 1.1514 0.7934
0.7241 1.1677 0.7933
0.6977 1.1834 0.7932
0.6710 1.1986 0.7930
0.6440 1.2131 0.7929
0.6166 1.2270 0.7928
0.5890 1.2403 0.7927
0.5611 1.2530 0.7926
0.5329 1.2651 0.7925
0.5045 1.2765 0.7925
0.4758 1.2873 0.7924
0.4469 1.2975 0.7923
0.4177 1.3071 0.7922
0.3884 1.3160 0.7922
0.3589 1.3242 0.7921
0.3292 1.3318 0.7920
0.2994 1.3387 0.7920
0.2694 1.3450 0.7919
0.2392 1.3506 0.7919
0.2090 1.3555 0.7919
0.1787 1.3598 0.7918
0.1483 1.3634 0.7918
0.1178 1.3664 0.7918
0.0872 1.3686 0.7918
0.0566 1.3702 0.7918
0.0260 1.3711 0.7917
-0.0046 1.3714 0.7917
-0.0352 1.3709 0.7918
-0.0659 1.3698 0.7918
-0.0964 1.3680 0.7918
-0.1270 1.3656 0.7918
-0.1574 1.3624 0.7918
-0.1878 1.3586 0.7918
-0.2181 1.3542 0.7919
-0.2483 1.3490 0.7919
-0.2784 1.3432 0.7920
-0.3084 1.3368 0.7920
-0.3382 1.3296 0.7921
-0.3678 1.3218 0.7921
-0.3973 1.3134 0.7922
-0.4266 1.3043 0.7923
-0.4556 1.2946 0.7923
-0.4845 1.2842 0.7924
-0.5131 1.2732 0.7925
-0.5415 1.2616 0.7926
-0.5696 1.2493 0.7927
-0.5974 1.2365 0.7928
-0.6249 1.2230 0.7929
-0.6522 1.2089 0.7930
-0.6791 1.1942 0.7931
-0.7057 1.1789 0.7932
-0.7320 1.1630 0.7933
-0.7579 1.1465 0.7935
-0.7835 1.1295 0.7936
-0.8086 1.1119 0.7937
-2.0938 2.7479 1.9945
-2.1547 2.7005 1.9945
-2.2144 2.6517 1.9945
-2.2731 2.6016 1.9945
-2.3307 2.5502 1.9945
-2.3870 2.4975 1.9945
-2.4422 2.4436 1.9945
-2.4962 2.3884 1.9945
-2.5489 2.3320 1.9945
-2.6004 2.2746 1.9945
-2.6505 2.2159 1.9945
-2.6993 2.1562 1.9945
-2.7468 2.0953 1.9945
-2.7929 2.0335 1.9945
-2.8377 1.9706 1.9945
-2.8810 1.9067 1.9945
-2.9228 1.8419 1.9945
-2.9632 1.7762 1.9945
-3.0021 1.7095 1.9945
-3.0396 1.6420 1.9945
-3.0757 1.5737 1.9945
-3.1099 1.5047 1.9945
-3.1427 1.4348 1.9945
-3.1740 1.3643 1.9945
-3.2037 1.2931 1.9945
-3.2317 1.2212 1.9945
-3.2582 1.1487 1.9945
-3.2830 1.0757 1.9945
-3.3063 1.0021 1.9945
-3.3278 0.9280 1.9945
-3.3477 0.8534 1.9945
-3.3659 0.7784 1.9945
-3.3825 0.7031 1.9945
-3.3973 0.6273 1.9945
-3.4105 0.5513 1.9945
-3.4220 0.4750 1.9945
-3.4317 0.3985 1.9945
-3.4397 0.3217 1.9945
-3.4461 0.2448 1.9945
-3.4507 0.1678 1.9945
-3.4536 0.0907 1.9945
-3.4547 0.0135 1.9945
-3.4542 -0.0636 1.9945
-3.4519 -0.1407 1.9945
-3.4479 -0.2178 1.9945
-3.4421 -0.2948 1.9945
-3.4347 -0.3716 1.9945
-3.4255 -0.4482 1.9945
-3.4147 -0.5246 1.9945
-3.4021 -0.6007 1.9945
-3.3878 -0.6765 1.9945
-3.3719 -0.7520 1.9945
-3.3542 -0.8272 1.9945
-3.3349 -0.9019 1.9945
-3.3139 -0.9761 1.9945
-3.2913 -1.0499 1.9945
-3.2671 -1.1231 1.9945
-3.2411 -1.1958 1.9945
-3.2136 -1.2679 1.9945
-3.1845 -1.3394 1.9945
-3.1538 -1.4101 1.9945
-3.1215 -1.4802 1.9945
-3.0877 -1.5496 1.9945
-3.0523 -1.6182 1.9945
-3.0154 -1.6859 1.9945
-2.9770 -1.7528 1.9945
-2.9371 -1.8189 1.9945
-2.8957 -1.8840 1.9945
-2.8529 -1.9482 1.9945
-2.8087 -2.0115 1.9945
-2.7631 -2.0737 1.9945
-2.7161 -2.1349 1.9945
-2.6677 -2.1950 1.9945
-2.6180 -2.2540 1.9945
-2.5670 -2.3119 1.9945
-2.5147 -2.3687 1.9945
-2.4612 -2.4243 1.9945
-2.4064 -2.4786 1.9945
-2.3505 -2.5318 1.9945
-2.2933 -2.5836 1.9945
-2.2350 -2.6342 1.9945
-2.1757 -2.6835 1.9945
-2.1152 -2.7313 1.9945
-0.8348 -1.1293 0.8108
-0.8095 -1.1478 0.8109
-0.7838 -1.1658 0.8111
-0.7577 -1.1832 0.8112
-0.7312 -1.2000 0.8113
-0.7043 -1.2163 0.8115
-0.6771 -1.2319 0.8116
-0.6495 -1.2469 0.8117
-0.6216 -1.2612 0.8118
-0.5933 -1.2749 0.8119
-0.5648 -1.2880 0.8120
-0.5359 -1.3005 0.8121
-0.5068 -1.3123 0.8122
-0.4774 -1.3234 0.8123
-0.4478 -1.3338 0.8123
-0.4179 -1.3436 0.8124
-0.3878 -1.3527 0.8125
-0.3576 -1.3612 0.8125
-0.3271 -1.3689 0.8126
-0.2965 -1.3760 0.8127
-0.2657 -1.3823 0.8127
-0.2347 -1.3880 0.8127
-0.2037 -1.3930 0.8128
-0.1725 -1.3972 0.8128
-0.1413 -1.4008 0.8128
-0.1100 -1.4036 0.8129
-0.0786 -1.4057 0.8129
-0.0472 -1.4071 0.8129
-0.0157 -1.4079 0.8129
0.0157 -1.4079 0.8129
0.0471 -1.4071 0.8129
0.0786 -1.4057 0.8129
0.1099 -1.4036 0.8129
0.1413 -1.4007 0.8128
0.1725 -1.3972 0.8128
0.2037 -1.3929 0.8128
0.2347 -1.3880 0.8127
0.2656 -1.3823 0.8127
0.2964 -1.3759 0.8126
0.3270 -1.3689 0.8126
0.3575 -1.3611 0.8125
0.3878 -1.3527 0.8125
0.4179 -1.3436 0.8124
0.4477 -1.3338 0.8123
0.4774 -1.3233 0.8122
0.5067 -1.3122 0.8122
0.5359 -1.3004 0.8121
0.5647 -1.2880 0.8120
0.5933 -1.2749 0.8119
0.6215 -1.2611 0.8118
0.6494 -1.2468 0.8117
0.6770 -1.2318 0.8115
0.7043 -1.2162 0.8114
0.7311 -1.2000 0.8113
0.7576 -1.1831 0.8112
0.7837 -1.1657 0.8110
0.8094 -1.1477 0.8109
2.0534 -2.7778 1.9945
2.1150 -2.7312 1.9945
2.1754 -2.6833 1.9945
2.2348 -2.6341 1.9945
2.2931 -2.5835 1.9945
2.3502 -2.5316 1.9945
2.4062 -2.4785 1.9945
2.4609 -2.4241 1.9945
2.5145 -2.3686 1.9945
2.5667 -2.3118 1.9945
2.6177 -2.2539 1.9945
2.6674 -2.1949 1.9945
2.7158 -2.1348 1.9945
2.7628 -2.0736 1.9945
2.8084 -2.0113 1.9945
2.8526 -1.9481 1.9945
2.8954 -1.8839 1.9945
2.9368 -1.8188 1.9945
2.9767 -1.7527 1.9945
3.0151 -1.6858 1.9945
3.0520 -1.6181 1.9945
3.0873 -1.5495 1.9945
3.1212 -1.4801 1.9945
3.1535 -1.4101 1.9945
3.1842 -1.3393 1.9945
3.2133 -1.2678 1.9945
3.2408 -1.1957 1.9945
3.2667 -1.1231 1.9945
3.2910 -1.0498 1.9945
3.3136 -0.9761 1.9945
3.3346 -0.9018 1.9945
3.3539 -0.8271 1.9945
3.3715 -0.7520 1.9945
3.3875 -0.6765 1.9945
3.4017 -0.6007 1.9945
3.4143 -0.5245 1.9945
3.4252 -0.4481 1.9945
3.4343 -0.3715 1.9945
3.4418 -0.2947 1.9945
3.4475 -0.2178 1.9945
3.4515 -0.1407 1.9945
3.4538 -0.0636 1.9945
3.4544 0.0135 1.9945
3.4532 0.0907 1.9945
3.4503 0.1678 1.9945
3.4457 0.2448 1.9945
3.4394 0.3217 1.9945
3.4313 0.3984 1.9945
3.4216 0.4750 1.9945
3.4101 0.5513 1.9945
3.3970 0.6273 1.9945
3.3821 0.7030 1.9945
3.3656 0.7784 1.9945
3.3473 0.8534 1.9945
3.3274 0.9279 1.9945
3.3059 1.0020 1.9945
3.2827 1.0756 1.9945
3.2579 1.1486 1.9945
3.2314 1.2211 1.9945
3.2033 1.2930 1.9945
3.1736 1.3642 1.9945
3.1424 1.4348 1.9945
3.1096 1.5046 1.9945
