ply
format ascii 1.0
element vertex 2173
property float32 x
property float32 y
property float32 z
end_header
0.2166 1.9123 0.7876
0.1738 1.9165 0.7876
0.1310 1.9199 0.7876
0.0881 1.9223 0.7876
0.0451 1.9238 0.7876
0.0021 1.9243 0.7876
-0.0408 1.9239 0.7876
-0.0838 1.9225 0.7876
-0.1267 1.9202 0.7876
-0.1696 1.9169 0.7876
-0.2123 1.9128 0.7877
-0.2550 1.9076 0.7877
-0.2976 1.9016 0.7877
-0.3400 1.8946 0.7878
-0.3823 1.8867 0.7879
-0.4243 1.8778 0.7879
-0.4662 1.8681 0.7880
-0.5079 1.8574 0.7881
-0.5493 1.8458 0.7882
-0.5905 1.8333 0.7883
-0.6314 1.8199 0.7884
-0.6719 1.8056 0.7885
-0.7122 1.7904 0.7886
-0.7521 1.7743 0.7887
-0.7917 1.7574 0.7889
-2.1783 4.5604 2.0684
-2.2796 4.5106 2.0684
-2.3797 4.4585 2.0684
-2.4787 4.4043 2.0684
-2.5764 4.3478 2.0684
-2.6729 4.2892 2.0684
-2.7681 4.2284 2.0684
-2.8618 4.1656 2.0684
-2.9541 4.1006 2.0684
-3.0450 4.0336 2.0684
-3.1343 3.9646 2.0684
-3.2221 3.8936 2.0684
-3.3082 3.8206 2.0684
-3.3927 3.7458 2.0684
-3.4755 3.6691 2.0684
-3.5566 3.5906 2.0684
-3.6359 3.5102 2.0684
-3.7134 3.4282 2.0684
-3.7891 3.3444 2.0684
-3.8628 3.2589 2.0684
-3.9346 3.1718 2.0684
-4.0045 3.0831 2.0684
-4.0723 2.9929 2.0684
-4.1381 2.9012 2.0684
-4.2019 2.8081 2.0684
-4.2636 2.7135 2.0684
-4.3231 2.6176 2.0684
-4.3805 2.5204 2.0684
-4.4357 2.4220 2.0684
-4.4887 2.3223 2.0684
-4.5395 2.2214 2.0684
-4.5879 2.1195 2.0684
-4.6341 2.0165 2.0684
-4.6780 1.9125 2.0684
-4.7196 1.8076 2.0684
-4.7587 1.7017 2.0684
-4.7956 1.5950 2.0684
-4.8300 1.4875 2.0684
-4.8620 1.3792 2.0684
-4.8916 1.2703 2.0684
-4.9188 1.1607 2.0684
-4.9434 1.0506 2.0684
-4.9657 0.9399 2.0684
-4.9855 0.8288 2.0684
-5.0027 0.7172 2.0684
-5.0175 0.6053 2.0684
-5.0297 0.4931 2.0684
-5.0395 0.3806 2.0684
-5.0467 0.2680 2.0684
-5.0514 0.1552 2.0684
-5.0537 0.0423 2.0684
-5.0533 -0.0706 2.0684
-5.0505 -0.1834 2.0684
-5.0452 -0.2961 2.0684
-5.0373 -0.4088 2.0684
-5.0269 -0.5212 2.0684
-5.0140 -0.6333 2.0684
-4.9986 -0.7451 2.0684
-4.9807 -0.8566 2.0684
-4.9604 -0.9676 2.0684
-4.9375 -1.0782 2.0684
-4.9122 -1.1882 2.0684
-4.8844 -1.2976 2.0684
-4.8542 -1.4064 2.0684
-4.8216 -1.5144 2.0684
-4.7866 -1.6217 2.0684
-4.7492 -1.7282 2.0684
-4.7094 -1.8339 2.0684
-4.6673 -1.9386 2.0684
-4.6228 -2.0424 2.0684
-4.5760 -2.1451 2.0684
-4.5270 -2.2468 2.0684
-4.4757 -2.3473 2.0684
-4.4221 -2.4467 2.0684
-4.3664 -2.5448 2.0684
-4.3085 -2.6417 2.0684
-4.2484 -2.7373 2.0684
-4.1862 -2.8315 2.0684
-4.1219 -2.9243 2.0684
-4.0556 -3.0156 2.0684
-3.9872 -3.1054 2.0684
-3.9168 -3.1937 2.0684
-3.8445 -3.2804 2.0684
-3.7703 -3.3655 2.0684
-3.6942 -3.4488 2.0684
-3.6163 -3.5305 2.0684
-3.5365 -3.6104 2.0684
-3.4550 -3.6885 2.0684
-3.3717 -3.7647 2.0684
-3.2868 -3.8391 2.0684
-3.2002 -3.9115 2.0684
-3.1121 -3.9820 2.0684
-3.0224 -4.0505 2.0684
-2.9312 -4.1170 2.0684
-2.8385 -4.1815 2.0684
-2.7444 -4.2438 2.0684
-2.6489 -4.3040 2.0684
-2.5521 -4.3621 2.0684
-2.4540 -4.4180 2.0684
-2.3548 -4.4718 2.0684
-2.2543 -4.5232 2.0684
-2.1527 -4.5725 2.0684
-0.8088 -1.8225 0.8161
-0.7681 -1.8404 0.8162
-0.7269 -1.8574 0.8163
-0.6853 -1.8735 0.8164
-0.6434 -1.8886 0.8166
-0.6011 -1.9027 0.8167
-0.5585 -1.9159 0.8168
-0.5157 -1.9281 0.8169
-0.4725 -1.9393 0.8169
-0.4291 -1.9496 0.8170
-0.3855 -1.9588 0.8171
-0.3417 -1.9671 0.8171
-0.2977 -1.9744 0.8172
-0.2535 -1.9807 0.8172
-0.2093 -1.9859 0.8173
-0.1649 -1.9902 0.8173
-0.1204 -1.9934 0.8173
-0.0758 -1.9956 0.8174
-0.0312 -1.9968 0.8174
0.0134 -1.9970 0.8174
0.0580 -1.9962 0.8173
0.1025 -1.9944 0.8173
0.1471 -1.9915 0.8173
0.1915 -1.9877 0.8173
0.2358 -1.9828 0.8172
0.2801 -1.9769 0.8172
0.3241 -1.9701 0.8171
0.3680 -1.9622 0.8171
0.4117 -1.9533 0.8170
0.4552 -1.9435 0.8169
0.4984 -1.9326 0.8168
0.5414 -1.9208 0.8168
0.5841 -1.9080 0.8167
0.6265 -1.8942 0.8166
0.6685 -1.8795 0.8164
0.7102 -1.8638 0.8163
0.7516 -1.8472 0.8162
0.7925 -1.8296 0.8161
2.1119 -4.5915 2.0684
2.2139 -4.5432 2.0684
2.3148 -4.4926 2.0684
2.4146 -4.4398 2.0684
2.5131 -4.3848 2.0684
2.6104 -4.3275 2.0684
2.7064 -4.2682 2.0684
2.8011 -4.2067 2.0684
2.8944 -4.1431 2.0684
2.9862 -4.0774 2.0684
3.0765 -4.0096 2.0684
3.1652 -3.9399 2.0684
3.2524 -3.8683 2.0684
3.3380 -3.7946 2.0684
3.4220 -3.7193 2.0684
3.5042 -3.6418 2.0684
3.5706 -3.5488 2.0604
3.6490 -3.4681 2.0604
3.7256 -3.3858 2.0604
3.8002 -3.3017 2.0604
3.8882 -3.2286 2.0684
3.9594 -3.1409 2.0684
4.0285 -3.0517 2.0684
4.0957 -2.9610 2.0684
4.1608 -2.8688 2.0684
4.2238 -2.7751 2.0684
4.2848 -2.6801 2.0684
4.3436 -2.5837 2.0684
4.4001 -2.4861 2.0684
4.4546 -2.3872 2.0684
4.5068 -2.2871 2.0684
4.5567 -2.1859 2.0684
4.6045 -2.0836 2.0684
4.6498 -1.9802 2.0684
4.6929 -1.8759 2.0684
4.7336 -1.7706 2.0684
4.7720 -1.6644 2.0684
4.8080 -1.5574 2.0684
4.8415 -1.4497 2.0684
4.8727 -1.3412 2.0684
4.9015 -1.2320 2.0684
4.9278 -1.1222 2.0684
4.9516 -1.0119 2.0684
4.9729 -0.9011 2.0684
4.9918 -0.7897 2.0684
5.0082 -0.6781 2.0684
5.0221 -0.5660 2.0684
5.0335 -0.4537 2.0684
5.0424 -0.3412 2.0684
5.0487 -0.2285 2.0684
5.0526 -0.1157 2.0684
5.0539 -0.0028 2.0684
5.0527 0.1101 2.0684
5.0490 0.2229 2.0684
5.0428 0.3356 2.0684
5.0340 0.4482 2.0684
5.0228 0.5605 2.0684
5.0090 0.6725 2.0684
4.9927 0.7842 2.0684
4.9740 0.8955 2.0684
4.9527 1.0064 2.0684
4.9290 1.1167 2.0684
4.9028 1.2266 2.0684
4.8742 1.3358 2.0684
4.8431 1.4443 2.0684
4.8097 1.5521 2.0684
4.7738 1.6591 2.0684
4.7356 1.7653 2.0684
4.6950 1.8706 2.0684
4.6520 1.9750 2.0684
4.6067 2.0784 2.0684
4.5592 2.1808 2.0684
4.5093 2.2821 2.0684
4.4572 2.3822 2.0684
4.4029 2.4812 2.0684
4.3464 2.5789 2.0684
4.2877 2.6753 2.0684
4.2269 2.7705 2.0684
4.1640 2.8642 2.0684
4.0990 2.9564 2.0684
4.0319 3.0472 2.0684
3.9628 3.1366 2.0684
3.8918 3.2243 2.0684
3.8188 3.3104 2.0684
3.7439 3.3949 2.0684
3.6672 3.4776 2.0684
3.5886 3.5587 2.0684
3.5082 3.6379 2.0684
3.4261 3.7153 2.0684
3.3422 3.7910 2.0684
3.2568 3.8646 2.0684
3.1696 3.9364 2.0684
3.0809 4.0063 2.0684
2.9907 4.0741 2.0684
2.8990 4.1398 2.0684
2.8058 4.2036 2.0684
2.7112 4.2652 2.0684
2.6152 4.3247 2.0684
2.5180 4.3819 2.0684
2.4195 4.4371 2.0684
2.3198 4.4900 2.0684
0.8464 1.7320 0.7890
0.8073 1.7502 0.7888
0.7679 1.7675 0.7887
0.7282 1.7839 0.7886
0.6880 1.7995 0.7885
0.6476 1.8141 0.7884
0.6068 1.8279 0.7883
0.5658 1.8408 0.7882
0.5245 1.8528 0.7881
0.4829 1.8638 0.7880
0.4411 1.8740 0.7879
0.3991 1.8832 0.7879
0.3569 1.8915 0.7878
0.3146 1.8988 0.7877
0.2721 1.9053 0.7877
0.2294 1.9108 0.7877
0.1867 1.9153 0.7876
0.1439 1.9190 0.7876
0.1010 1.9217 0.7876
0.0580 1.9234 0.7876
0.0150 1.9242 0.7876
-0.0279 1.9241 0.7876
-0.0709 1.9230 0.7876
-0.1138 1.9210 0.7876
-0.1567 1.9180 0.7876
-0.1995 1.9141 0.7876
-0.2422 1.9093 0.7877
-0.2848 1.9035 0.7877
-0.3273 1.8968 0.7878
-0.3696 1.8891 0.7878
-0.4118 1.8806 0.7879
-0.4537 1.8711 0.7880
-0.4954 1.8607 0.7881
-0.5369 1.8494 0.7882
-0.5782 1.8371 0.7882
-0.6191 1.8240 0.7883
-0.6598 1.8100 0.7885
-0.7001 1.7950 0.7886
-0.7402 1.7792 0.7887
-0.7799 1.7625 0.7888
-0.8192 1.7450 0.7890
-2.2493 4.5257 2.0684
-2.3498 4.4744 2.0684
-2.4491 4.4208 2.0684
-2.5472 4.3650 2.0684
-2.6441 4.3070 2.0684
-2.7396 4.2469 2.0684
-2.8338 4.1846 2.0684
-2.9266 4.1203 2.0684
-3.0179 4.0539 2.0684
-3.1076 3.9855 2.0684
-3.1959 3.9151 2.0684
-3.2825 3.8427 2.0684
-3.3676 3.7685 2.0684
-3.4509 3.6923 2.0684
-3.5325 3.6143 2.0684
-3.6123 3.5345 2.0684
-3.6904 3.4530 2.0684
-3.7666 3.3697 2.0684
-3.8409 3.2847 2.0684
-3.9133 3.1981 2.0684
-3.9837 3.1099 2.0684
-4.0522 3.0201 2.0684
-4.1186 2.9289 2.0684
-4.1830 2.8362 2.0684
-4.2453 2.7421 2.0684
-4.3055 2.6465 2.0684
-4.3635 2.5497 2.0684
-4.4194 2.4516 2.0684
-4.4731 2.3523 2.0684
-4.5245 2.2518 2.0684
-4.5736 2.1502 2.0684
-4.6205 2.0475 2.0684
-4.6651 1.9438 2.0684
-4.7074 1.8391 2.0684
-4.7472 1.7335 2.0684
-4.7848 1.6271 2.0684
-4.8199 1.5198 2.0684
-4.8527 1.4118 2.0684
-4.8830 1.3030 2.0684
-4.9109 1.1936 2.0684
-4.9363 1.0837 2.0684
-4.9593 0.9732 2.0684
-4.9798 0.8621 2.0684
-4.9978 0.7507 2.0684
-5.0133 0.6389 2.0684
-5.0263 0.5268 2.0684
-5.0369 0.4144 2.0684
-5.0448 0.3018 2.0684
-5.0503 0.1890 2.0684
-5.0533 0.0762 2.0684
-5.0537 -0.0367 2.0684
-5.0517 -0.1496 2.0684
-5.0470 -0.2623 2.0684
-5.0399 -0.3750 2.0684
-5.0303 -0.4875 2.0684
-5.0182 -0.5997 2.0684
-5.0035 -0.7116 2.0684
-4.9864 -0.8232 2.0684
-4.9668 -0.9344 2.0684
-4.9446 -1.0451 2.0684
-4.9200 -1.1553 2.0684
-4.8930 -1.2648 2.0684
-4.8636 -1.3738 2.0684
-4.8317 -1.4821 2.0684
-4.7973 -1.5896 2.0684
-4.7606 -1.6964 2.0684
-4.7216 -1.8023 2.0684
-4.6801 -1.9073 2.0684
-4.6364 -2.0113 2.0684
-4.5903 -2.1144 2.0684
-4.5420 -2.2164 2.0684
-4.4913 -2.3173 2.0684
-4.4384 -2.4170 2.0684
-4.3833 -2.5155 2.0684
-4.3260 -2.6128 2.0684
-4.2666 -2.7088 2.0684
-4.2051 -2.8034 2.0684
-4.1414 -2.8966 2.0684
-4.0757 -2.9884 2.0684
-4.0079 -3.0787 2.0684
-3.9382 -3.1674 2.0684
-3.8664 -3.2546 2.0684
-3.7928 -3.3401 2.0684
-3.7172 -3.4240 2.0684
-3.6398 -3.5062 2.0684
-3.5606 -3.5866 2.0684
-3.4796 -3.6652 2.0684
-3.3969 -3.7420 2.0684
-3.3124 -3.8169 2.0684
-3.2264 -3.8900 2.0684
-3.1387 -3.9611 2.0684
-3.0495 -4.0302 2.0684
-2.9586 -4.0973 2.0684
-2.8664 -4.1623 2.0684
-2.7727 -4.2253 2.0684
-2.6777 -4.2862 2.0684
-2.5813 -4.3449 2.0684
-2.4836 -4.4015 2.0684
-2.3847 -4.4559 2.0684
-2.2846 -4.5080 2.0684
-2.1833 -4.5579 2.0684
-0.8210 -1.8170 0.8160
-0.7803 -1.8351 0.8162
-0.7393 -1.8524 0.8163
-0.6978 -1.8687 0.8164
-0.6560 -1.8841 0.8165
-0.6138 -1.8986 0.8166
-0.5713 -1.9120 0.8167
-0.5286 -1.9245 0.8168
-0.4855 -1.9361 0.8169
-0.4422 -1.9466 0.8170
-0.3986 -1.9562 0.8171
-0.3549 -1.9647 0.8171
-0.3109 -1.9723 0.8172
-0.2668 -1.9789 0.8172
-0.2225 -1.9844 0.8173
-0.1782 -1.9890 0.8173
-0.1337 -1.9925 0.8173
-0.0892 -1.9951 0.8173
-0.0446 -1.9966 0.8174
0.0000 -1.8733 0.8164
0.0418 -1.8728 0.8164
0.0837 -1.8714 0.8164
0.1254 -1.8690 0.8164
0.1671 -1.8657 0.8164
0.2088 -1.8614 0.8163
0.2503 -1.8562 0.8163
0.2916 -1.8500 0.8162
0.3329 -1.8429 0.8162
0.3739 -1.8349 0.8161
0.4148 -1.8259 0.8160
0.4554 -1.8160 0.8160
0.4958 -1.8052 0.8159
0.5359 -1.7935 0.8158
0.5758 -1.7809 0.8157
0.6153 -1.7673 0.8156
0.6546 -1.7529 0.8155
0.6934 -1.7376 0.8154
0.7320 -1.7214 0.8152
0.7701 -1.7044 0.8151
0.8078 -1.6865 0.8150
2.1455 -4.2335 2.0684
2.2395 -4.1845 2.0684
2.3324 -4.1335 2.0684
2.4241 -4.0803 2.0684
2.5147 -4.0252 2.0684
2.6040 -3.9680 2.0684
2.6919 -3.9088 2.0684
2.7786 -3.8477 2.0684
2.8638 -3.7847 2.0684
2.9476 -3.7198 2.0684
3.0299 -3.6531 2.0684
3.1108 -3.5845 2.0684
3.1901 -3.5141 2.0684
3.2677 -3.4420 2.0684
3.3438 -3.3682 2.0684
3.4182 -3.2927 2.0684
3.4909 -3.2155 2.0684
3.5591 -3.1343 2.0669
3.6168 -3.0445 2.0604
3.6839 -2.9629 2.0604
3.7492 -2.8799 2.0604
3.8126 -2.7955 2.0604
3.8892 -2.7202 2.0684
3.9490 -2.6326 2.0684
4.0068 -2.5438 2.0684
4.0627 -2.4537 2.0684
4.1164 -2.3623 2.0684
4.1682 -2.2698 2.0684
4.2178 -2.1761 2.0684
4.2654 -2.0814 2.0684
4.3108 -1.9856 2.0684
4.3541 -1.8888 2.0684
4.3952 -1.7911 2.0684
4.4341 -1.6925 2.0684
4.4708 -1.5930 2.0684
4.5052 -1.4928 2.0684
4.5375 -1.3918 2.0684
4.5674 -1.2901 2.0684
4.5951 -1.1878 2.0684
4.6205 -1.0849 2.0684
4.6436 -0.9814 2.0684
4.6643 -0.8775 2.0684
4.6828 -0.7731 2.0684
4.6988 -0.6683 2.0684
4.7126 -0.5632 2.0684
4.7240 -0.4578 2.0684
4.7331 -0.3521 2.0684
4.7397 -0.2464 2.0684
4.7440 -0.1404 2.0684
4.7460 -0.0344 2.0684
4.7456 0.0716 2.0684
4.7428 0.1775 2.0684
4.7377 0.2834 2.0684
4.7301 0.3892 2.0684
4.7203 0.4947 2.0684
4.7081 0.6000 2.0684
4.6935 0.7050 2.0684
4.6766 0.8097 2.0684
4.6573 0.9139 2.0684
4.6357 1.0177 2.0684
4.6118 1.1210 2.0684
4.5857 1.2237 2.0684
4.5572 1.3258 2.0684
4.5264 1.4273 2.0684
4.4934 1.5280 2.0684
4.4582 1.6280 2.0684
4.4207 1.7271 2.0684
4.3810 1.8254 2.0684
4.3392 1.9228 2.0684
4.2951 2.0193 2.0684
4.2490 2.1147 2.0684
4.2007 2.2091 2.0684
4.1503 2.3023 2.0684
4.0979 2.3945 2.0684
4.0434 2.4854 2.0684
3.9868 2.5751 2.0684
3.9283 2.6635 2.0684
3.8679 2.7505 2.0684
3.8054 2.8362 2.0684
3.7412 2.9205 2.0684
3.6750 3.0033 2.0684
3.6070 3.0847 2.0684
3.5372 3.1645 2.0684
3.4657 3.2427 2.0684
3.3924 3.3193 2.0684
3.3174 3.3942 2.0684
3.2408 3.4674 2.0684
3.1625 3.5389 2.0684
3.0827 3.6087 2.0684
3.0013 3.6767 2.0684
2.9185 3.7428 2.0684
2.8341 3.8070 2.0684
2.7484 3.8694 2.0684
2.6613 3.9298 2.0684
2.5729 3.9883 2.0684
2.4831 4.0446 2.0684
2.3922 4.0991 2.0684
2.3000 4.1516 2.0684
0.8428 1.6047 0.7900
0.8066 1.6229 0.7898
0.7700 1.6402 0.7897
0.7331 1.6568 0.7896
0.6958 1.6725 0.7894
0.6581 1.6873 0.7893
0.6202 1.7014 0.7892
0.5820 1.7146 0.7891
0.5435 1.7270 0.7890
0.5047 1.7385 0.7889
0.4657 1.7492 0.7889
0.4265 1.7590 0.7888
0.3871 1.7679 0.7887
0.3475 1.7760 0.7887
0.3077 1.7832 0.7886
0.2678 1.7895 0.7886
0.2277 1.7949 0.7885
0.1876 1.7995 0.7885
0.1473 1.8032 0.7885
0.1070 1.8060 0.7885
0.0666 1.8079 0.7884
0.0263 1.8089 0.7884
-0.0141 1.8090 0.7884
-0.0546 1.8083 0.7884
-0.0949 1.8067 0.7885
-0.1352 1.8041 0.7885
-0.1755 1.8007 0.7885
-0.2157 1.7964 0.7885
-0.2558 1.7913 0.7886
-0.2957 1.7852 0.7886
-0.3356 1.7783 0.7887
-0.3752 1.7705 0.7887
-0.4147 1.7618 0.7888
-0.4540 1.7523 0.7889
-0.4931 1.7419 0.7890
-0.5319 1.7306 0.7891
-0.5705 1.7185 0.7891
-0.6088 1.7056 0.7892
-0.6468 1.6918 0.7894
-0.6846 1.6771 0.7895
-0.7220 1.6617 0.7896
-0.7590 1.6454 0.7897
-0.7957 1.6283 0.7898
-2.1785 4.2166 2.0684
-2.2721 4.1669 2.0684
-2.3646 4.1151 2.0684
-2.4559 4.0613 2.0684
-2.5460 4.0054 2.0684
-2.6348 3.9475 2.0684
-2.7223 3.8877 2.0684
-2.8085 3.8259 2.0684
-2.8933 3.7622 2.0684
-2.9766 3.6967 2.0684
-3.0583 3.6293 2.0684
-3.1387 3.5601 2.0684
-3.2174 3.4891 2.0684
-3.2945 3.4164 2.0684
-3.3700 3.3419 2.0684
-3.4438 3.2658 2.0684
-3.5159 3.1881 2.0684
-3.5862 3.1087 2.0684
-3.6548 3.0279 2.0684
-3.7214 2.9455 2.0684
-3.7863 2.8617 2.0684
-3.8493 2.7764 2.0684
-3.9103 2.6897 2.0684
-3.9694 2.6017 2.0684
-4.0266 2.5124 2.0684
-4.0817 2.4218 2.0684
-4.1347 2.3301 2.0684
-4.1857 2.2372 2.0684
-4.2346 2.1431 2.0684
-4.2815 2.0480 2.0684
-4.3261 1.9519 2.0684
-4.3687 1.8547 2.0684
-4.4090 1.7567 2.0684
-4.4471 1.6578 2.0684
-4.4830 1.5581 2.0684
-4.5167 1.4576 2.0684
-4.5482 1.3563 2.0684
-4.5773 1.2544 2.0684
-4.6042 1.1518 2.0684
-4.6288 1.0487 2.0684
-4.6510 0.9451 2.0684
-4.6710 0.8410 2.0684
-4.6886 0.7364 2.0684
-4.7038 0.6315 2.0684
-4.7168 0.5263 2.0684
-4.7273 0.4209 2.0684
-4.7356 0.3151 2.0684
-4.7415 0.2093 2.0684
-4.7449 0.1034 2.0684
-4.7461 -0.0026 2.0684
-4.7448 -0.1086 2.0684
-4.7412 -0.2146 2.0684
-4.7352 -0.3204 2.0684
-4.7269 -0.4261 2.0684
-4.7162 -0.5316 2.0684
-4.7032 -0.6368 2.0684
-4.6878 -0.7417 2.0684
-4.6700 -0.8462 2.0684
-4.6499 -0.9503 2.0684
-4.6276 -1.0539 2.0684
-4.6029 -1.1570 2.0684
-4.5759 -1.2595 2.0684
-4.5466 -1.3614 2.0684
-4.5151 -1.4626 2.0684
-4.4813 -1.5631 2.0684
-4.4452 -1.6628 2.0684
-4.4070 -1.7616 2.0684
-4.3666 -1.8596 2.0684
-4.3239 -1.9567 2.0684
-4.2792 -2.0528 2.0684
-4.2322 -2.1478 2.0684
-4.1832 -2.2418 2.0684
-4.1321 -2.3347 2.0684
-4.0789 -2.4264 2.0684
-4.0237 -2.5169 2.0684
-3.9665 -2.6061 2.0684
-3.9073 -2.6941 2.0684
-3.8462 -2.7807 2.0684
-3.7831 -2.8659 2.0684
-3.7182 -2.9497 2.0684
-3.6513 -3.0320 2.0684
-3.5827 -3.1128 2.0684
-3.5123 -3.1920 2.0684
-3.4401 -3.2697 2.0684
-3.3663 -3.3457 2.0684
-3.2907 -3.4200 2.0684
-3.2135 -3.4927 2.0684
-3.1347 -3.5636 2.0684
-3.0543 -3.6327 2.0684
-2.9724 -3.7000 2.0684
-2.8890 -3.7655 2.0684
-2.8042 -3.8291 2.0684
-2.7180 -3.8907 2.0684
-2.6304 -3.9504 2.0684
-2.5415 -4.0082 2.0684
-2.4514 -4.0640 2.0684
-2.3600 -4.1177 2.0684
-2.2674 -4.1694 2.0684
-2.1737 -4.2190 2.0684
-0.8192 -1.6811 0.8150
-0.7815 -1.6992 0.8151
-0.7435 -1.7165 0.8153
-0.7051 -1.7330 0.8154
-0.6663 -1.7485 0.8155
-0.6272 -1.7632 0.8156
-0.5877 -1.7770 0.8157
-0.5480 -1.7899 0.8158
-0.5079 -1.8019 0.8159
-0.4676 -1.8130 0.8160
-0.4270 -1.8231 0.8161
-0.3862 -1.8324 0.8161
-0.3452 -1.8407 0.8162
-0.3040 -1.8481 0.8162
-0.2627 -1.8545 0.8163
-0.2212 -1.8600 0.8163
-0.1796 -1.8645 0.8164
-0.1380 -1.8681 0.8164
-0.0962 -1.8708 0.8164
-0.0544 -1.8725 0.8164
-0.0126 -1.8733 0.8164
0.0293 -1.8731 0.8164
0.0711 -1.8719 0.8164
0.1129 -1.8698 0.8164
0.1546 -1.8668 0.8164
0.1963 -1.8628 0.8163
0.2378 -1.8578 0.8163
0.2792 -1.8520 0.8162
0.3205 -1.8452 0.8162
0.3616 -1.8374 0.8161
0.4025 -1.8287 0.8161
0.4432 -1.8191 0.8160
0.4837 -1.8086 0.8159
0.5239 -1.7971 0.8158
0.5639 -1.7848 0.8157
0.6035 -1.7715 0.8156
0.6428 -1.7573 0.8155
0.6818 -1.7423 0.8154
0.7205 -1.7264 0.8153
0.7587 -1.7096 0.8151
0.7966 -1.6919 0.8150
2.1171 -4.2478 2.0684
2.2114 -4.1994 2.0684
2.3046 -4.1490 2.0684
2.3968 -4.0965 2.0684
2.4877 -4.0419 2.0684
2.5773 -3.9853 2.0684
2.6657 -3.9268 2.0684
2.7527 -3.8663 2.0684
2.8384 -3.8039 2.0684
2.9226 -3.7395 2.0684
3.0054 -3.6733 2.0684
3.0867 -3.6053 2.0684
3.1665 -3.5354 2.0684
3.2447 -3.4638 2.0684
3.3212 -3.3905 2.0684
3.3961 -3.3155 2.0684
3.4693 -3.2388 2.0684
3.5407 -3.1605 2.0684
3.5964 -3.0686 2.0604
3.6640 -2.9875 2.0604
3.7298 -2.9050 2.0604
3.7938 -2.8209 2.0604
3.8558 -2.7355 2.0604
3.9313 -2.6591 2.0684
3.9897 -2.5706 2.0684
4.0461 -2.4808 2.0684
4.1005 -2.3899 2.0684
4.1529 -2.2977 2.0684
4.2032 -2.2043 2.0684
4.2513 -2.1099 2.0684
4.2974 -2.0145 2.0684
4.3414 -1.9180 2.0684
4.3831 -1.8205 2.0684
4.4226 -1.7222 2.0684
4.4600 -1.6230 2.0684
4.4952 -1.5230 2.0684
4.5280 -1.4222 2.0684
4.5587 -1.3207 2.0684
4.5870 -1.2185 2.0684
4.6131 -1.1158 2.0684
4.6369 -1.0125 2.0684
4.6583 -0.9087 2.0684
4.6775 -0.8044 2.0684
4.6943 -0.6997 2.0684
4.7087 -0.5947 2.0684
4.7208 -0.4894 2.0684
4.7306 -0.3838 2.0684
4.7380 -0.2781 2.0684
4.7430 -0.1722 2.0684
4.7457 -0.0662 2.0684
4.7460 0.0398 2.0684
4.7439 0.1457 2.0684
4.7394 0.2517 2.0684
4.7326 0.3575 2.0684
4.7235 0.4631 2.0684
4.7120 0.5684 2.0684
4.6981 0.6735 2.0684
4.6819 0.7783 2.0684
4.6633 0.8827 2.0684
4.6425 0.9866 2.0684
4.6193 1.0900 2.0684
4.5937 1.1929 2.0684
4.5660 1.2953 2.0684
4.5359 1.3969 2.0684
4.5036 1.4979 2.0684
4.4690 1.5981 2.0684
4.4322 1.6975 2.0684
4.3932 1.7960 2.0684
4.3520 1.8937 2.0684
4.3086 1.9904 2.0684
4.2631 2.0862 2.0684
4.2154 2.1809 2.0684
4.1656 2.2745 2.0684
4.1138 2.3669 2.0684
4.0599 2.4582 2.0684
4.0040 2.5483 2.0684
3.9461 2.6371 2.0684
3.8862 2.7246 2.0684
3.8244 2.8107 2.0684
3.7607 2.8954 2.0684
3.6951 2.9787 2.0684
3.6276 3.0604 2.0684
3.5583 3.1407 2.0684
3.4873 3.2194 2.0684
3.4145 3.2965 2.0684
3.3401 3.3718 2.0684
3.2639 3.4456 2.0684
3.1862 3.5176 2.0684
3.1068 3.5880 2.0684
3.0259 3.6564 2.0684
2.9434 3.7231 2.0684
2.8596 3.7879 2.0684
2.7743 3.8509 2.0684
2.6875 3.9119 2.0684
2.5995 3.9709 2.0684
2.5102 4.0279 2.0684
2.4196 4.0830 2.0684
2.3278 4.1361 2.0684
2.2349 4.1870 2.0684
0.8175 1.6175 0.7899
0.7810 1.6351 0.7897
0.7442 1.6519 0.7896
0.7070 1.6678 0.7895
0.6695 1.6830 0.7894
0.6316 1.6973 0.7893
0.5935 1.7107 0.7892
0.5551 1.7234 0.7891
0.5164 1.7351 0.7890
0.4775 1.7460 0.7889
0.4383 1.7561 0.7888
0.3989 1.7653 0.7888
0.3594 1.7736 0.7887
0.3196 1.7811 0.7886
0.2798 1.7877 0.7886
0.2398 1.7934 0.7885
0.1996 1.7982 0.7885
0.1594 1.8022 0.7885
0.1191 1.8052 0.7885
0.0788 1.8074 0.7884
0.0384 1.8087 0.7884
-0.0020 1.8091 0.7884
-0.0424 1.8086 0.7884
-0.0828 1.8072 0.7885
-0.1232 1.8050 0.7885
-0.1634 1.8018 0.7885
-0.2037 1.7978 0.7885
-0.2438 1.7929 0.7886
-0.2838 1.7871 0.7886
-0.3236 1.7804 0.7887
-0.3634 1.7729 0.7887
-0.4029 1.7645 0.7888
-0.4422 1.7552 0.7889
-0.4814 1.7451 0.7889
-0.5203 1.7341 0.7890
-0.5589 1.7222 0.7891
-0.5973 1.7095 0.7892
-0.6355 1.6960 0.7893
-0.6733 1.6816 0.7894
-0.7108 1.6664 0.7895
-0.7479 1.6504 0.7897
-0.7847 1.6335 0.7898
-0.8212 1.6159 0.7899
-2.2441 4.1820 2.0684
-2.3370 4.1308 2.0684
-2.4287 4.0776 2.0684
-2.5191 4.0224 2.0684
-2.6083 3.9651 2.0684
-2.6962 3.9059 2.0684
-2.7828 3.8447 2.0684
-2.8680 3.7816 2.0684
-2.9517 3.7166 2.0684
-3.0340 3.6497 2.0684
-3.1147 3.5810 2.0684
-3.1940 3.5106 2.0684
-3.2715 3.4383 2.0684
-3.3475 3.3644 2.0684
-3.4218 3.2888 2.0684
-3.4944 3.2116 2.0684
-3.5653 3.1327 2.0684
-3.6344 3.0523 2.0684
-3.7016 2.9704 2.0684
-3.7671 2.8870 2.0684
-3.8306 2.8021 2.0684
-3.8922 2.7159 2.0684
-3.9519 2.6283 2.0684
-4.0096 2.5393 2.0684
-4.0654 2.4492 2.0684
-4.1190 2.3577 2.0684
-4.1707 2.2651 2.0684
-4.2202 2.1714 2.0684
-4.2676 2.0766 2.0684
-4.3130 1.9808 2.0684
-4.3561 1.8840 2.0684
-4.3971 1.7862 2.0684
-4.4359 1.6876 2.0684
-4.4725 1.5881 2.0684
-4.5069 1.4878 2.0684
-4.5390 1.3867 2.0684
-4.5688 1.2850 2.0684
-4.5963 1.1827 2.0684
-4.6216 1.0797 2.0684
-4.6446 0.9762 2.0684
-4.6652 0.8723 2.0684
-4.6836 0.7678 2.0684
-4.6995 0.6630 2.0684
-4.7132 0.5579 2.0684
-4.7245 0.4525 2.0684
-4.7334 0.3469 2.0684
-4.7399 0.2411 2.0684
-4.7441 0.1351 2.0684
-4.7460 0.0292 2.0684
-4.7455 -0.0768 2.0684
-4.7426 -0.1828 2.0684
-4.7373 -0.2887 2.0684
-4.7297 -0.3944 2.0684
-4.7197 -0.5000 2.0684
-4.7073 -0.6053 2.0684
-4.6926 -0.7102 2.0684
-4.6756 -0.8149 2.0684
-4.6562 -0.9191 2.0684
-4.6346 -1.0228 2.0684
-4.6105 -1.1261 2.0684
-4.5842 -1.2288 2.0684
-4.5557 -1.3309 2.0684
-4.5248 -1.4323 2.0684
-4.4917 -1.5330 2.0684
-4.4563 -1.6330 2.0684
-4.4187 -1.7321 2.0684
-4.3790 -1.8303 2.0684
-4.3370 -1.9277 2.0684
-4.2928 -2.0240 2.0684
-4.2465 -2.1194 2.0684
-4.1981 -2.2137 2.0684
-4.1477 -2.3069 2.0684
-4.0951 -2.3990 2.0684
-4.0405 -2.4899 2.0684
-3.9839 -2.5795 2.0684
-3.9253 -2.6678 2.0684
-3.8647 -2.7548 2.0684
-3.8022 -2.8405 2.0684
-3.7378 -2.9247 2.0684
-3.6716 -3.0074 2.0684
-3.6035 -3.0887 2.0684
-3.5336 -3.1684 2.0684
-3.4620 -3.2465 2.0684
-3.3886 -3.3231 2.0684
-3.3136 -3.3979 2.0684
-3.2368 -3.4711 2.0684
-3.1585 -3.5425 2.0684
-3.0786 -3.6121 2.0684
-2.9971 -3.6800 2.0684
-2.9142 -3.7460 2.0684
-2.8298 -3.8102 2.0684
-2.7440 -3.8724 2.0684
-2.6568 -3.9327 2.0684
-2.5684 -3.9911 2.0684
-2.4786 -4.0475 2.0684
-2.3876 -4.1018 2.0684
-2.2953 -4.1541 2.0684
-2.2020 -4.2043 2.0684
-0.8304 -1.6755 0.8149
-0.7929 -1.6939 0.8151
-0.7550 -1.7114 0.8152
-0.7167 -1.7281 0.8153
-0.6780 -1.7440 0.8155
-0.6390 -1.7589 0.8156
-0.5996 -1.7730 0.8157
-0.5599 -1.7861 0.8158
-0.5199 -1.7984 0.8159
-0.4797 -1.8098 0.8160
-0.4392 -1.8202 0.8160
-0.3985 -1.8297 0.8161
-0.3575 -1.8383 0.8162
-0.3164 -1.8459 0.8162
-0.2751 -1.8527 0.8163
-0.2337 -1.8584 0.8163
-0.1921 -1.8633 0.8163
-0.1505 -1.8672 0.8164
-0.1087 -1.8701 0.8164
-0.0669 -1.8721 0.8164
-0.0251 -1.8731 0.8164
0.0167 -1.8732 0.8164
0.0586 -1.8724 0.8164
0.1004 -1.8706 0.8164
0.1421 -1.8678 0.8164
0.1838 -1.8641 0.8163
0.2254 -1.8594 0.8163
0.2668 -1.8538 0.8163
0.3081 -1.8473 0.8162
0.3493 -1.8398 0.8161
0.3903 -1.8314 0.8161
0.4310 -1.8221 0.8160
0.4716 -1.8118 0.8159
0.5119 -1.8006 0.8158
0.5519 -1.7886 0.8158
0.5916 -1.7756 0.8157
0.6311 -1.7617 0.8155
0.6702 -1.7469 0.8154
0.7089 -1.7312 0.8153
0.7473 -1.7147 0.8152
0.7853 -1.6973 0.8150
0.8228 -1.6791 0.8149
2.1832 -4.2141 2.0684
2.2768 -4.1643 2.0684
2.3693 -4.1124 2.0684
2.4605 -4.0585 2.0684
2.5506 -4.0025 2.0684
2.6393 -3.9446 2.0684
2.7267 -3.8846 2.0684
2.8128 -3.8228 2.0684
2.8975 -3.7590 2.0684
2.9807 -3.6934 2.0684
3.0625 -3.6259 2.0684
3.1427 -3.5566 2.0684
3.2213 -3.4855 2.0684
3.2984 -3.4127 2.0684
3.3738 -3.3382 2.0684
3.4475 -3.2619 2.0684
3.5195 -3.1841 2.0684
3.5757 -3.0927 2.0604
3.6439 -3.0120 2.0604
3.7103 -2.9299 2.0604
3.7748 -2.8463 2.0604
3.8374 -2.7613 2.0604
3.9134 -2.6853 2.0684
3.9724 -2.5973 2.0684
4.0294 -2.5079 2.0684
4.0844 -2.4173 2.0684
4.1374 -2.3254 2.0684
4.1883 -2.2325 2.0684
4.2371 -2.1384 2.0684
4.2838 -2.0432 2.0684
4.3284 -1.9470 2.0684
4.3708 -1.8498 2.0684
4.4110 -1.7518 2.0684
4.4490 -1.6528 2.0684
4.4848 -1.5530 2.0684
4.5184 -1.4525 2.0684
4.5497 -1.3512 2.0684
4.5787 -1.2493 2.0684
4.6055 -1.1467 2.0684
4.6300 -1.0435 2.0684
4.6522 -0.9399 2.0684
4.6720 -0.8357 2.0684
4.6895 -0.7312 2.0684
4.7046 -0.6263 2.0684
4.7174 -0.5210 2.0684
4.7279 -0.4156 2.0684
4.7360 -0.3098 2.0684
4.7417 -0.2040 2.0684
4.7451 -0.0980 2.0684
4.7461 0.0080 2.0684
4.7448 0.1140 2.0684
4.7410 0.2199 2.0684
4.7350 0.3257 2.0684
4.7265 0.4314 2.0684
4.7157 0.5368 2.0684
4.7025 0.6421 2.0684
4.6870 0.7469 2.0684
4.6692 0.8514 2.0684
4.6489 0.9555 2.0684
4.6265 1.0591 2.0684
4.6016 1.1621 2.0684
4.5745 1.2646 2.0684
4.5452 1.3665 2.0684
4.5135 1.4676 2.0684
4.4796 1.5681 2.0684
4.4435 1.6677 2.0684
4.4051 1.7666 2.0684
4.3645 1.8645 2.0684
4.3218 1.9615 2.0684
4.2769 2.0576 2.0684
4.2299 2.1526 2.0684
4.1808 2.2465 2.0684
4.1296 2.3393 2.0684
4.0763 2.4310 2.0684
4.0210 2.5214 2.0684
3.9637 2.6106 2.0684
3.9044 2.6985 2.0684
3.8431 2.7850 2.0684
3.7800 2.8701 2.0684
3.7149 2.9538 2.0684
3.6480 3.0361 2.0684
3.5793 3.1168 2.0684
3.5088 3.1959 2.0684
3.4365 3.2735 2.0684
3.3626 3.3495 2.0684
3.2869 3.4237 2.0684
3.2097 3.4963 2.0684
3.1308 3.5670 2.0684
3.0503 3.6361 2.0684
2.9683 3.7033 2.0684
2.8849 3.7687 2.0684
2.8000 3.8322 2.0684
2.7137 3.8938 2.0684
2.6261 3.9534 2.0684
2.5371 4.0110 2.0684
2.4469 4.0667 2.0684
2.3555 4.1204 2.0684
2.2628 4.1719 2.0684
0.8283 1.6121 0.7899
0.7920 1.6299 0.7898
0.7553 1.6469 0.7896
0.7182 1.6631 0.7895
0.6808 1.6785 0.7894
0.6430 1.6931 0.7893
0.6050 1.7068 0.7892
0.5666 1.7197 0.7891
0.5280 1.7317 0.7890
0.4892 1.7429 0.7889
0.4501 1.7532 0.7888
0.4108 1.7626 0.7888
0.3713 1.7712 0.7887
0.3316 1.7790 0.7886
0.2918 1.7858 0.7886
0.2518 1.7918 0.7886
0.2117 1.7969 0.7885
0.1715 1.8011 0.7885
0.1312 1.8044 0.7885
0.0909 1.8068 0.7884
0.0505 1.8084 0.7884
0.0101 1.8091 0.7884
-0.0303 1.8089 0.7884
-0.0707 1.8077 0.7884
-0.1111 1.8058 0.7885
-0.1514 1.8029 0.7885
-0.1916 1.7991 0.7885
-0.2318 1.7945 0.7886
-0.2718 1.7889 0.7886
-0.3117 1.7825 0.7886
-0.3515 1.7753 0.7887
-0.3910 1.7671 0.7888
-0.4304 1.7581 0.7888
-0.4696 1.7482 0.7889
-0.5086 1.7375 0.7890
-0.5474 1.7259 0.7891
-0.5859 1.7134 0.7892
-0.6241 1.7001 0.7893
-0.6620 1.6860 0.7894
-0.6996 1.6711 0.7895
-0.7368 1.6553 0.7896
-0.7737 1.6387 0.7898
-0.8103 1.6212 0.7899
-2.2160 4.1970 2.0684
-2.3092 4.1464 2.0684
-2.4013 4.0938 2.0684
-2.4921 4.0392 2.0684
-2.5817 3.9825 2.0684
-2.6700 3.9238 2.0684
-2.7570 3.8632 2.0684
-2.8426 3.8007 2.0684
-2.9268 3.7362 2.0684
-3.0094 3.6699 2.0684
-3.0907 3.6018 2.0684
-3.1703 3.5319 2.0684
-3.2484 3.4602 2.0684
-3.3249 3.3868 2.0684
-3.3997 3.3117 2.0684
-3.4728 3.2349 2.0684
-3.5442 3.1565 2.0684
-3.6138 3.0766 2.0684
-3.6817 2.9951 2.0684
-3.7477 2.9121 2.0684
-3.8117 2.8277 2.0684
-3.8739 2.7419 2.0684
-3.9342 2.6547 2.0684
-3.9925 2.5661 2.0684
-4.0488 2.4763 2.0684
-4.1031 2.3853 2.0684
-4.1554 2.2930 2.0684
-4.2056 2.1997 2.0684
-4.2537 2.1052 2.0684
-4.2996 2.0097 2.0684
-4.3434 1.9131 2.0684
-4.3850 1.8157 2.0684
-4.4245 1.7173 2.0684
-4.4618 1.6180 2.0684
-4.4968 1.5180 2.0684
-4.5296 1.4171 2.0684
-4.5601 1.3156 2.0684
-4.5883 1.2135 2.0684
-4.6143 1.1107 2.0684
-4.6379 1.0073 2.0684
-4.6593 0.9035 2.0684
-4.6783 0.7992 2.0684
-4.6950 0.6945 2.0684
-4.7093 0.5895 2.0684
-4.7213 0.4841 2.0684
-4.7309 0.3786 2.0684
-4.7382 0.2728 2.0684
-4.7431 0.1669 2.0684
-4.7457 0.0610 2.0684
-4.7459 -0.0450 2.0684
-4.7437 -0.1510 2.0684
-4.7391 -0.2569 2.0684
-4.7322 -0.3627 2.0684
-4.7229 -0.4683 2.0684
-4.7113 -0.5737 2.0684
-4.6973 -0.6788 2.0684
-4.6809 -0.7835 2.0684
-4.6623 -0.8879 2.0684
-4.6413 -0.9918 2.0684
-4.6180 -1.0952 2.0684
-4.5924 -1.1981 2.0684
-4.5645 -1.3003 2.0684
-4.5343 -1.4019 2.0684
-4.5018 -1.5029 2.0684
-4.4672 -1.6030 2.0684
-4.4302 -1.7024 2.0684
-4.3911 -1.8009 2.0684
-4.3498 -1.8986 2.0684
-4.3063 -1.9952 2.0684
-4.2607 -2.0909 2.0684
-4.2129 -2.1855 2.0684
-4.1630 -2.2791 2.0684
-4.1111 -2.3715 2.0684
-4.0571 -2.4627 2.0684
-4.0011 -2.5527 2.0684
-3.9431 -2.6415 2.0684
-3.8831 -2.7289 2.0684
-3.8212 -2.8149 2.0684
-3.7573 -2.8996 2.0684
-3.6916 -2.9828 2.0684
-3.6241 -3.0645 2.0684
-3.5548 -3.1447 2.0684
-3.4837 -3.2233 2.0684
-3.4108 -3.3003 2.0684
-3.3362 -3.3756 2.0684
-3.2600 -3.4493 2.0684
-3.1822 -3.5212 2.0684
-3.1027 -3.5914 2.0684
-3.0217 -3.6598 2.0684
-2.9392 -3.7264 2.0684
-2.8553 -3.7911 2.0684
-2.7699 -3.8539 2.0684
-2.6831 -3.9149 2.0684
-2.5950 -3.9738 2.0684
-2.5056 -4.0308 2.0684
-2.4150 -4.0857 2.0684
-2.3231 -4.1386 2.0684
-2.2301 -4.1895 2.0684
-0.8415 -1.6698 0.8149
-0.8042 -1.6884 0.8150
-0.7664 -1.7063 0.8152
-0.7282 -1.7232 0.8153
-0.6896 -1.7393 0.8154
-0.6507 -1.7545 0.8155
-0.6114 -1.7689 0.8156
-0.5718 -1.7823 0.8157
-0.5320 -1.7948 0.8158
-0.4918 -1.8064 0.8159
-0.4514 -1.8172 0.8160
-0.4107 -1.8269 0.8161
-0.3698 -1.8358 0.8161
-0.3288 -1.8437 0.8162
-0.2875 -1.8507 0.8163
-0.2461 -1.8568 0.8163
-0.2046 -1.8619 0.8163
-0.1630 -1.8661 0.8164
-0.1213 -1.8693 0.8164
-0.0795 -1.8716 0.8164
-0.0376 -1.8729 0.8164
0.0042 -1.8733 0.8164
0.0460 -1.8727 0.8164
0.0878 -1.8712 0.8164
0.1296 -1.8687 0.8164
0.1713 -1.8653 0.8163
0.2129 -1.8609 0.8163
0.2544 -1.8556 0.8163
0.2958 -1.8494 0.8162
0.3370 -1.8422 0.8162
0.3780 -1.8340 0.8161
0.4188 -1.8250 0.8160
0.4595 -1.8150 0.8160
0.4998 -1.8041 0.8159
0.5399 -1.7923 0.8158
0.5798 -1.7796 0.8157
0.6193 -1.7659 0.8156
0.6585 -1.7514 0.8155
0.6973 -1.7360 0.8153
0.7358 -1.7198 0.8152
0.7739 -1.7026 0.8151
0.8116 -1.6846 0.8150
2.1550 -4.2287 2.0684
2.2489 -4.1795 2.0684
2.3416 -4.1282 2.0684
2.4333 -4.0749 2.0684
2.5237 -4.0195 2.0684
2.6128 -3.9622 2.0684
2.7007 -3.9028 2.0684
2.7871 -3.8415 2.0684
2.8723 -3.7783 2.0684
2.9559 -3.7133 2.0684
3.0381 -3.6463 2.0684
3.1188 -3.5775 2.0684
3.1979 -3.5070 2.0684
3.2754 -3.4347 2.0684
3.3513 -3.3607 2.0684
3.4256 -3.2851 2.0684
3.4981 -3.2076 2.0684
3.5595 -3.1205 2.0630
3.6236 -3.0364 2.0604
3.6906 -2.9547 2.0604
3.7556 -2.8715 2.0604
3.8188 -2.7869 2.0604
3.8953 -2.7115 2.0684
3.9549 -2.6238 2.0684
4.0125 -2.5348 2.0684
4.0681 -2.4446 2.0684
4.1217 -2.3531 2.0684
4.1732 -2.2605 2.0684
4.2227 -2.1667 2.0684
4.2700 -2.0718 2.0684
4.3152 -1.9760 2.0684
4.3583 -1.8791 2.0684
4.3991 -1.7813 2.0684
4.4378 -1.6826 2.0684
4.4743 -1.5831 2.0684
4.5086 -1.4827 2.0684
4.5406 -1.3817 2.0684
4.5703 -1.2799 2.0684
4.5977 -1.1775 2.0684
4.6229 -1.0745 2.0684
4.6457 -0.9710 2.0684
4.6663 -0.8670 2.0684
4.6845 -0.7626 2.0684
4.7003 -0.6578 2.0684
4.7139 -0.5526 2.0684
4.7250 -0.4472 2.0684
4.7338 -0.3416 2.0684
4.7403 -0.2358 2.0684
4.7443 -0.1298 2.0684
4.7461 -0.0238 2.0684
4.7454 0.0822 2.0684
4.7424 0.1881 2.0684
4.7370 0.2940 2.0684
4.7293 0.3997 2.0684
4.7192 0.5053 2.0684
4.7067 0.6105 2.0684
4.6919 0.7155 2.0684
4.6747 0.8201 2.0684
4.6553 0.9243 2.0684
4.6335 1.0280 2.0684
4.6093 1.1313 2.0684
4.5829 1.2339 2.0684
4.5542 1.3360 2.0684
4.5232 1.4374 2.0684
4.4900 1.5380 2.0684
4.4545 1.6379 2.0684
4.4168 1.7370 2.0684
4.3770 1.8352 2.0684
4.3349 1.9325 2.0684
4.2906 2.0289 2.0684
4.2442 2.1242 2.0684
4.1957 2.2184 2.0684
4.1452 2.3116 2.0684
4.0925 2.4036 2.0684
4.0378 2.4944 2.0684
3.9811 2.5840 2.0684
3.9224 2.6722 2.0684
3.8617 2.7592 2.0684
3.7991 2.8447 2.0684
3.7346 2.9289 2.0684
3.6683 3.0115 2.0684
3.6001 3.0927 2.0684
3.5301 3.1724 2.0684
3.4584 3.2504 2.0684
3.3850 3.3268 2.0684
3.3098 3.4016 2.0684
3.2330 3.4746 2.0684
3.1546 3.5459 2.0684
3.0746 3.6155 2.0684
2.9931 3.6834 2.0684
2.9101 3.7493 2.0684
2.8256 3.8133 2.0684
2.7397 3.8755 2.0684
2.6525 3.9357 2.0684
2.5639 3.9940 2.0684
2.4741 4.0502 2.0684
2.3830 4.1045 2.0684
2.2908 4.1567 2.0684
0.8392 1.6066 0.7899
0.8029 1.6247 0.7898
0.7663 1.6419 0.7897
0.7293 1.6584 0.7895
0.6920 1.6740 0.7894
0.6544 1.6888 0.7893
0.6164 1.7028 0.7892
0.5782 1.7159 0.7891
0.5396 1.7282 0.7890
0.5008 1.7396 0.7889
0.4618 1.7502 0.7889
0.4226 1.7599 0.7888
0.3831 1.7687 0.7887
0.3435 1.7767 0.7887
0.3037 1.7838 0.7886
0.2638 1.7901 0.7886
0.2237 1.7954 0.7885
0.1836 1.7999 0.7885
0.1433 1.8035 0.7885
0.1030 1.8062 0.7885
0.0626 1.8080 0.7884
0.0222 1.8090 0.7884
-0.0182 1.8090 0.7884
-0.0586 1.8082 0.7884
-0.0989 1.8064 0.7885
-0.1393 1.8038 0.7885
-0.1795 1.8003 0.7885
-0.2197 1.7960 0.7885
-0.2598 1.7907 0.7886
-0.2997 1.7846 0.7886
-0.3395 1.7775 0.7887
-0.3792 1.7697 0.7887
-0.4186 1.7609 0.7888
-0.4579 1.7513 0.7889
-0.4970 1.7408 0.7890
-0.5358 1.7294 0.7891
-0.5743 1.7173 0.7892
-0.6126 1.7042 0.7893
-0.6506 1.6903 0.7894
-0.6883 1.6756 0.7895
-0.7257 1.6601 0.7896
-0.7627 1.6437 0.7897
-0.7994 1.6266 0.7899
-2.1879 4.2117 2.0684
-2.2814 4.1618 2.0684
-2.3738 4.1098 2.0684
-2.4650 4.0558 2.0684
-2.5550 3.9997 2.0684
-2.6437 3.9416 2.0684
-2.7310 3.8816 2.0684
-2.8170 3.8196 2.0684
-2.9016 3.7558 2.0684
-2.9848 3.6900 2.0684
-3.0665 3.6224 2.0684
-3.1466 3.5530 2.0684
-3.2252 3.4819 2.0684
-3.3022 3.4090 2.0684
-3.3774 3.3344 2.0684
-3.4511 3.2581 2.0684
-3.5230 3.1802 2.0684
-3.5931 3.1007 2.0684
-3.6615 3.0197 2.0684
-3.7280 2.9372 2.0684
-3.7927 2.8532 2.0684
-3.8555 2.7678 2.0684
-3.9163 2.6810 2.0684
-3.9752 2.5928 2.0684
-4.0322 2.5034 2.0684
-4.0871 2.4127 2.0684
-4.1399 2.3208 2.0684
-4.1907 2.2278 2.0684
-4.2394 2.1336 2.0684
-4.2860 2.0384 2.0684
-4.3305 1.9422 2.0684
-4.3728 1.8450 2.0684
-4.4129 1.7469 2.0684
-4.4508 1.6479 2.0684
-4.4865 1.5481 2.0684
-4.5199 1.4475 2.0684
-4.5512 1.3462 2.0684
-4.5801 1.2442 2.0684
-4.6067 1.1416 2.0684
-4.6311 1.0384 2.0684
-4.6531 0.9347 2.0684
-4.6728 0.8305 2.0684
-4.6902 0.7259 2.0684
-4.7053 0.6210 2.0684
-4.7180 0.5158 2.0684
-4.7283 0.4103 2.0684
-4.7363 0.3046 2.0684
-4.7419 0.1987 2.0684
-4.7452 0.0928 2.0684
-4.7460 -0.0132 2.0684
-4.7446 -0.1193 2.0684
-4.7407 -0.2252 2.0684
-4.7345 -0.3310 2.0684
-4.7260 -0.4367 2.0684
-4.7150 -0.5421 2.0684
-4.7017 -0.6473 2.0684
-4.6861 -0.7521 2.0684
-4.6681 -0.8566 2.0684
-4.6478 -0.9607 2.0684
-4.6252 -1.0642 2.0684
-4.6003 -1.1673 2.0684
-4.5731 -1.2697 2.0684
-4.5436 -1.3715 2.0684
-4.5118 -1.4727 2.0684
-4.4778 -1.5731 2.0684
-4.4415 -1.6727 2.0684
-4.4031 -1.7715 2.0684
-4.3624 -1.8694 2.0684
-4.3196 -1.9663 2.0684
-4.2746 -2.0623 2.0684
-4.2274 -2.1573 2.0684
-4.1782 -2.2512 2.0684
-4.1269 -2.3439 2.0684
-4.0735 -2.4355 2.0684
-4.0181 -2.5259 2.0684
-3.9607 -2.6150 2.0684
-3.9013 -2.7028 2.0684
-3.8399 -2.7893 2.0684
-3.7767 -2.8743 2.0684
-3.7115 -2.9580 2.0684
-3.6446 -3.0401 2.0684
-3.5758 -3.1208 2.0684
-3.5052 -3.1998 2.0684
-3.4328 -3.2773 2.0684
-3.3588 -3.3532 2.0684
-3.2831 -3.4274 2.0684
-3.2057 -3.4999 2.0684
-3.1267 -3.5706 2.0684
-3.0462 -3.6395 2.0684
-2.9641 -3.7066 2.0684
-2.8806 -3.7719 2.0684
-2.7957 -3.8353 2.0684
-2.7093 -3.8968 2.0684
-2.6216 -3.9563 2.0684
-2.5326 -4.0139 2.0684
-2.4423 -4.0695 2.0684
-2.3508 -4.1230 2.0684
-2.2581 -4.1745 2.0684
-2.1643 -4.2238 2.0684
-0.8154 -1.6829 0.8150
-0.7778 -1.7010 0.8151
-0.7397 -1.7182 0.8153
-0.7012 -1.7346 0.8154
-0.6624 -1.7500 0.8155
-0.6232 -1.7646 0.8156
-0.5837 -1.7783 0.8157
-0.5440 -1.7911 0.8158
-0.5039 -1.8030 0.8159
-0.4635 -1.8140 0.8160
-0.4229 -1.8241 0.8161
-0.3821 -1.8332 0.8161
-0.3411 -1.8415 0.8162
-0.2999 -1.8487 0.8162
-0.2586 -1.8551 0.8163
-0.2171 -1.8605 0.8163
-0.1755 -1.8649 0.8164
-0.1338 -1.8684 0.8164
-0.0920 -1.8710 0.8164
-0.0502 -1.8726 0.8164
-0.0084 -1.8733 0.8164
0.0335 -1.8730 0.8164
0.0753 -1.8718 0.8164
0.1171 -1.8696 0.8164
0.1588 -1.8664 0.8164
0.2004 -1.8623 0.8163
0.2420 -1.8573 0.8163
0.2834 -1.8513 0.8162
0.3246 -1.8444 0.8162
0.3657 -1.8366 0.8161
0.4066 -1.8278 0.8161
0.4473 -1.8181 0.8160
0.4877 -1.8075 0.8159
0.5279 -1.7959 0.8158
0.5678 -1.7835 0.8157
0.6074 -1.7701 0.8156
0.6468 -1.7559 0.8155
0.6857 -1.7407 0.8154
0.7243 -1.7247 0.8153
0.7625 -1.7078 0.8151
0.8003 -1.6901 0.8150
2.1266 -4.2430 2.0684
2.2208 -4.1945 2.0684
2.3139 -4.1438 2.0684
2.4059 -4.0911 2.0684
2.4967 -4.0363 2.0684
2.5862 -3.9796 2.0684
2.6745 -3.9209 2.0684
2.7614 -3.8601 2.0684
2.8469 -3.7975 2.0684
2.9310 -3.7330 2.0684
3.0136 -3.6666 2.0684
3.0948 -3.5984 2.0684
3.1744 -3.5283 2.0684
3.2523 -3.4566 2.0684
3.3288 -3.3831 2.0684
3.4035 -3.3079 2.0684
3.4765 -3.2310 2.0684
3.5478 -3.1526 2.0684
3.6032 -3.0606 2.0604
3.6707 -2.9794 2.0604
3.7363 -2.8966 2.0604
3.8001 -2.8125 2.0604
3.8619 -2.7269 2.0604
3.9372 -2.6503 2.0684
3.9954 -2.5617 2.0684
4.0517 -2.4718 2.0684
4.1058 -2.3807 2.0684
4.1580 -2.2884 2.0684
4.2080 -2.1950 2.0684
4.2560 -2.1004 2.0684
4.3019 -2.0048 2.0684
4.3456 -1.9083 2.0684
4.3871 -1.8107 2.0684
4.4265 -1.7123 2.0684
4.4636 -1.6130 2.0684
4.4985 -1.5129 2.0684
4.5312 -1.4120 2.0684
4.5616 -1.3105 2.0684
4.5897 -1.2083 2.0684
4.6156 -1.1055 2.0684
4.6391 -1.0021 2.0684
4.6603 -0.8983 2.0684
4.6792 -0.7940 2.0684
4.6958 -0.6892 2.0684
4.7101 -0.5842 2.0684
4.7219 -0.4789 2.0684
4.7314 -0.3733 2.0684
4.7386 -0.2675 2.0684
4.7434 -0.1616 2.0684
4.7458 -0.0557 2.0684
4.7459 0.0504 2.0684
4.7436 0.1564 2.0684
4.7389 0.2623 2.0684
4.7319 0.3680 2.0684
4.7224 0.4736 2.0684
4.7107 0.5790 2.0684
4.6966 0.6840 2.0684
4.6801 0.7888 2.0684
4.6614 0.8931 2.0684
4.6402 0.9970 2.0684
4.6168 1.1004 2.0684
4.5911 1.2032 2.0684
4.5631 1.3054 2.0684
4.5328 1.4070 2.0684
4.5002 1.5079 2.0684
4.4654 1.6080 2.0684
4.4284 1.7074 2.0684
4.3892 1.8059 2.0684
4.3477 1.9034 2.0684
4.3041 2.0001 2.0684
4.2584 2.0957 2.0684
4.2105 2.1903 2.0684
4.1606 2.2838 2.0684
4.1085 2.3761 2.0684
4.0544 2.4673 2.0684
3.9983 2.5572 2.0684
3.9402 2.6459 2.0684
3.8801 2.7332 2.0684
3.8181 2.8192 2.0684
3.7542 2.9038 2.0684
3.6884 2.9869 2.0684
3.6208 3.0685 2.0684
3.5513 3.1486 2.0684
3.4801 3.2271 2.0684
3.4072 3.3041 2.0684
3.3325 3.3794 2.0684
3.2562 3.4529 2.0684
3.1783 3.5249 2.0684
3.0988 3.5948 2.0684
3.0177 3.6632 2.0684
2.9351 3.7297 2.0684
2.8511 3.7943 2.0684
2.7656 3.8570 2.0684
2.6788 3.9179 2.0684
2.5907 3.9767 2.0684
2.5012 4.0336 2.0684
2.4105 4.0884 2.0684
2.3186 4.1412 2.0684
2.2255 4.1920 2.0684
0.8138 1.6193 0.7898
0.7773 1.6368 0.7897
0.7405 1.6535 0.7896
0.7033 1.6694 0.7895
0.6657 1.6844 0.7894
0.6278 1.6987 0.7892
0.5897 1.7120 0.7891
0.5512 1.7246 0.7891
0.5125 1.7363 0.7890
0.4735 1.7471 0.7889
0.4344 1.7571 0.7888
0.3950 1.7662 0.7887
0.3554 1.7744 0.7887
0.3157 1.7818 0.7886
0.2758 1.7883 0.7886
0.2357 1.7939 0.7885
0.1956 1.7987 0.7885
0.1554 1.8025 0.7885
0.1151 1.8055 0.7885
0.0747 1.8076 0.7884
0.0343 1.8088 0.7884
-0.0061 1.8091 0.7884
-0.0465 1.8085 0.7884
-0.0869 1.8071 0.7885
-0.1272 1.8047 0.7885
-0.1675 1.8015 0.7885
-0.2077 1.7974 0.7885
-0.2478 1.7924 0.7886
-0.2878 1.7865 0.7886
-0.3276 1.7797 0.7887
-0.3673 1.7721 0.7887
-0.4068 1.7636 0.7888
-0.4462 1.7543 0.7889
-0.4853 1.7440 0.7889
-0.5242 1.7329 0.7890
-0.5628 1.7210 0.7891
-0.6012 1.7082 0.7892
-0.6393 1.6946 0.7893
-0.6770 1.6801 0.7894
-0.7145 1.6648 0.7896
-0.7516 1.6487 0.7897
-0.7884 1.6318 0.7898
-0.8248 1.6141 0.7900
-2.2535 4.1770 2.0684
-2.3462 4.1256 2.0684
-2.4378 4.0722 2.0684
-2.5281 4.0167 2.0684
-2.6172 3.9593 2.0684
-2.7050 3.8998 2.0684
-2.7914 3.8384 2.0684
-2.8764 3.7751 2.0684
-2.9600 3.7100 2.0684
-3.0421 3.6429 2.0684
-3.1227 3.5740 2.0684
-3.2018 3.5034 2.0684
-3.2792 3.4310 2.0684
-3.3550 3.3569 2.0684
-3.4292 3.2812 2.0684
-3.5016 3.2038 2.0684
-3.5723 3.1248 2.0684
-3.6412 3.0442 2.0684
-3.7082 2.9621 2.0684
-3.7735 2.8785 2.0684
-3.8369 2.7935 2.0684
-3.8983 2.7072 2.0684
-3.9578 2.6194 2.0684
-4.0153 2.5304 2.0684
-4.0708 2.4401 2.0684
-4.1243 2.3485 2.0684
-4.1757 2.2558 2.0684
-4.2251 2.1620 2.0684
-4.2723 2.0671 2.0684
-4.3174 1.9712 2.0684
-4.3603 1.8742 2.0684
-4.4011 1.7764 2.0684
-4.4397 1.6777 2.0684
-4.4760 1.5781 2.0684
-4.5102 1.4777 2.0684
-4.5420 1.3766 2.0684
-4.5716 1.2748 2.0684
-4.5990 1.1724 2.0684
-4.6240 1.0694 2.0684
-4.6468 0.9658 2.0684
-4.6672 0.8618 2.0684
-4.6852 0.7574 2.0684
-4.7010 0.6525 2.0684
-4.7144 0.5474 2.0684
-4.7254 0.4420 2.0684
-4.7341 0.3363 2.0684
-4.7405 0.2305 2.0684
-4.7444 0.1245 2.0684
-4.7460 0.0186 2.0684
-4.7453 -0.0875 2.0684
-4.7421 -0.1934 2.0684
-4.7366 -0.2993 2.0684
-4.7288 -0.4050 2.0684
-4.7185 -0.5105 2.0684
-4.7059 -0.6158 2.0684
-4.6910 -0.7207 2.0684
-4.6738 -0.8253 2.0684
-4.6542 -0.9295 2.0684
-4.6322 -1.0332 2.0684
-4.6080 -1.1364 2.0684
-4.5815 -1.2390 2.0684
-4.5527 -1.3411 2.0684
-4.5216 -1.4424 2.0684
-4.4882 -1.5430 2.0684
-4.4527 -1.6429 2.0684
-4.4149 -1.7419 2.0684
-4.3748 -1.8401 2.0684
-4.3327 -1.9373 2.0684
-4.2883 -2.0336 2.0684
-4.2418 -2.1289 2.0684
-4.1932 -2.2231 2.0684
-4.1425 -2.3162 2.0684
-4.0897 -2.4081 2.0684
-4.0349 -2.4989 2.0684
-3.9781 -2.5884 2.0684
-3.9193 -2.6766 2.0684
-3.8586 -2.7635 2.0684
-3.7959 -2.8489 2.0684
-3.7313 -2.9330 2.0684
-3.6649 -3.0156 2.0684
-3.5966 -3.0967 2.0684
-3.5265 -3.1763 2.0684
-3.4547 -3.2542 2.0684
-3.3812 -3.3306 2.0684
-3.3060 -3.4053 2.0684
-3.2290 -3.4783 2.0684
-3.1506 -3.5495 2.0684
-3.0705 -3.6190 2.0684
-2.9889 -3.6867 2.0684
-2.9058 -3.7525 2.0684
-2.8213 -3.8165 2.0684
-2.7353 -3.8785 2.0684
-2.6480 -3.9387 2.0684
-2.5594 -3.9968 2.0684
-2.4695 -4.0530 2.0684
-2.3784 -4.1071 2.0684
-2.2860 -4.1593 2.0684
-2.1926 -4.2093 2.0684
-0.8266 -1.6773 0.8150
-0.7891 -1.6957 0.8151
-0.7511 -1.7131 0.8152
-0.7128 -1.7298 0.8154
-0.6741 -1.7455 0.8155
-0.6350 -1.7604 0.8156
-0.5956 -1.7743 0.8157
-0.5559 -1.7874 0.8158
-0.5159 -1.7996 0.8159
-0.4756 -1.8108 0.8160
-0.4351 -1.8212 0.8160
-0.3944 -1.8306 0.8161
-0.3534 -1.8391 0.8162
-0.3123 -1.8467 0.8162
-0.2710 -1.8533 0.8163
-0.2295 -1.8590 0.8163
-0.1880 -1.8637 0.8164
-0.1463 -1.8675 0.8164
-0.1045 -1.8703 0.8164
-0.0628 -1.8722 0.8164
-0.0209 -1.8732 0.8164
0.0209 -1.8732 0.8164
0.0628 -1.8722 0.8164
0.1046 -1.8703 0.8164
0.1463 -1.8675 0.8164
0.1880 -1.8637 0.8163
0.2295 -1.8589 0.8163
0.2710 -1.8532 0.8163
0.3123 -1.8466 0.8162
0.3534 -1.8390 0.8161
0.3944 -1.8305 0.8161
0.4351 -1.8211 0.8160
0.4756 -1.8107 0.8159
0.5159 -1.7995 0.8158
0.5559 -1.7873 0.8157
0.5956 -1.7742 0.8156
0.6350 -1.7602 0.8155
0.6741 -1.7454 0.8154
0.7128 -1.7296 0.8153
0.7511 -1.7130 0.8152
0.7890 -1.6955 0.8150
0.8266 -1.6772 0.8149
2.1927 -4.2093 2.0684
2.2861 -4.1592 2.0684
2.3784 -4.1071 2.0684
2.4696 -4.0530 2.0684
2.5595 -3.9968 2.0684
2.6481 -3.9387 2.0684
2.7354 -3.8785 2.0684
2.8214 -3.8165 2.0684
2.9059 -3.7525 2.0684
2.9890 -3.6867 2.0684
3.0706 -3.6190 2.0684
3.1506 -3.5495 2.0684
3.2291 -3.4783 2.0684
3.3060 -3.4053 2.0684
3.3812 -3.3306 2.0684
3.4548 -3.2543 2.0684
3.5266 -3.1763 2.0684
3.5826 -3.0847 2.0604
3.6506 -3.0039 2.0604
3.7168 -2.9216 2.0604
3.7811 -2.8379 2.0604
3.8436 -2.7527 2.0604
3.9194 -2.6766 2.0684
3.9782 -2.5884 2.0684
4.0350 -2.4989 2.0684
4.0898 -2.4081 2.0684
4.1426 -2.3162 2.0684
4.1933 -2.2231 2.0684
4.2419 -2.1289 2.0684
4.2884 -2.0336 2.0684
4.3327 -1.9373 2.0684
4.3749 -1.8401 2.0684
4.4149 -1.7419 2.0684
4.4527 -1.6429 2.0684
4.4883 -1.5430 2.0684
4.5217 -1.4424 2.0684
4.5527 -1.3411 2.0684
4.5815 -1.2390 2.0684
4.6081 -1.1364 2.0684
4.6323 -1.0332 2.0684
4.6542 -0.9295 2.0684
4.6738 -0.8253 2.0684
4.6911 -0.7207 2.0684
4.7060 -0.6158 2.0684
4.7186 -0.5105 2.0684
4.7288 -0.4050 2.0684
4.7367 -0.2993 2.0684
4.7422 -0.1934 2.0684
4.7453 -0.0874 2.0684
4.7461 0.0186 2.0684
4.7445 0.1246 2.0684
4.7405 0.2305 2.0684
4.7342 0.3363 2.0684
4.7255 0.4420 2.0684
4.7145 0.5474 2.0684
4.7010 0.6526 2.0684
4.6853 0.7574 2.0684
4.6672 0.8618 2.0684
4.6468 0.9659 2.0684
4.6241 1.0694 2.0684
4.5990 1.1724 2.0684
4.5717 1.2748 2.0684
4.5421 1.3766 2.0684
4.5102 1.4777 2.0684
4.4761 1.5781 2.0684
4.4397 1.6776 2.0684
4.4011 1.7764 2.0684
4.3604 1.8743 2.0684
4.3174 1.9712 2.0684
4.2723 2.0671 2.0684
4.2251 2.1620 2.0684
4.1757 2.2558 2.0684
4.1243 2.3485 2.0684
4.0708 2.4401 2.0684
4.0153 2.5304 2.0684
3.9578 2.6194 2.0684
3.8983 2.7072 2.0684
3.8369 2.7936 2.0684
3.7735 2.8786 2.0684
3.7083 2.9621 2.0684
3.6412 3.0442 2.0684
3.5723 3.1248 2.0684
3.5017 3.2038 2.0684
3.4292 3.2812 2.0684
3.3551 3.3569 2.0684
3.2793 3.4310 2.0684
3.2019 3.5034 2.0684
3.1228 3.5740 2.0684
3.0422 3.6429 2.0684
2.9601 3.7100 2.0684
2.8764 3.7751 2.0684
2.7914 3.8384 2.0684
2.7050 3.8999 2.0684
2.6172 3.9592 2.0684
2.5281 4.0167 2.0684
2.4378 4.0721 2.0684
2.3463 4.1256 2.0684
2.2535 4.1770 2.0684
0.8247 1.6139 0.7899
0.7883 1.6317 0.7897
0.7516 1.6486 0.7896
0.7144 1.6647 0.7895
0.6770 1.6800 0.7894
0.6392 1.6945 0.7893
0.6011 1.7081 0.7892
0.5628 1.7209 0.7891
0.5241 1.7328 0.7890
0.4853 1.7439 0.7889
0.4461 1.7542 0.7888
0.4068 1.7635 0.7888
0.3673 1.7720 0.7887
0.3276 1.7797 0.7886
0.2877 1.7864 0.7886
0.2478 1.7923 0.7886
0.2077 1.7973 0.7885
0.1675 1.8014 0.7885
0.1272 1.8047 0.7885
0.0868 1.8070 0.7884
0.0465 1.8085 0.7884
0.0061 1.8091 0.7884
-0.0344 1.8088 0.7884
-0.0747 1.8076 0.7884
-0.1151 1.8055 0.7885
-0.1554 1.8025 0.7885
-0.1956 1.7987 0.7885
-0.2357 1.7940 0.7886
-0.2758 1.7883 0.7886
-0.3157 1.7819 0.7887
-0.3554 1.7745 0.7887
-0.3950 1.7663 0.7888
-0.4344 1.7572 0.7888
-0.4736 1.7472 0.7889
-0.5125 1.7364 0.7890
-0.5512 1.7247 0.7891
-0.5897 1.7121 0.7892
-0.6279 1.6988 0.7893
-0.6657 1.6846 0.7894
-0.7033 1.6695 0.7895
-0.7405 1.6536 0.7896
-0.7774 1.6370 0.7898
-0.8139 1.6195 0.7899
-2.2254 4.1920 2.0684
-2.3185 4.1412 2.0684
-2.4104 4.0884 2.0684
-2.5011 4.0336 2.0684
-2.5906 3.9767 2.0684
-2.6788 3.9178 2.0684
-2.7656 3.8571 2.0684
-2.8511 3.7943 2.0684
-2.9351 3.7297 2.0684
-3.0176 3.6632 2.0684
-3.0987 3.5949 2.0684
-3.1782 3.5248 2.0684
-3.2562 3.4529 2.0684
-3.3324 3.3794 2.0684
-3.4071 3.3041 2.0684
-3.4800 3.2272 2.0684
-3.5512 3.1486 2.0684
-3.6207 3.0685 2.0684
-3.6883 2.9869 2.0684
-3.7541 2.9038 2.0684
-3.8181 2.8192 2.0684
-3.8800 2.7332 2.0684
-3.9401 2.6459 2.0684
-3.9983 2.5572 2.0684
-4.0543 2.4673 2.0684
-4.1085 2.3761 2.0684
-4.1605 2.2838 2.0684
-4.2104 2.1903 2.0684
-4.2583 2.0957 2.0684
-4.3041 2.0001 2.0684
-4.3477 1.9034 2.0684
-4.3891 1.8058 2.0684
-4.4283 1.7074 2.0684
-4.4653 1.6080 2.0684
-4.5002 1.5079 2.0684
-4.5327 1.4070 2.0684
-4.5630 1.3054 2.0684
-4.5910 1.2032 2.0684
-4.6168 1.1003 2.0684
-4.6402 0.9970 2.0684
-4.6613 0.8931 2.0684
-4.6801 0.7887 2.0684
-4.6965 0.6840 2.0684
-4.7106 0.5790 2.0684
-4.7224 0.4736 2.0684
-4.7318 0.3680 2.0684
-4.7388 0.2623 2.0684
-4.7435 0.1564 2.0684
-4.7458 0.0504 2.0684
-4.7457 -0.0557 2.0684
-4.7433 -0.1616 2.0684
-4.7385 -0.2675 2.0684
-4.7314 -0.3733 2.0684
-4.7218 -0.4789 2.0684
-4.7100 -0.5842 2.0684
-4.6958 -0.6893 2.0684
-4.6792 -0.7940 2.0684
-4.6603 -0.8983 2.0684
-4.6390 -1.0021 2.0684
-4.6155 -1.1055 2.0684
-4.5897 -1.2083 2.0684
-4.5616 -1.3105 2.0684
-4.5311 -1.4121 2.0684
-4.4985 -1.5129 2.0684
-4.4636 -1.6130 2.0684
-4.4264 -1.7123 2.0684
-4.3871 -1.8107 2.0684
-4.3455 -1.9083 2.0684
-4.3019 -2.0048 2.0684
-4.2560 -2.1004 2.0684
-4.2080 -2.1950 2.0684
-4.1579 -2.2884 2.0684
-4.1058 -2.3807 2.0684
-4.0516 -2.4718 2.0684
-3.9954 -2.5617 2.0684
-3.9372 -2.6503 2.0684
-3.8770 -2.7376 2.0684
-3.8149 -2.8234 2.0684
-3.7509 -2.9080 2.0684
-3.6850 -2.9910 2.0684
-3.6173 -3.0726 2.0684
-3.5477 -3.1526 2.0684
-3.4764 -3.2310 2.0684
-3.4034 -3.3079 2.0684
-3.3287 -3.3831 2.0684
-3.2523 -3.4566 2.0684
-3.1743 -3.5283 2.0684
-3.0947 -3.5983 2.0684
-3.0135 -3.6666 2.0684
-2.9309 -3.7330 2.0684
-2.8468 -3.7975 2.0684
-2.7613 -3.8601 2.0684
-2.6744 -3.9209 2.0684
-2.5861 -3.9796 2.0684
-2.4966 -4.0364 2.0684
-2.4058 -4.0911 2.0684
-2.3139 -4.1438 2.0684
-2.2207 -4.1945 2.0684
-0.8378 -1.6717 0.8149
-0.8004 -1.6903 0.8151
-0.7626 -1.7080 0.8152
-0.7243 -1.7249 0.8153
-0.6857 -1.7409 0.8154
-0.6468 -1.7560 0.8156
-0.6075 -1.7702 0.8157
-0.5679 -1.7836 0.8158
-0.5280 -1.7960 0.8159
-0.4878 -1.8076 0.8159
-0.4473 -1.8182 0.8160
-0.4066 -1.8279 0.8161
-0.3657 -1.8366 0.8162
-0.3246 -1.8445 0.8162
-0.2834 -1.8514 0.8163
-0.2420 -1.8574 0.8163
-0.2004 -1.8624 0.8163
-0.1588 -1.8665 0.8164
-0.1171 -1.8696 0.8164
-0.0753 -1.8718 0.8164
-0.0335 -1.8730 0.8164
0.0084 -1.8733 0.8164
0.0502 -1.8726 0.8164
0.0920 -1.8710 0.8164
0.1338 -1.8684 0.8164
0.1755 -1.8649 0.8163
0.2171 -1.8604 0.8163
0.2586 -1.8550 0.8163
0.2999 -1.8487 0.8162
0.3411 -1.8414 0.8162
0.3821 -1.8332 0.8161
0.4229 -1.8240 0.8160
0.4635 -1.8139 0.8159
0.5039 -1.8030 0.8159
0.5439 -1.7910 0.8158
0.5837 -1.7782 0.8157
0.6232 -1.7645 0.8156
0.6624 -1.7499 0.8155
0.7012 -1.7344 0.8153
0.7396 -1.7181 0.8152
0.7777 -1.7009 0.8151
0.8153 -1.6828 0.8149
2.1644 -4.2239 2.0684
2.2582 -4.1745 2.0684
2.3509 -4.1230 2.0684
2.4423 -4.0695 2.0684
2.5327 -4.0139 2.0684
2.6217 -3.9563 2.0684
2.7094 -3.8968 2.0684
2.7957 -3.8353 2.0684
2.8807 -3.7719 2.0684
2.9642 -3.7066 2.0684
3.0462 -3.6395 2.0684
3.1268 -3.5706 2.0684
3.2058 -3.4998 2.0684
3.2831 -3.4273 2.0684
3.3589 -3.3532 2.0684
3.4329 -3.2773 2.0684
3.5053 -3.1998 2.0684
3.5619 -3.1086 2.0604
3.6304 -3.0283 2.0604
3.6971 -2.9464 2.0604
3.7620 -2.8631 2.0604
3.8250 -2.7784 2.0604
3.9013 -2.7028 2.0684
3.9608 -2.6150 2.0684
4.0182 -2.5259 2.0684
4.0736 -2.4355 2.0684
4.1270 -2.3439 2.0684
4.1783 -2.2511 2.0684
4.2275 -2.1573 2.0684
4.2746 -2.0623 2.0684
4.3196 -1.9663 2.0684
4.3625 -1.8694 2.0684
4.4032 -1.7714 2.0684
4.4416 -1.6727 2.0684
4.4779 -1.5731 2.0684
4.5119 -1.4727 2.0684
4.5436 -1.3715 2.0684
