ply
format ascii 1.0
element vertex 2057
property float32 x
property float32 y
property float32 z
end_header
-4.0300 23.3547 2.2753
-4.5506 23.2589 2.2753
-5.0689 23.1515 2.2753
-5.5848 23.0325 2.2753
-6.0978 22.9020 2.2753
-6.6077 22.7601 2.2753
-7.1144 22.6068 2.2753
-7.6176 22.4423 2.2753
-8.1169 22.2666 2.2753
-8.6122 22.0797 2.2753
-9.1032 21.8819 2.2753
-9.5896 21.6731 2.2753
-10.0713 21.4535 2.2753
-10.5479 21.2232 2.2753
-11.0193 20.9823 2.2753
-11.4852 20.7310 2.2753
-11.9453 20.4694 2.2753
-12.3995 20.1975 2.2753
-12.8475 19.9155 2.2753
-13.2891 19.6235 2.2753
-13.7241 19.3219 2.2753
-14.1522 19.0105 2.2753
-14.5733 18.6897 2.2753
-14.9871 18.3595 2.2753
-15.1973 17.7908 2.2463
-15.2076 17.0179 2.1911
-15.2171 16.2816 2.1395
-15.4559 15.8138 2.1229
-15.8052 15.4647 2.1229
-16.1466 15.1078 2.1229
-16.4801 14.7434 2.1229
-16.8052 14.3716 2.1229
-16.8367 13.7595 2.0875
-16.8519 13.1553 2.0525
-16.9705 12.6481 2.0320
-17.2660 12.2784 2.0340
-17.2802 11.7163 2.0044
-17.2939 11.1700 1.9765
-17.4720 10.7397 1.9689
-17.7075 10.3468 1.9689
-17.9341 9.9487 1.9689
-18.1519 9.5457 1.9689
-18.3605 9.1379 1.9689
-18.5601 8.7256 1.9689
-18.7503 8.3088 1.9689
-16.3380 6.8075 1.6992
-16.3522 6.3887 1.6855
-19.2646 7.0347 1.9689
-19.4169 6.6027 1.9689
-19.5595 6.1674 1.9689
-18.1301 5.2745 1.8127
-18.1410 4.8409 1.8026
-18.1518 4.4120 1.7934
-18.1625 3.9872 1.7852
-18.1731 3.5661 1.7780
-18.1836 3.1481 1.7717
-18.1940 2.7329 1.7663
-18.2044 2.3200 1.7618
-18.2147 1.9090 1.7583
-18.2250 1.4994 1.7556
-18.2353 1.0908 1.7538
-18.2455 0.6829 1.7529
-18.2558 0.2753 1.7528
-18.2660 -0.1326 1.7537
-21.3672 -0.6326 2.0523
-21.3477 -1.1097 2.0523
-21.3177 -1.5862 2.0523
-21.2769 -2.0619 2.0523
-21.2255 -2.5366 2.0523
-21.1636 -3.0100 2.0523
-21.0911 -3.4820 2.0523
-21.0080 -3.9522 2.0523
-20.9145 -4.4204 2.0523
-20.8106 -4.8864 2.0523
-20.6963 -5.3499 2.0523
-20.5716 -5.8108 2.0523
-20.4367 -6.2688 2.0523
-20.2916 -6.7237 2.0523
-20.1364 -7.1752 2.0523
-18.9612 -7.2376 1.9485
-18.0489 -7.3553 1.8711
-18.0609 -7.8351 1.8901
-18.0732 -8.3249 1.9103
-18.0858 -8.8255 1.9320
-18.0987 -9.3379 1.9552
-18.1119 -9.8630 1.9799
-18.0523 -10.3600 1.9982
-17.8291 -10.7682 1.9996
-17.8431 -11.3281 2.0291
-17.7864 -11.8576 2.0523
-17.5171 -12.2519 2.0523
-17.3202 -12.6996 2.0619
-17.3199 -13.3042 2.0967
-17.2308 -13.8585 2.1229
-16.9171 -14.2399 2.1229
-16.5948 -14.6142 2.1229
-16.2642 -14.9812 2.1229
-15.9256 -15.3407 2.1229
-15.5790 -15.6925 2.1229
-15.2316 -16.0435 2.1239
-15.2109 -16.7563 2.1727
-15.2010 -17.5160 2.2266
-15.1300 -18.2419 2.2753
-14.7189 -18.5753 2.2753
-14.3003 -18.8993 2.2753
-13.8746 -19.2140 2.2753
-13.4421 -19.5191 2.2753
-13.0027 -19.8145 2.2753
-12.5569 -20.0999 2.2753
-12.1049 -20.3754 2.2753
-11.6521 -20.6501 2.2763
-11.2386 -20.9997 2.2866
-10.7560 -21.2241 2.2843
-10.2688 -21.4371 2.2820
-9.7774 -21.6389 2.2797
-9.2763 -21.8157 2.2759
-8.7869 -22.0177 2.2759
-8.2930 -22.2088 2.2760
-7.7950 -22.3887 2.2760
-7.2931 -22.5574 2.2760
-6.7875 -22.7149 2.2760
-6.2786 -22.8609 2.2760
-5.7664 -22.9956 2.2760
-5.2514 -23.1187 2.2761
-4.7337 -23.2303 2.2761
-4.2137 -23.3302 2.2761
-3.6916 -23.4185 2.2761
-3.1676 -23.4951 2.2761
-2.6421 -23.5599 2.2760
-2.1152 -23.6129 2.2760
-1.5873 -23.6541 2.2760
-1.0586 -23.6834 2.2760
-0.5294 -23.7009 2.2760
0.0000 -19.1547 2.2753
0.4279 -19.1499 2.2753
0.8555 -19.1356 2.2753
1.2826 -19.1117 2.2753
1.7092 -19.0783 2.2753
2.1348 -19.0354 2.2753
2.5594 -18.9829 2.2753
2.9828 -18.9210 2.2753
3.4046 -18.8497 2.2753
3.8248 -18.7690 2.2753
4.2430 -18.6788 2.2753
4.6591 -18.5794 2.2753
5.0729 -18.4707 2.2753
5.4842 -18.3528 2.2753
5.8927 -18.2258 2.2753
6.2983 -18.0896 2.2753
6.7007 -17.9444 2.2753
7.0999 -17.7903 2.2753
7.4954 -17.6273 2.2753
7.8872 -17.4555 2.2753
8.1960 -17.1098 2.2535
8.2136 -16.2072 2.1583
8.4330 -15.7570 2.1229
8.7828 -15.5647 2.1229
9.1282 -15.3647 2.1229
9.4691 -15.1570 2.1229
9.8053 -14.9417 2.1229
10.1365 -14.7190 2.1229
10.4631 -14.4894 2.1230
10.7855 -14.2540 2.1232
11.1026 -14.0113 2.1235
11.4132 -13.7605 2.1236
11.7179 -13.5022 2.1236
12.0166 -13.2373 2.1237
12.3094 -12.9658 2.1237
12.5960 -12.6878 2.1237
12.8764 -12.4034 2.1237
13.1504 -12.1129 2.1238
13.4178 -11.8163 2.1238
13.6786 -11.5138 2.1238
13.9325 -11.2056 2.1238
14.1795 -10.8918 2.1239
14.4194 -10.5725 2.1239
14.6522 -10.2480 2.1239
14.8776 -9.9184 2.1240
15.0957 -9.5838 2.1240
15.3062 -9.2444 2.1240
15.5091 -8.9004 2.1241
15.7043 -8.5519 2.1241
15.8917 -8.1992 2.1241
16.0711 -7.8423 2.1242
16.1449 -7.4366 2.1114
16.1549 -7.0082 2.0918
16.1688 -6.5892 2.0740
9.2104 -3.5157 1.1711
9.3395 -3.3279 1.1777
16.2016 -5.3685 2.0274
16.2122 -4.9730 2.0143
16.2227 -4.5824 2.0024
16.2331 -4.1962 1.9916
16.2434 -3.8140 1.9820
16.2535 -3.4352 1.9733
16.2636 -3.0596 1.9658
16.2736 -2.6866 1.9592
16.2836 -2.3160 1.9537
16.2935 -1.9472 1.9492
16.3034 -1.5799 1.9457
16.3127 -1.2138 1.9431
16.3218 -0.8484 1.9414
16.3308 -0.4835 1.9407
16.3398 -0.1187 1.9410
16.3489 0.2465 1.9422
16.3579 0.6122 1.9445
16.3670 0.9790 1.9476
16.3761 1.3472 1.9518
16.3853 1.7172 1.9570
16.3945 2.0893 1.9632
16.4038 2.4640 1.9704
16.4131 2.8416 1.9787
16.4226 3.2225 1.9880
16.4321 3.6073 1.9984
16.4411 3.9962 2.0098
16.4508 4.3899 2.0225
16.4607 4.7888 2.0364
16.4707 5.1934 2.0514
16.4808 5.6042 2.0678
16.4911 6.0219 2.0854
16.5016 6.4470 2.1044
16.5123 6.8801 2.1249
16.3631 7.2510 2.1260
16.1975 7.6149 2.1260
16.0237 7.9749 2.1261
15.8420 8.3310 2.1261
15.6523 8.6830 2.1262
15.4549 9.0306 2.1262
15.2496 9.3737 2.1263
15.0368 9.7122 2.1263
14.8165 10.0458 2.1264
14.5887 10.3744 2.1264
14.3524 10.6970 2.1263
14.1086 11.0138 2.1261
13.8577 11.3250 2.1259
13.5998 11.6305 2.1256
13.3353 11.9301 2.1254
13.0641 12.2236 2.1252
12.7864 12.5109 2.1250
12.5024 12.7919 2.1247
12.2121 13.0664 2.1245
11.9158 13.3343 2.1242
11.6136 13.5955 2.1240
11.3057 13.8498 2.1237
10.9922 14.0971 2.1234
10.6732 14.3372 2.1232
10.3492 14.5703 2.1229
10.0211 14.7979 2.1229
9.6881 15.0180 2.1229
9.3503 15.2306 2.1229
9.0078 15.4356 2.1229
8.6608 15.6329 2.1229
8.3095 15.8225 2.1229
8.2076 16.5144 2.1906
8.1398 17.3392 2.2753
7.7505 17.5166 2.2753
7.3574 17.6854 2.2753
6.9605 17.8452 2.2753
6.5603 17.9963 2.2753
6.1567 18.1383 2.2753
5.7500 18.2713 2.2753
5.3405 18.3952 2.2753
4.9284 18.5098 2.2753
4.5137 18.6153 2.2753
4.0968 18.7115 2.2753
3.6779 18.7983 2.2753
3.2571 18.8757 2.2753
2.8347 18.9438 2.2753
2.4109 19.0024 2.2753
1.9859 19.0515 2.2753
1.5599 19.0911 2.2753
1.1331 19.1212 2.2753
0.7058 19.1417 2.2753
0.2781 19.1527 2.2753
-0.1497 19.1541 2.2753
-0.5774 19.1460 2.2753
-1.0049 19.1283 2.2753
-1.4319 19.1011 2.2753
-1.8581 19.0644 2.2753
-2.2835 19.0181 2.2753
-2.7077 18.9623 2.2753
-3.1305 18.8971 2.2753
-3.5518 18.8225 2.2753
-3.9713 18.7385 2.2753
-4.3888 18.6451 2.2753
-4.8041 18.5424 2.2753
-5.2171 18.4305 2.2753
-5.6274 18.3094 2.2753
-6.0350 18.1792 2.2753
-6.4395 18.0398 2.2753
-6.8408 17.8915 2.2753
-7.2386 17.7343 2.2753
-7.6329 17.5682 2.2753
-8.0234 17.3933 2.2753
-8.4099 17.2098 2.2753
-8.7922 17.0176 2.2753
-9.1700 16.8170 2.2753
-9.5433 16.6080 2.2753
-9.9119 16.3907 2.2753
-10.2755 16.1653 2.2753
-10.6339 15.9317 2.2753
-10.9872 15.6903 2.2753
-11.3348 15.4410 2.2753
-11.6769 15.1840 2.2753
-12.0131 14.9194 2.2753
-12.3433 14.6473 2.2753
-12.6673 14.3680 2.2753
-12.9851 14.0815 2.2753
-13.2964 13.7880 2.2753
-13.6010 13.4876 2.2753
-13.8988 13.1804 2.2753
-14.1897 12.8667 2.2753
-14.4736 12.5466 2.2753
-14.7502 12.2202 2.2753
-15.0194 11.8877 2.2753
-15.1944 11.4837 2.2624
-15.2010 10.9640 2.2263
-15.2073 10.4603 2.1925
-15.2132 9.9712 2.1607
-15.2240 9.4991 2.1315
-15.3698 9.1196 2.1229
-15.5696 8.7740 2.1229
-15.7617 8.4241 2.1229
-15.9459 8.0700 2.1229
-16.1222 7.7119 2.1229
-16.2904 7.3498 2.1229
-16.2243 6.8881 2.0937
-16.2306 6.4669 2.0754
-16.7460 6.2425 2.1229
-16.8812 5.8670 2.1229
-17.0081 5.4885 2.1229
-17.1264 5.1073 2.1229
-17.2362 4.7235 2.1229
-17.3374 4.3373 2.1229
-17.2740 3.9137 2.1039
-17.2841 3.5121 2.0951
-17.2942 3.1136 2.0873
-17.3041 2.7179 2.0807
-17.3140 2.3245 2.0751
-17.3238 1.9330 2.0706
-17.3336 1.5431 2.0671
-17.3434 1.1542 2.0647
-17.3531 0.7660 2.0633
-17.3629 0.3782 2.0630
-17.3726 -0.0097 2.0636
-17.3258 -0.3967 2.0586
-17.3257 -0.7842 2.0602
-17.3255 -1.1724 2.0627
-17.3253 -1.5618 2.0663
-17.3251 -1.9528 2.0710
-17.3249 -2.3457 2.0767
-17.3248 -2.7410 2.0835
-17.3246 -3.1391 2.0914
-17.3244 -3.5404 2.1004
-17.3242 -3.9454 2.1106
-17.3240 -4.3545 2.1219
-17.2309 -4.7427 2.1229
-17.1207 -5.1264 2.1229
-17.0019 -5.5075 2.1229
-16.8747 -5.8858 2.1229
-16.7390 -6.2613 2.1229
-16.5950 -6.6336 2.1229
-16.4427 -7.0025 2.1229
-16.2822 -7.3680 2.1229
-16.1136 -7.7298 2.1229
-15.9369 -8.0878 2.1229
-15.7523 -8.4417 2.1229
-15.5598 -8.7914 2.1229
-15.3596 -9.1368 2.1229
-15.2227 -9.5224 2.1329
-15.2129 -9.9953 2.1622
-15.2070 -10.4851 2.1941
-15.2007 -10.9896 2.2281
-15.1940 -11.5101 2.2642
-15.0062 -11.9044 2.2753
-14.7365 -12.2367 2.2753
-14.4596 -12.5628 2.2753
-14.1754 -12.8826 2.2753
-13.8841 -13.1960 2.2753
-13.5859 -13.5027 2.2753
-13.2810 -13.8028 2.2753
-12.9693 -14.0960 2.2753
-12.6513 -14.3821 2.2753
-12.3269 -14.6611 2.2753
-11.9964 -14.9328 2.2753
-11.6599 -15.1970 2.2753
-11.3176 -15.4536 2.2753
-10.9696 -15.7025 2.2753
-10.6162 -15.9436 2.2753
-10.2574 -16.1767 2.2753
-9.8936 -16.4018 2.2753
-9.5248 -16.6187 2.2753
-9.1512 -16.8273 2.2753
-8.7731 -17.0274 2.2753
-8.3906 -17.2191 2.2753
-8.0040 -17.4022 2.2753
-7.6133 -17.5767 2.2753
-7.2189 -17.7423 2.2753
-6.8208 -17.8991 2.2753
-6.4193 -18.0470 2.2753
-6.0146 -18.1859 2.2753
-5.6070 -18.3156 2.2753
-5.1965 -18.4363 2.2753
-4.7835 -18.5478 2.2753
-4.3680 -18.6500 2.2753
-3.9504 -18.7429 2.2753
-3.5308 -18.8265 2.2753
-3.1094 -18.9006 2.2753
-2.6865 -18.9654 2.2753
-2.2623 -19.0206 2.2753
-1.8369 -19.0664 2.2753
-1.4106 -19.1027 2.2753
-0.9836 -19.1294 2.2753
-0.5561 -19.1466 2.2753
-0.1283 -19.1543 2.2753
0.2995 -19.1523 2.2753
0.7272 -19.1409 2.2753
1.1545 -19.1199 2.2753
1.5813 -19.0893 2.2753
2.0072 -19.0492 2.2753
2.4322 -18.9996 2.2753
2.8559 -18.9406 2.2753
3.2782 -18.8721 2.2753
3.6989 -18.7942 2.2753
4.1178 -18.7069 2.2753
4.5345 -18.6102 2.2753
4.9491 -18.5043 2.2753
5.3611 -18.3892 2.2753
5.7704 -18.2648 2.2753
6.1769 -18.1314 2.2753
6.5804 -17.9889 2.2753
6.9805 -17.8375 2.2753
7.3772 -17.6771 2.2753
7.7701 -17.5079 2.2753
8.1592 -17.3300 2.2753
8.2085 -16.4699 2.1859
8.3272 -15.8137 2.1229
8.6783 -15.6232 2.1229
9.0251 -15.4255 2.1229
9.3673 -15.2201 2.1229
9.7049 -15.0070 2.1229
10.0377 -14.7866 2.1229
10.3653 -14.5586 2.1229
10.6893 -14.3253 2.1232
11.0080 -14.0848 2.1234
11.3207 -13.8366 2.1236
11.6271 -13.5804 2.1236
11.9276 -13.3175 2.1237
12.2222 -13.0479 2.1237
12.5107 -12.7718 2.1237
12.7930 -12.4894 2.1237
13.0689 -12.2007 2.1237
13.3383 -11.9059 2.1238
13.6011 -11.6052 2.1238
13.8570 -11.2987 2.1238
14.1062 -10.9865 2.1239
14.3482 -10.6689 2.1239
14.5831 -10.3459 2.1239
14.8107 -10.0178 2.1240
15.0310 -9.6846 2.1240
15.2439 -9.3467 2.1240
15.4490 -9.0040 2.1241
15.6465 -8.6569 2.1241
15.8363 -8.3054 2.1241
16.0181 -7.9498 2.1242
16.1418 -7.5667 2.1176
16.1519 -7.1359 2.0975
16.1618 -6.7129 2.0788
16.1766 -6.2993 2.0621
9.2451 -3.3643 1.1686
16.1984 -5.4882 2.0316
16.2091 -5.0911 2.0181
16.2196 -4.6991 2.0059
16.2300 -4.3116 1.9948
16.2403 -3.9283 1.9848
16.2505 -3.5485 1.9758
16.2606 -3.1720 1.9679
16.2706 -2.7983 1.9611
16.2806 -2.4269 1.9553
16.2905 -2.0576 1.9505
16.3004 -1.6900 1.9466
16.3100 -1.3235 1.9438
16.3191 -0.9580 1.9418
16.3281 -0.5930 1.9408
16.3371 -0.2281 1.9408
16.3462 0.1369 1.9418
16.3552 0.5024 1.9437
16.3643 0.8689 1.9466
16.3734 1.2366 1.9505
16.3825 1.6060 1.9553
16.3917 1.9774 1.9612
16.4010 2.3513 1.9681
16.4104 2.7279 1.9761
16.4198 3.1079 1.9851
16.4293 3.4915 1.9951
16.4389 3.8792 2.0063
16.4479 4.2712 2.0186
16.4577 4.6685 2.0321
16.4677 5.0714 2.0468
16.4778 5.4803 2.0627
16.4880 5.8959 2.0800
16.4985 6.3187 2.0986
16.5091 6.7493 2.1186
16.4112 7.1412 2.1260
16.2480 7.5061 2.1260
16.0767 7.8673 2.1261
15.8973 8.2246 2.1261
15.7101 8.5778 2.1262
15.5149 8.9268 2.1262
15.3120 9.2712 2.1263
15.1015 9.6112 2.1263
14.8834 9.9463 2.1264
14.6579 10.2764 2.1264
14.4242 10.6009 2.1264
14.1825 10.9193 2.1261
13.9336 11.2322 2.1259
13.6779 11.5395 2.1257
13.4154 11.8408 2.1255
13.1461 12.1362 2.1253
12.8704 12.4254 2.1250
12.5882 12.7083 2.1248
12.2998 12.9848 2.1245
12.0054 13.2547 2.1243
11.7049 13.5179 2.1240
11.3987 13.7742 2.1238
11.0868 14.0236 2.1235
10.7695 14.2659 2.1232
10.4468 14.5010 2.1230
10.1201 14.7304 2.1229
9.7885 14.9527 2.1229
9.4521 15.1676 2.1229
9.1110 15.3749 2.1229
8.7654 15.5746 2.1229
8.4154 15.7665 2.1229
8.2128 16.2506 2.1628
8.1950 17.1570 2.2586
7.8677 17.4643 2.2753
7.4757 17.6357 2.2753
7.0800 17.7982 2.2753
6.6807 17.9519 2.2753
6.2781 18.0966 2.2753
5.8723 18.2324 2.2753
5.4637 18.3589 2.2753
5.0523 18.4764 2.2753
4.6383 18.5846 2.2753
4.2221 18.6836 2.2753
3.8038 18.7732 2.2753
3.3835 18.8535 2.2753
2.9616 18.9244 2.2753
2.5382 18.9858 2.2753
2.1135 19.0377 2.2753
1.6878 19.0802 2.2753
1.2612 19.1131 2.2753
0.8340 19.1365 2.2753
0.4064 19.1504 2.2753
-0.0214 19.1547 2.2753
-0.4492 19.1494 2.2753
-0.8768 19.1346 2.2753
-1.3039 19.1103 2.2753
-1.7304 19.0763 2.2753
-2.1560 19.0330 2.2753
-2.5806 18.9801 2.2753
-3.0039 18.9177 2.2753
-3.4256 18.8459 2.2753
-3.8457 18.7647 2.2753
-4.2638 18.6741 2.2753
-4.6798 18.5742 2.2753
-5.0935 18.4651 2.2753
-5.5046 18.3467 2.2753
-5.9130 18.2192 2.2753
-6.3185 18.0826 2.2753
-6.7207 17.9369 2.2753
-7.1196 17.7824 2.2753
-7.5150 17.6189 2.2753
-7.9067 17.4466 2.2753
-8.2944 17.2658 2.2753
-8.6779 17.0762 2.2753
-9.0571 16.8781 2.2753
-9.4318 16.6716 2.2753
-9.8018 16.4568 2.2753
-10.1669 16.2337 2.2753
-10.5270 16.0026 2.2753
-10.8817 15.7635 2.2753
-11.2311 15.5166 2.2753
-11.5749 15.2618 2.2753
-11.9128 14.9995 2.2753
-12.2449 14.7297 2.2753
-12.5708 14.4526 2.2753
-12.8905 14.1682 2.2753
-13.2037 13.8768 2.2753
-13.5103 13.5784 2.2753
-13.8102 13.2733 2.2753
-14.1032 12.9615 2.2753
-14.3892 12.6433 2.2753
-14.6680 12.3188 2.2753
-14.9394 11.9881 2.2753
-15.1923 11.6429 2.2736
-15.1991 11.1182 2.2369
-15.2055 10.6098 2.2024
-15.2115 10.1165 2.1700
-15.2171 9.6371 2.1396
-15.3083 9.2224 2.1229
-15.5105 8.8782 2.1229
-15.7049 8.5295 2.1229
-15.8915 8.1766 2.1229
-16.0702 7.8197 2.1229
-16.2408 7.4588 2.1229
-16.4033 7.0942 2.1229
-16.2275 6.5919 2.0806
-16.4090 6.2425 2.0854
-16.8416 5.9800 2.1229
-16.9709 5.6023 2.1229
-17.0918 5.2219 2.1229
-17.2041 4.8388 2.1229
-17.3079 4.4534 2.1229
-18.6311 4.3526 2.2727
-17.2811 3.6322 2.0976
-17.2912 3.2329 2.0895
-17.3011 2.8364 2.0826
-17.3110 2.4423 2.0767
-17.3209 2.0503 2.0718
-17.3307 1.6599 2.0681
-17.3405 1.2707 2.0653
-17.3502 0.8824 2.0636
-17.3600 0.4945 2.0630
-17.3697 0.1067 2.0633
-17.3259 -0.2806 2.0583
-17.3257 -0.6679 2.0596
-17.3255 -1.0559 2.0618
-17.3254 -1.4448 2.0652
-17.3252 -1.8353 2.0695
-17.3250 -2.2276 2.0749
-17.3248 -2.6221 2.0814
-17.3246 -3.0194 2.0889
-17.3245 -3.4197 2.0976
-17.3243 -3.8235 2.1074
-17.3241 -4.2314 2.1184
-17.2623 -4.6272 2.1229
-17.1547 -5.0115 2.1229
-17.0384 -5.3934 2.1229
-16.9137 -5.7726 2.1229
-16.7806 -6.1489 2.1229
-16.6391 -6.5222 2.1229
-16.4892 -6.8922 2.1229
-16.3312 -7.2588 2.1229
-16.1650 -7.6217 2.1229
-15.9907 -7.9808 2.1229
-15.8085 -8.3360 2.1229
-15.6184 -8.6869 2.1229
-15.4204 -9.0337 2.1229
-15.2304 -9.3855 2.1251
-15.2146 -9.8511 2.1530
-15.2088 -10.3367 2.1844
-15.2026 -10.8366 2.2177
-15.1961 -11.3522 2.2532
-15.0856 -11.8036 2.2753
-14.8182 -12.1376 2.2753
-14.5434 -12.4656 2.2753
-14.2614 -12.7873 2.2753
-13.9722 -13.1026 2.2753
-13.6761 -13.4114 2.2753
-13.3732 -13.7135 2.2753
-13.0636 -14.0088 2.2753
-12.7474 -14.2971 2.2753
-12.4249 -14.5782 2.2753
-12.0962 -14.8521 2.2753
-11.7615 -15.1185 2.2753
-11.4209 -15.3774 2.2753
-11.0746 -15.6287 2.2753
-10.7228 -15.8721 2.2753
-10.3656 -16.1077 2.2753
-10.0032 -16.3351 2.2753
-9.6360 -16.5545 2.2753
-9.2638 -16.7655 2.2753
-8.8870 -16.9683 2.2753
-8.5058 -17.1625 2.2753
-8.1204 -17.3482 2.2753
-7.7309 -17.5253 2.2753
-7.3376 -17.6936 2.2753
-6.9406 -17.8530 2.2753
-6.5401 -18.0036 2.2753
-6.1363 -18.1452 2.2753
-5.7296 -18.2777 2.2753
-5.3199 -18.4011 2.2753
-4.9076 -18.5153 2.2753
-4.4929 -18.6203 2.2753
-4.0758 -18.7160 2.2753
-3.6569 -18.8024 2.2753
-3.2360 -18.8794 2.2753
-2.8135 -18.9469 2.2753
-2.3897 -19.0050 2.2753
-1.9646 -19.0537 2.2753
-1.5385 -19.0928 2.2753
-1.1117 -19.1224 2.2753
-0.6844 -19.1425 2.2753
-0.2566 -19.1530 2.2753
0.1712 -19.1539 2.2753
0.5989 -19.1453 2.2753
1.0264 -19.1271 2.2753
1.4533 -19.0995 2.2753
1.8795 -19.0623 2.2753
2.3048 -19.0155 2.2753
2.7289 -18.9593 2.2753
3.1517 -18.8936 2.2753
3.5729 -18.8185 2.2753
3.9923 -18.7340 2.2753
4.4097 -18.6402 2.2753
4.8249 -18.5371 2.2753
5.2377 -18.4239 2.2753
5.6479 -18.3031 2.2753
6.0553 -18.1724 2.2753
6.4597 -18.0326 2.2753
6.8608 -17.8838 2.2753
7.2585 -17.7262 2.2753
7.6526 -17.5596 2.2753
8.0429 -17.3843 2.2753
8.2032 -16.7394 2.2143
8.2302 -15.8858 2.1253
8.5734 -15.6810 2.1229
8.9215 -15.4856 2.1229
9.2651 -15.2825 2.1229
9.6041 -15.0718 2.1229
9.9383 -14.8535 2.1229
10.2676 -14.6278 2.1229
10.5927 -14.3961 2.1231
10.9129 -14.1577 2.1234
11.2277 -13.9121 2.1236
11.5358 -13.6580 2.1236
11.8380 -13.3971 2.1236
12.1344 -13.1295 2.1237
12.4248 -12.8553 2.1237
12.7089 -12.5748 2.1237
12.9868 -12.2879 2.1237
13.2582 -11.9950 2.1238
13.5229 -11.6960 2.1238
13.7809 -11.3912 2.1238
14.0321 -11.0807 2.1239
14.2763 -10.7647 2.1239
14.5134 -10.4433 2.1239
14.7432 -10.1167 2.1239
14.9657 -9.7851 2.1240
15.1808 -9.4486 2.1240
15.3883 -9.1073 2.1240
15.5881 -8.7615 2.1241
15.7802 -8.4113 2.1241
15.9644 -8.0569 2.1242
16.1388 -7.6976 2.1240
16.1489 -7.2642 2.1034
16.1588 -6.8390 2.0843
16.1733 -6.4232 2.0671
9.2178 -3.4245 1.1681
16.1952 -5.6083 2.0358
16.2059 -5.2097 2.0221
16.2165 -4.8162 2.0094
16.2269 -4.4274 1.9980
16.2372 -4.0429 1.9876
16.2474 -3.6621 1.9784
16.2576 -3.2846 1.9702
16.2676 -2.9101 1.9630
16.2776 -2.5381 1.9569
16.2876 -2.1683 1.9518
16.2975 -1.8001 1.9477
16.3073 -1.4334 1.9445
16.3163 -1.0676 1.9423
16.3254 -0.7024 1.9410
16.3344 -0.3376 1.9407
16.3434 0.0273 1.9414
16.3525 0.3927 1.9430
16.3616 0.7588 1.9456
16.3707 1.1261 1.9492
16.3798 1.4950 1.9538
16.3890 1.8658 1.9594
16.3982 2.2388 1.9659
16.4075 2.6146 1.9736
16.4169 2.9935 1.9823
16.4264 3.3760 1.9920
16.4360 3.7624 2.0029
16.4450 4.1531 2.0148
16.4547 4.5488 2.0279
16.4647 4.9499 2.0422
16.4747 5.3570 2.0578
16.4849 5.7705 2.0747
16.4953 6.1910 2.0929
16.5059 6.6192 2.1124
16.4586 7.0310 2.1260
16.2978 7.3970 2.1260
16.1289 7.7594 2.1261
15.9520 8.1179 2.1261
15.7671 8.4723 2.1262
15.5743 8.8225 2.1262
15.3737 9.1684 2.1263
15.1654 9.5097 2.1263
14.9496 9.8462 2.1264
14.7263 10.1779 2.1264
14.4953 10.5043 2.1264
14.2558 10.8244 2.1262
14.0090 11.1390 2.1260
13.7554 11.4479 2.1258
13.4949 11.7510 2.1256
13.2276 12.0482 2.1253
12.9538 12.3393 2.1251
12.6735 12.6241 2.1249
12.3870 12.9025 2.1246
12.0943 13.1744 2.1244
11.7956 13.4396 2.1241
11.4911 13.6981 2.1239
11.1809 13.9495 2.1236
10.8652 14.1940 2.1233
10.5441 14.4312 2.1230
10.2186 14.6622 2.1229
9.8885 14.8868 2.1229
9.5536 15.1039 2.1229
9.2138 15.3135 2.1229
8.8695 15.5155 2.1229
8.5208 15.7097 2.1229
8.2192 15.9962 2.1363
8.2005 16.8768 2.2289
7.9846 17.4112 2.2753
7.5937 17.5852 2.2753
7.1990 17.7504 2.2753
6.8008 17.9067 2.2753
6.3992 18.0542 2.2753
5.9944 18.1926 2.2753
5.5865 18.3219 2.2753
5.1760 18.4421 2.2753
4.7628 18.5531 2.2753
4.3472 18.6549 2.2753
3.9295 18.7473 2.2753
3.5098 18.8304 2.2753
3.0883 18.9041 2.2753
2.6653 18.9684 2.2753
2.2411 19.0232 2.2753
1.8156 19.0684 2.2753
1.3893 19.1043 2.2753
0.9622 19.1305 2.2753
0.5347 19.1472 2.2753
0.1070 19.1544 2.2753
-0.3208 19.1520 2.2753
-0.7485 19.1401 2.2753
-1.1758 19.1186 2.2753
-1.6025 19.0875 2.2753
-2.0284 19.0470 2.2753
-2.4533 18.9969 2.2753
-2.8770 18.9374 2.2753
-3.2992 18.8684 2.2753
-3.7198 18.7900 2.2753
-4.1385 18.7023 2.2753
-4.5552 18.6052 2.2753
-4.9696 18.4988 2.2753
-5.3816 18.3832 2.2753
-5.7908 18.2584 2.2753
-6.1971 18.1245 2.2753
-6.6004 17.9816 2.2753
-7.0003 17.8297 2.2753
-7.3968 17.6689 2.2753
-7.7896 17.4993 2.2753
-8.1785 17.3209 2.2753
-8.5633 17.1340 2.2753
-8.9438 16.9384 2.2753
-9.3199 16.7344 2.2753
-9.6913 16.5221 2.2753
-10.0579 16.3015 2.2753
-10.4195 16.0728 2.2753
-10.7759 15.8361 2.2753
-11.1269 15.5915 2.2753
-11.4723 15.3391 2.2753
-11.8121 15.0790 2.2753
-12.1459 14.8114 2.2753
-12.4737 14.5365 2.2753
-12.7952 14.2542 2.2753
-13.1104 13.9649 2.2753
-13.4190 13.6686 2.2753
-13.7209 13.3655 2.2753
-14.0161 13.0557 2.2753
-14.3041 12.7394 2.2753
-14.5851 12.4168 2.2753
-14.8588 12.0879 2.2753
-15.1251 11.7532 2.2753
-15.1971 11.2738 2.2477
-15.2036 10.7607 2.2126
-15.2097 10.2630 2.1795
-15.2155 9.7795 2.1485
-15.2462 9.3247 2.1229
-15.4507 8.9819 2.1229
-15.6474 8.6346 2.1229
-15.8363 8.2830 2.1229
-16.0174 7.9272 2.1229
-16.1904 7.5675 2.1229
-16.3554 7.2040 2.1229
-16.2243 6.7177 2.0859
-16.2417 6.3037 2.0695
-16.8011 6.0927 2.1229
-16.9330 5.7159 2.1229
-17.0564 5.3363 2.1229
-17.1713 4.9541 2.1229
-17.2777 4.5693 2.1229
-17.3754 4.1823 2.1229
-17.2781 3.7526 2.1002
-17.2882 3.3524 2.0918
-17.2981 2.9551 2.0845
-17.3081 2.5603 2.0783
-17.3179 2.1677 2.0732
-17.3277 1.7769 2.0691
-17.3375 1.3874 2.0660
-17.3473 0.9988 2.0640
-17.3570 0.6109 2.0630
-17.3668 0.2231 2.0631
-17.3765 -0.1650 2.0642
-17.3258 -0.5517 2.0591
-17.3256 -0.9394 2.0611
-17.3254 -1.3280 2.0641
-17.3252 -1.7180 2.0681
-17.3251 -2.1097 2.0732
-17.3249 -2.5035 2.0793
-17.3247 -2.8999 2.0866
-17.3245 -3.2992 2.0949
-17.3243 -3.7020 2.1043
-17.3242 -4.1086 2.1149
-17.2929 -4.5114 2.1229
-17.1878 -4.8965 2.1229
-17.0742 -5.2791 2.1229
-16.9520 -5.6591 2.1229
-16.8214 -6.0364 2.1229
-16.6824 -6.4106 2.1229
-16.5351 -6.7816 2.1229
-16.3795 -7.1491 2.1229
-16.2157 -7.5132 2.1229
-16.0439 -7.8735 2.1229
-15.8640 -8.2298 2.1229
-15.6762 -8.5821 2.1229
-15.4806 -8.9301 2.1229
-15.2773 -9.2736 2.1229
-15.2163 -9.7081 2.1440
-15.2106 -10.1895 2.1748
-15.2045 -10.6850 2.2075
-15.1981 -11.1958 2.2423
-15.1643 -11.7022 2.2753
-14.8992 -12.0381 2.2753
-14.6266 -12.3679 2.2753
-14.3467 -12.6914 2.2753
-14.0597 -13.0087 2.2753
-13.7656 -13.3195 2.2753
-13.4647 -13.6236 2.2753
-13.1571 -13.9209 2.2753
-12.8429 -14.2113 2.2753
-12.5223 -14.4946 2.2753
-12.1954 -14.7707 2.2753
-11.8625 -15.0394 2.2753
-11.5237 -15.3006 2.2753
-11.1790 -15.5541 2.2753
-10.8289 -15.7999 2.2753
-10.4733 -16.0378 2.2753
-10.1125 -16.2677 2.2753
-9.7466 -16.4895 2.2753
-9.3759 -16.7031 2.2753
-9.0005 -16.9083 2.2753
-8.6206 -17.1052 2.2753
-8.2364 -17.2934 2.2753
-7.8481 -17.4731 2.2753
-7.4559 -17.6440 2.2753
-7.0600 -17.8061 2.2753
-6.6606 -17.9594 2.2753
-6.2578 -18.1036 2.2753
-5.8519 -18.2389 2.2753
-5.4431 -18.3650 2.2753
-5.0316 -18.4820 2.2753
-4.6175 -18.5898 2.2753
-4.2012 -18.6883 2.2753
-3.7827 -18.7775 2.2753
-3.3624 -18.8573 2.2753
-2.9404 -18.9276 2.2753
-2.5170 -18.9886 2.2753
-2.0922 -19.0401 2.2753
-1.6664 -19.0821 2.2753
-1.2399 -19.1145 2.2753
-0.8126 -19.1374 2.2753
-0.3850 -19.1508 2.2753
0.0428 -19.1546 2.2753
0.4707 -19.1489 2.2753
0.8982 -19.1336 2.2753
1.3253 -19.1088 2.2753
1.7518 -19.0744 2.2753
2.1773 -19.0305 2.2753
2.6018 -18.9772 2.2753
3.0250 -18.9143 2.2753
3.4467 -18.8420 2.2753
3.8667 -18.7604 2.2753
4.2847 -18.6693 2.2753
4.7006 -18.5690 2.2753
5.1142 -18.4593 2.2753
5.5252 -18.3405 2.2753
5.9334 -18.2125 2.2753
6.3387 -18.0755 2.2753
6.7408 -17.9294 2.2753
7.1396 -17.7744 2.2753
7.5348 -17.6105 2.2753
7.9262 -17.4378 2.2753
8.1978 -17.0159 2.2436
8.2153 -16.1212 2.1493
8.4681 -15.7381 2.1229
8.8175 -15.5451 2.1229
9.1625 -15.3442 2.1229
9.5029 -15.1358 2.1229
9.8386 -14.9198 2.1229
10.1694 -14.6963 2.1229
10.4955 -14.4662 2.1230
10.8174 -14.2300 2.1233
11.1340 -13.9866 2.1235
11.4439 -13.7349 2.1236
11.7480 -13.4760 2.1236
12.0462 -13.2104 2.1237
12.3383 -12.9382 2.1237
12.6243 -12.6596 2.1237
12.9041 -12.3746 2.1237
13.1774 -12.0835 2.1238
13.4442 -11.7863 2.1238
13.7043 -11.4832 2.1238
13.9575 -11.1745 2.1238
14.2038 -10.8601 2.1239
14.4430 -10.5403 2.1239
14.6750 -10.2153 2.1239
14.8998 -9.8851 2.1240
15.1171 -9.5500 2.1240
15.3269 -9.2101 2.1240
15.5290 -8.8657 2.1241
15.7234 -8.5168 2.1241
15.9100 -8.1636 2.1241
16.0886 -7.8064 2.1242
16.1459 -7.3934 2.1094
16.1559 -6.9658 2.0899
16.1700 -6.5476 2.0723
9.1998 -3.4881 1.1687
16.1919 -5.7290 2.0402
16.2027 -5.3287 2.0261
16.2133 -4.9337 2.0131
16.2238 -4.5436 2.0013
16.2341 -4.1578 1.9906
16.2444 -3.7760 1.9810
16.2545 -3.3975 1.9725
16.2646 -3.0222 1.9651
16.2747 -2.6495 1.9586
16.2846 -2.2790 1.9532
16.2945 -1.9104 1.9488
16.3044 -1.5433 1.9454
16.3136 -1.1772 1.9429
16.3227 -0.8119 1.9413
16.3317 -0.4470 1.9407
16.3407 -0.0822 1.9411
16.3498 0.2830 1.9424
16.3588 0.6489 1.9447
16.3679 1.0158 1.9480
16.3771 1.3841 1.9523
16.3862 1.7543 1.9576
16.3955 2.1267 1.9639
16.4047 2.5016 1.9712
16.4141 2.8795 1.9795
16.4235 3.2608 1.9890
16.4331 3.6460 1.9995
16.4421 4.0353 2.0110
16.4518 4.4295 2.0238
16.4617 4.8290 2.0378
16.4717 5.2342 2.0530
16.4819 5.6457 2.0695
16.4922 6.0641 2.0873
16.5027 6.4899 2.1064
16.5052 6.9205 2.1260
16.3469 7.2876 2.1260
16.1805 7.6511 2.1261
16.0059 8.0107 2.1261
15.8234 8.3664 2.1261
15.6329 8.7179 2.1262
15.4347 9.0651 2.1262
15.2287 9.4078 2.1263
15.0151 9.7458 2.1263
14.7940 10.0789 2.1264
14.5656 10.4070 2.1264
14.3284 10.7289 2.1263
14.0838 11.0451 2.1261
13.8322 11.3558 2.1258
13.5737 11.6607 2.1256
13.3085 11.9597 2.1254
13.0366 12.2526 2.1252
12.7583 12.5393 2.1249
12.4736 12.8197 2.1247
12.1828 13.0935 2.1244
11.8859 13.3608 2.1242
11.5831 13.6212 2.1239
11.2746 13.8748 2.1237
10.9605 14.1214 2.1234
10.6410 14.3608 2.1231
10.3166 14.5934 2.1229
9.9881 14.8202 2.1229
9.6546 15.0396 2.1229
9.3162 15.2514 2.1229
8.9733 15.4557 2.1229
8.6259 15.6523 2.1229
8.2741 15.8410 2.1229
8.2059 16.6038 2.2000
8.1011 17.3573 2.2753
7.7114 17.5339 2.2753
7.3178 17.7018 2.2753
6.9207 17.8608 2.2753
6.5200 18.0109 2.2753
6.1161 18.1520 2.2753
5.7092 18.2841 2.2753
5.2994 18.4070 2.2753
4.8870 18.5208 2.2753
4.4721 18.6253 2.2753
4.0550 18.7206 2.2753
3.6359 18.8065 2.2753
3.2150 18.8830 2.2753
2.7924 18.9501 2.2753
2.3685 19.0077 2.2753
1.9433 19.0559 2.2753
1.5173 19.0945 2.2753
1.0904 19.1236 2.2753
0.6630 19.1432 2.2753
0.2353 19.1532 2.2753
-0.1925 19.1537 2.2753
-0.6203 19.1447 2.2753
-1.0477 19.1260 2.2753
-1.4746 19.0978 2.2753
-1.9008 19.0602 2.2753
-2.3260 19.0129 2.2753
-2.7500 18.9562 2.2753
-3.1727 18.8901 2.2753
-3.5938 18.8145 2.2753
-4.0132 18.7296 2.2753
-4.4305 18.6353 2.2753
-4.8456 18.5317 2.2753
-5.2583 18.4190 2.2753
-5.6683 18.2968 2.2753
-6.0756 18.1656 2.2753
-6.4797 18.0254 2.2753
-6.8807 17.8762 2.2753
-7.2782 17.7180 2.2753
-7.6722 17.5511 2.2753
-8.0622 17.3753 2.2753
-8.4483 17.1910 2.2753
-8.8301 16.9980 2.2753
-9.2076 16.7965 2.2753
-9.5804 16.5867 2.2753
-9.9485 16.3686 2.2753
-10.3115 16.1423 2.2753
-10.6695 15.9080 2.2753
-11.0222 15.6657 2.2753
-11.3693 15.4156 2.2753
-11.7108 15.1578 2.2753
-12.0464 14.8925 2.2753
-12.3760 14.6197 2.2753
-12.6994 14.3397 2.2753
-13.0165 14.0525 2.2753
-13.3272 13.7582 2.2753
-13.6311 13.4572 2.2753
-13.9282 13.1494 2.2753
-14.2184 12.8350 2.2753
-14.5016 12.5142 2.2753
-14.7775 12.1872 2.2753
-15.0460 11.8541 2.2753
-15.1951 11.4309 2.2587
-15.2017 10.9129 2.2229
-15.2079 10.4107 2.1892
-15.2138 9.9231 2.1576
-15.2266 9.4536 2.1289
-15.3901 9.0852 2.1229
-15.5892 8.7392 2.1229
-15.7805 8.3889 2.1229
-15.9639 8.0343 2.1229
-16.1394 7.6758 2.1229
-16.3068 7.3134 2.1229
-16.2211 6.8440 2.0913
-16.2318 6.4253 2.0737
-16.7599 6.2051 2.1229
-16.8943 5.8293 2.1229
-17.0202 5.4505 2.1229
-17.1378 5.0690 2.1229
-17.2467 4.6850 2.1229
-17.3470 4.2986 2.1229
-17.2751 3.8734 2.1030
-17.2851 3.4721 2.0942
-17.2952 3.0739 2.0866
-17.3051 2.6785 2.0801
-17.3150 2.2853 2.0746
-17.3248 1.8940 2.0702
-17.3346 1.5041 2.0668
-17.3444 1.1153 2.0645
-17.3541 0.7272 2.0632
-17.3639 0.3394 2.0630
-17.3736 -0.0485 2.0637
-17.3258 -0.4355 2.0587
-17.3257 -0.8230 2.0604
-17.3255 -1.2113 2.0630
-17.3253 -1.6008 2.0668
-17.3251 -1.9920 2.0715
-17.3249 -2.3851 2.0774
-17.3248 -2.7807 2.0843
-17.3246 -3.1791 2.0923
-17.3244 -3.5808 2.1014
-17.3242 -3.9862 2.1116
-17.3227 -4.3954 2.1229
-17.2202 -4.7812 2.1229
-17.1092 -5.1646 2.1229
-16.9896 -5.5454 2.1229
-16.8615 -5.9235 2.1229
-16.7250 -6.2986 2.1229
-16.5801 -6.6706 2.1229
-16.4270 -7.0393 2.1229
-16.2657 -7.4044 2.1229
-16.0962 -7.7658 2.1229
-15.9188 -8.1234 2.1229
-15.7334 -8.4769 2.1229
-15.5402 -8.8262 2.1229
-15.3391 -9.1710 2.1229
-15.2200 -9.5677 2.1355
-15.2123 -10.0437 2.1653
-15.2064 -10.5349 2.1974
-15.2001 -11.0409 2.2316
-15.1933 -11.5631 2.2680
-14.9795 -11.9380 2.2753
-14.7091 -12.2696 2.2753
-14.4315 -12.5950 2.2753
-14.1466 -12.9142 2.2753
-13.8546 -13.2269 2.2753
-13.5557 -13.5331 2.2753
-13.2501 -13.8324 2.2753
-12.9378 -14.1249 2.2753
-12.6191 -14.4104 2.2753
-12.2941 -14.6886 2.2753
-11.9630 -14.9595 2.2753
-11.6259 -15.2230 2.2753
-11.2830 -15.4788 2.2753
-10.9345 -15.7270 2.2753
-10.5805 -15.9673 2.2753
-10.2213 -16.1996 2.2753
-9.8569 -16.4238 2.2753
-9.4876 -16.6399 2.2753
-9.1136 -16.8477 2.2753
-8.7350 -17.0470 2.2753
-8.3521 -17.2379 2.2753
-7.9650 -17.4201 2.2753
-7.5740 -17.5936 2.2753
-7.1792 -17.7584 2.2753
-6.7808 -17.9143 2.2753
-6.3790 -18.0613 2.2753
-5.9740 -18.1993 2.2753
-5.5660 -18.3281 2.2753
-5.1553 -18.4479 2.2753
-4.7420 -18.5584 2.2753
-4.3263 -18.6597 2.2753
-3.9085 -18.7517 2.2753
-3.4887 -18.8343 2.2753
-3.0672 -18.9075 2.2753
-2.6441 -18.9713 2.2753
-2.2197 -19.0256 2.2753
-1.7943 -19.0705 2.2753
-1.3679 -19.1058 2.2753
-0.9408 -19.1316 2.2753
-0.5133 -19.1478 2.2753
-0.0855 -19.1545 2.2753
0.3423 -19.1516 2.2753
0.7699 -19.1392 2.2753
1.1972 -19.1172 2.2753
1.6239 -19.0857 2.2753
2.0498 -19.0447 2.2753
2.4746 -18.9942 2.2753
2.8982 -18.9342 2.2753
3.3204 -18.8647 2.2753
3.7409 -18.7858 2.2753
4.1596 -18.6976 2.2753
4.5761 -18.6000 2.2753
4.9904 -18.4932 2.2753
5.4021 -18.3771 2.2753
5.8112 -18.2519 2.2753
6.2174 -18.1176 2.2753
6.6205 -17.9742 2.2753
7.0203 -17.8218 2.2753
7.4166 -17.6606 2.2753
7.8092 -17.4905 2.2753
8.1923 -17.2999 2.2737
8.2102 -16.3816 2.1766
8.3625 -15.7948 2.1229
8.7132 -15.6038 2.1229
9.0595 -15.4053 2.1229
9.4013 -15.1991 2.1229
9.7384 -14.9854 2.1229
10.0707 -14.7641 2.1229
10.3980 -14.5356 2.1229
10.7214 -14.3016 2.1232
11.0396 -14.0604 2.1235
11.3516 -13.8113 2.1236
11.6574 -13.5544 2.1236
11.9573 -13.2908 2.1237
12.2513 -13.0206 2.1237
12.5392 -12.7439 2.1237
12.8209 -12.4608 2.1237
13.0961 -12.1715 2.1238
13.3649 -11.8761 2.1238
13.6270 -11.5748 2.1238
13.8823 -11.2677 2.1238
14.1306 -10.9550 2.1239
14.3720 -10.6368 2.1239
14.6062 -10.3133 2.1239
14.8331 -9.9847 2.1240
15.0527 -9.6510 2.1240
15.2647 -9.3126 2.1240
15.4691 -8.9695 2.1241
15.6659 -8.6219 2.1241
15.8548 -8.2700 2.1241
16.0359 -7.9140 2.1242
16.1429 -7.5232 2.1156
16.1529 -7.0932 2.0956
16.1666 -6.6727 2.0775
9.2318 -3.5712 1.1758
9.2764 -3.3522 1.1717
16.1995 -5.4482 2.0302
16.2101 -5.0517 2.0169
16.2206 -4.6601 2.0047
16.2310 -4.2731 1.9937
16.2413 -3.8901 1.9838
16.2515 -3.5107 1.9750
16.2616 -3.1345 1.9672
16.2717 -2.7610 1.9605
16.2816 -2.3899 1.9548
16.2915 -2.0208 1.9500
16.3014 -1.6532 1.9463
16.3109 -1.2869 1.9435
16.3200 -0.9214 1.9417
16.3290 -0.5565 1.9408
16.3380 -0.1916 1.9409
16.3471 0.1734 1.9419
16.3561 0.5390 1.9439
16.3652 0.9056 1.9469
16.3743 1.2735 1.9509
16.3835 1.6431 1.9559
16.3927 2.0147 1.9619
16.4019 2.3888 1.9689
16.4113 2.7658 1.9769
16.4207 3.1461 1.9860
16.4302 3.5300 1.9962
16.4392 3.9180 2.0074
16.4489 4.3107 2.0199
16.4587 4.7086 2.0335
16.4687 5.1120 2.0483
16.4788 5.5216 2.0644
16.4891 5.9378 2.0818
16.4995 6.3614 2.1005
16.5102 6.7928 2.1207
16.3953 7.1778 2.1260
16.2313 7.5424 2.1260
16.0591 7.9032 2.1261
15.8789 8.2601 2.1261
15.6909 8.6129 2.1262
15.4949 8.9614 2.1262
15.2913 9.3055 2.1263
15.0800 9.6449 2.1263
14.8611 9.9795 2.1264
14.6349 10.3091 2.1264
14.4004 10.6330 2.1263
14.1579 10.9509 2.1261
13.9084 11.2632 2.1259
13.6520 11.5699 2.1257
13.3887 11.8706 2.1255
13.1189 12.1654 2.1252
12.8424 12.4540 2.1250
12.5597 12.7363 2.1248
12.2707 13.0121 2.1245
11.9756 13.2813 2.1243
11.6745 13.5438 2.1240
11.3677 13.7995 2.1237
11.0553 14.0482 2.1235
10.7374 14.2898 2.1232
10.4142 14.5241 2.1229
10.0871 14.7529 2.1229
9.7551 14.9745 2.1229
9.4182 15.1887 2.1229
9.0766 15.3952 2.1229
8.7305 15.5941 2.1229
8.3801 15.7852 2.1229
8.2111 16.3378 2.1720
8.1932 17.2521 2.2687
7.8287 17.4818 2.2753
7.4363 17.6523 2.2753
7.0402 17.8140 2.2753
6.6405 17.9668 2.2753
6.2376 18.1106 2.2753
5.8316 18.2454 2.2753
5.4227 18.3711 2.2753
5.0110 18.4876 2.2753
4.5968 18.5949 2.2753
4.1804 18.6930 2.2753
3.7618 18.7817 2.2753
3.3414 18.8610 2.2753
2.9193 18.9309 2.2753
2.4958 18.9914 2.2753
2.0710 19.0423 2.2753
1.6452 19.0839 2.2753
1.2186 19.1159 2.2753
0.7913 19.1383 2.2753
0.3636 19.1512 2.2753
-0.0641 19.1546 2.2753
-0.4920 19.1484 2.2753
-0.9195 19.1326 2.2753
-1.3466 19.1073 2.2753
-1.7730 19.0725 2.2753
-2.1985 19.0281 2.2753
-2.6230 18.9742 2.2753
-3.0461 18.9109 2.2753
-3.4677 18.8382 2.2753
-3.8875 18.7561 2.2753
-4.3055 18.6645 2.2753
-4.7213 18.5637 2.2753
-5.1348 18.4537 2.2753
-5.5456 18.3343 2.2753
-5.9537 18.2059 2.2753
-6.3588 18.0684 2.2753
-6.7608 17.9219 2.2753
-7.1593 17.7664 2.2753
-7.5544 17.6021 2.2753
-7.9456 17.4290 2.2753
-8.3329 17.2472 2.2753
-8.7161 17.0567 2.2753
-9.0948 16.8578 2.2753
-9.4691 16.6505 2.2753
-9.8386 16.4349 2.2753
-10.2032 16.2110 2.2753
-10.5627 15.9791 2.2753
-10.9169 15.7392 2.2753
-11.2657 15.4914 2.2753
-11.6089 15.2360 2.2753
-11.9463 14.9729 2.2753
-12.2777 14.7022 2.2753
-12.6031 14.4244 2.2753
-12.9221 14.1394 2.2753
-13.2347 13.8472 2.2753
-13.5406 13.5482 2.2753
-13.8398 13.2424 2.2753
-14.1321 12.9300 2.2753
-14.4174 12.6111 2.2753
-14.6955 12.2860 2.2753
-14.9662 11.9547 2.2753
-15.1930 11.5896 2.2699
-15.1998 11.0666 2.2334
-15.2061 10.5598 2.1991
-15.2120 10.0679 2.1669
-15.2187 9.5905 2.1368
-15.3289 9.1882 2.1229
-15.5303 8.8435 2.1229
-15.7239 8.4944 2.1229
-15.9097 8.1411 2.1229
-16.0876 7.7837 2.1229
-16.2574 7.4225 2.1229
-16.4191 7.0575 2.1229
-16.2285 6.5502 2.0788
-16.5279 6.2455 2.0988
-16.8548 5.9423 2.1229
-16.9834 5.5644 2.1229
-17.1034 5.1837 2.1229
-17.2149 4.8004 2.1229
-17.3178 4.4147 2.1229
-18.8439 4.3580 2.2975
-17.2821 3.5921 2.0967
-17.2922 3.1931 2.0888
-17.3021 2.7969 2.0819
-17.3120 2.4030 2.0761
-17.3219 2.0112 2.0714
-17.3317 1.6209 2.0677
-17.3414 1.2319 2.0651
-17.3512 0.8436 2.0635
-17.3609 0.4557 2.0629
-17.3707 0.0679 2.0634
-17.3259 -0.3193 2.0584
-17.3257 -0.7066 2.0598
-17.3255 -1.0947 2.0621
-17.3253 -1.4838 2.0655
-17.3252 -1.8745 2.0700
-17.3250 -2.2670 2.0755
-17.3248 -2.6617 2.0821
-17.3246 -3.0593 2.0898
-17.3244 -3.4599 2.0985
-17.3243 -3.8641 2.1084
-17.3241 -4.2724 2.1195
-17.2519 -4.6657 2.1229
-17.1434 -5.0498 2.1229
-17.0264 -5.4315 2.1229
-16.9008 -5.8104 2.1229
-16.7668 -6.1864 2.1229
-16.6244 -6.5594 2.1229
-16.4738 -6.9290 2.1229
-16.3149 -7.2952 2.1229
-16.1479 -7.6578 2.1229
-15.9729 -8.0165 2.1229
-15.7899 -8.3713 2.1229
-15.5989 -8.7219 2.1229
-15.4003 -9.0681 2.1229
-15.2278 -9.4313 2.1277
-15.2140 -9.8991 2.1561
-15.2082 -10.3860 2.1876
-15.2020 -10.8875 2.2211
-15.1954 -11.4047 2.2568
-15.0592 -11.8374 2.2753
-14.7911 -12.1707 2.2753
-14.5155 -12.4980 2.2753
-14.2328 -12.8191 2.2753
-13.9429 -13.1338 2.2753
-13.6461 -13.4419 2.2753
-13.3425 -13.7434 2.2753
-13.0322 -14.0379 2.2753
-12.7154 -14.3255 2.2753
-12.3923 -14.6059 2.2753
-12.0630 -14.8791 2.2753
-11.7276 -15.1447 2.2753
-11.3865 -15.4029 2.2753
-11.0397 -15.6534 2.2753
-10.6873 -15.8960 2.2753
-10.3296 -16.1308 2.2753
-9.9667 -16.3574 2.2753
-9.5989 -16.5760 2.2753
-9.2263 -16.7862 2.2753
-8.8491 -16.9881 2.2753
-8.4674 -17.1815 2.2753
-8.0816 -17.3663 2.2753
-7.6917 -17.5425 2.2753
-7.2980 -17.7099 2.2753
-6.9007 -17.8685 2.2753
-6.4999 -18.0181 2.2753
-6.0958 -18.1588 2.2753
-5.6887 -18.2904 2.2753
-5.2788 -18.4129 2.2753
-4.8662 -18.5262 2.2753
-4.4513 -18.6303 2.2753
-4.0341 -18.7251 2.2753
-3.6148 -18.8105 2.2753
-3.1938 -18.8865 2.2753
-2.7712 -18.9532 2.2753
-2.3472 -19.0103 2.2753
-1.9220 -19.0580 2.2753
-1.4959 -19.0962 2.2753
-1.0690 -19.1248 2.2753
-0.6416 -19.1439 2.2753
-0.2139 -19.1535 2.2753
0.2140 -19.1535 2.2753
0.6417 -19.1439 2.2753
1.0691 -19.1248 2.2753
1.4960 -19.0962 2.2753
1.9221 -19.0580 2.2753
2.3473 -19.0103 2.2753
2.7713 -18.9531 2.2753
3.1939 -18.8865 2.2753
3.6149 -18.8105 2.2753
4.0342 -18.7251 2.2753
4.4513 -18.6303 2.2753
4.8663 -18.5262 2.2753
5.2789 -18.4129 2.2753
5.6888 -18.2904 2.2753
6.0959 -18.1588 2.2753
6.5000 -18.0181 2.2753
6.9008 -17.8685 2.2753
7.2981 -17.7099 2.2753
7.6918 -17.5425 2.2753
8.0817 -17.3663 2.2753
8.2050 -16.6488 2.2048
8.2564 -15.8502 2.1229
8.6084 -15.6618 2.1229
8.9561 -15.4657 2.1229
9.2993 -15.2618 2.1229
9.6378 -15.0503 2.1229
9.9715 -14.8313 2.1229
10.3003 -14.6049 2.1229
10.6249 -14.3726 2.1231
10.9447 -14.1335 2.1234
11.2588 -13.8870 2.1236
11.5662 -13.6322 2.1236
11.8680 -13.3706 2.1236
12.1637 -13.1023 2.1237
12.4535 -12.8275 2.1237
12.7370 -12.5464 2.1237
13.0142 -12.2589 2.1237
13.2849 -11.9653 2.1238
13.5490 -11.6658 2.1238
13.8064 -11.3604 2.1238
14.0569 -11.0494 2.1239
14.3003 -10.7328 2.1239
14.5367 -10.4109 2.1239
14.7658 -10.0838 2.1239
14.9876 -9.7516 2.1240
15.2019 -9.4146 2.1240
15.4086 -9.0729 2.1241
15.6077 -8.7267 2.1241
15.7990 -8.3760 2.1241
15.9824 -8.0212 2.1242
16.1398 -7.6539 2.1218
16.1499 -7.2214 2.1014
16.1598 -6.7969 2.0824
16.1744 -6.3818 2.0654
9.2267 -3.4043 1.1682
16.1963 -5.5682 2.0344
16.2070 -5.1701 2.0207
16.2175 -4.7771 2.0082
16.2279 -4.3888 1.9969
16.2383 -4.0046 1.9867
16.2485 -3.6242 1.9775
16.2586 -3.2470 1.9694
16.2687 -2.8728 1.9624
16.2786 -2.5010 1.9564
16.2886 -2.1313 1.9513
16.2984 -1.7634 1.9473
16.3082 -1.3967 1.9443
16.3172 -1.0310 1.9421
16.3263 -0.6659 1.9409
16.3353 -0.3011 1.9407
16.3444 0.0638 1.9415
16.3534 0.4293 1.9432
16.3625 0.7955 1.9459
16.3716 1.1630 1.9496
16.3807 1.5320 1.9543
16.3899 1.9030 1.9600
16.3992 2.2763 1.9667
16.4085 2.6524 1.9744
16.4179 3.0316 1.9832
16.4273 3.4144 1.9930
16.4369 3.8013 2.0040
16.4459 4.1924 2.0160
16.4557 4.5887 2.0293
16.4657 4.9904 2.0437
16.4757 5.3980 2.0594
16.4860 5.8122 2.0764
16.4964 6.2335 2.0948
16.5070 6.6625 2.1145
16.4429 7.0678 2.1260
16.2813 7.4334 2.1260
16.1116 7.7954 2.1261
15.9338 8.1535 2.1261
15.7481 8.5075 2.1262
15.5545 8.8573 2.1262
15.3532 9.2027 2.1263
15.1442 9.5436 2.1263
14.9276 9.8796 2.1264
14.7035 10.2108 2.1264
14.4717 10.5365 2.1264
14.2314 10.8561 2.1262
13.9840 11.1701 2.1260
13.7296 11.4785 2.1258
13.4684 11.7810 2.1255
13.2005 12.0776 2.1253
12.9260 12.3681 2.1251
12.6452 12.6522 2.1248
12.3580 12.9300 2.1246
12.0647 13.2012 2.1243
11.7655 13.4658 2.1241
11.4604 13.7235 2.1238
11.1496 13.9743 2.1236
10.8334 14.2180 2.1233
10.5117 14.4546 2.1230
10.1857 14.6850 2.1229
9.8552 14.9088 2.1229
9.5198 15.1252 2.1229
9.1796 15.3341 2.1229
8.8349 15.5353 2.1229
8.4857 15.7287 2.1229
8.2161 16.0785 2.1448
8.1987 16.9694 2.2387
7.9456 17.4290 2.2753
7.5544 17.6021 2.2753
7.1594 17.7664 2.2753
6.7608 17.9219 2.2753
6.3589 18.0684 2.2753
5.9537 18.2059 2.2753
5.5456 18.3344 2.2753
5.1347 18.4536 2.2753
4.7213 18.5637 2.2753
4.3055 18.6645 2.2753
3.8876 18.7560 2.2753
3.4677 18.8382 2.2753
3.0461 18.9110 2.2753
2.6230 18.9743 2.2753
2.1986 19.0281 2.2753
1.7730 19.0725 2.2753
1.3466 19.1073 2.2753
0.9195 19.1326 2.2753
0.4920 19.1484 2.2753
0.0642 19.1546 2.2753
-0.3636 19.1512 2.2753
-0.7913 19.1383 2.2753
-1.2185 19.1159 2.2753
-1.6451 19.0839 2.2753
-2.0710 19.0424 2.2753
-2.4958 18.9914 2.2753
-2.9193 18.9309 2.2753
-3.3414 18.8610 2.2753
-3.7618 18.7817 2.2753
-4.1803 18.6930 2.2753
-4.5968 18.5949 2.2753
-5.0110 18.4876 2.2753
-5.4226 18.3711 2.2753
-5.8316 18.2454 2.2753
-6.2376 18.1106 2.2753
-6.6405 17.9668 2.2753
-7.0402 17.8140 2.2753
-7.4362 17.6523 2.2753
-7.8287 17.4818 2.2753
-8.2172 17.3026 2.2753
-8.6016 17.1148 2.2753
-8.9817 16.9184 2.2753
-9.3572 16.7136 2.2753
-9.7282 16.5004 2.2753
-10.0943 16.2790 2.2753
-10.4554 16.0495 2.2753
-10.8112 15.8120 2.2753
-11.1617 15.5666 2.2753
-11.5066 15.3134 2.2753
-11.8457 15.0526 2.2753
-12.1790 14.7843 2.2753
-12.5061 14.5086 2.2753
-12.8271 14.2256 2.2753
-13.1415 13.9356 2.2753
-13.4495 13.6386 2.2753
-13.7508 13.3349 2.2753
-14.0452 13.0244 2.2753
-14.3326 12.7074 2.2753
-14.6128 12.3842 2.2753
-14.8858 12.0547 2.2753
-15.1513 11.7192 2.2753
-15.1978 11.2217 2.2441
-15.2042 10.7102 2.2092
-15.2103 10.2140 2.1763
-15.2160 9.7319 2.1455
-15.2670 9.2907 2.1229
-15.4707 8.9473 2.1229
-15.6666 8.5996 2.1229
-15.8548 8.2475 2.1229
-16.0351 7.8913 2.1229
-16.2073 7.5313 2.1229
-16.3715 7.1674 2.1229
-16.2253 6.6757 2.0841
-16.2613 6.2696 2.0702
-16.8147 6.0551 2.1229
-16.9457 5.6781 2.1229
-17.0683 5.2982 2.1229
-17.1824 4.9156 2.1229
-17.2879 4.5307 2.1229
-17.3847 4.1434 2.1229
-17.2791 3.7124 2.0994
-17.2892 3.3125 2.0911
-17.2991 2.9154 2.0839
-17.3090 2.5209 2.0778
-17.3189 2.1285 2.0727
-17.3287 1.7378 2.0687
-17.3385 1.3485 2.0658
-17.3483 0.9601 2.0639
-17.3580 0.5721 2.0630
-17.3678 0.1843 2.0632
-17.3259 -0.2032 2.0582
-17.3257 -0.5904 2.0592
-17.3256 -0.9782 2.0613
-17.3254 -1.3670 2.0644
-17.3252 -1.7571 2.0685
-17.3250 -2.1490 2.0737
-17.3249 -2.5430 2.0800
-17.3247 -2.9397 2.0873
-17.3245 -3.3394 2.0958
-17.3243 -3.7425 2.1054
-17.3241 -4.1495 2.1161
-17.2828 -4.5500 2.1229
-17.1768 -4.9349 2.1229
-17.0623 -5.3173 2.1229
-16.9393 -5.6970 2.1229
-16.8079 -6.0739 2.1229
-16.6680 -6.4478 2.1229
-16.5199 -6.8184 2.1229
-16.3635 -7.1857 2.1229
-16.1989 -7.5494 2.1229
-16.0262 -7.9093 2.1229
-15.8456 -8.2653 2.1229
-15.6570 -8.6171 2.1229
-15.4607 -8.9647 2.1229
-15.2566 -9.3077 2.1229
-15.2157 -9.7557 2.1470
-15.2100 -10.2385 2.1779
-15.2039 -10.7354 2.2109
-15.1974 -11.2478 2.2459
-15.1381 -11.7361 2.2753
-14.8722 -12.0712 2.2753
-14.5989 -12.4005 2.2753
-14.3183 -12.7235 2.2753
-14.0306 -13.0401 2.2753
-13.7359 -13.3502 2.2753
-13.4343 -13.6536 2.2753
-13.1260 -13.9503 2.2753
-12.8111 -14.2399 2.2753
-12.4899 -14.5225 2.2753
-12.1624 -14.7979 2.2753
-11.8289 -15.0658 2.2753
-11.4894 -15.3262 2.2753
-11.1443 -15.5790 2.2753
-10.7935 -15.8241 2.2753
-10.4374 -16.0612 2.2753
-10.0761 -16.2903 2.2753
-9.7098 -16.5113 2.2753
-9.3385 -16.7240 2.2753
-8.9627 -16.9284 2.2753
-8.5824 -17.1244 2.2753
-8.1978 -17.3118 2.2753
-7.8091 -17.4906 2.2753
-7.4165 -17.6606 2.2753
-7.0202 -17.8218 2.2753
-6.6205 -17.9742 2.2753
-6.2174 -18.1176 2.2753
-5.8112 -18.2519 2.2753
-5.4021 -18.3771 2.2753
-4.9903 -18.4932 2.2753
-4.5760 -18.6001 2.2753
-4.1594 -18.6976 2.2753
-3.7408 -18.7859 2.2753
-3.3203 -18.8647 2.2753
-2.8981 -18.9342 2.2753
-2.4745 -18.9942 2.2753
-2.0497 -19.0447 2.2753
-1.6238 -19.0857 2.2753
-1.1971 -19.1172 2.2753
-0.7698 -19.1392 2.2753
-0.3422 -19.1516 2.2753
0.0857 -19.1545 2.2753
0.5135 -19.1478 2.2753
0.9410 -19.1316 2.2753
1.3680 -19.1058 2.2753
1.7943 -19.0705 2.2753
2.2198 -19.0256 2.2753
2.6442 -18.9713 2.2753
3.0673 -18.9075 2.2753
3.4888 -18.8343 2.2753
3.9086 -18.7517 2.2753
4.3264 -18.6597 2.2753
4.7421 -18.5584 2.2753
5.1554 -18.4479 2.2753
5.5661 -18.3282 2.2753
5.9741 -18.1993 2.2753
6.3791 -18.0613 2.2753
6.7809 -17.9143 2.2753
7.1793 -17.7584 2.2753
7.5741 -17.5936 2.2753
7.9652 -17.4201 2.2753
8.1997 -16.9228 2.2337
8.2170 -16.0356 2.1403
8.5032 -15.7192 2.1229
8.8522 -15.5253 2.1229
9.1968 -15.3237 2.1229
9.5367 -15.1145 2.1229
9.8719 -14.8978 2.1229
10.2022 -14.6736 2.1229
10.5280 -14.4429 2.1230
10.8493 -14.2060 2.1233
11.1653 -13.9619 2.1236
11.4746 -13.7093 2.1236
11.7780 -13.4498 2.1236
12.0757 -13.1835 2.1237
12.3672 -12.9107 2.1237
12.6527 -12.6314 2.1237
12.9318 -12.3458 2.1237
13.2044 -12.0540 2.1238
13.4706 -11.7562 2.1238
13.7299 -11.4526 2.1238
13.9825 -11.1432 2.1238
14.2281 -10.8283 2.1239
14.4665 -10.5081 2.1239
14.6978 -10.1825 2.1239
14.9218 -9.8518 2.1240
15.1384 -9.5163 2.1240
15.3474 -9.1759 2.1240
15.5487 -8.8310 2.1241
15.7424 -8.4817 2.1241
15.9282 -8.1281 2.1241
16.1060 -7.7704 2.1242
16.1469 -7.3502 2.1074
16.1569 -6.9234 2.0880
16.1711 -6.5060 2.0705
9.1999 -3.4647 1.1677
16.1930 -5.6887 2.0387
16.2038 -5.2889 2.0247
16.2143 -4.8945 2.0119
16.2248 -4.5048 2.0002
16.2352 -4.1194 1.9896
16.2454 -3.7379 1.9801
16.2556 -3.3599 1.9717
16.2656 -2.9848 1.9644
16.2756 -2.6123 1.9581
16.2856 -2.2421 1.9527
16.2955 -1.8736 1.9484
16.3053 -1.5066 1.9451
16.3145 -1.1407 1.9427
16.3236 -0.7754 1.9412
16.3326 -0.4105 1.9407
16.3416 -0.0457 1.9412
16.3507 0.3196 1.9426
16.3597 0.6855 1.9450
16.3688 1.0526 1.9484
16.3780 1.4211 1.9528
16.3871 1.7915 1.9582
16.3964 2.1640 1.9645
16.4057 2.5393 1.9720
16.4150 2.9175 1.9804
16.4245 3.2992 1.9900
16.4340 3.6848 2.0006
16.4430 4.0745 2.0123
16.4528 4.4692 2.0252
16.4627 4.8692 2.0393
16.4727 5.2750 2.0546
16.4829 5.6872 2.0712
16.4932 6.1063 2.0891
16.5038 6.5330 2.1084
16.4898 6.9574 2.1260
16.3306 7.3241 2.1260
16.1634 7.6872 2.1261
15.9880 8.0465 2.1261
15.8047 8.4017 2.1262
15.6134 8.7529 2.1262
15.4144 9.0996 2.1263
15.2077 9.4418 2.1263
14.9933 9.7793 2.1263
14.7715 10.1120 2.1264
14.5423 10.4396 2.1264
14.3042 10.7608 2.1262
14.0590 11.0765 2.1260
13.8067 11.3866 2.1258
13.5475 11.6909 2.1256
13.2816 11.9893 2.1254
13.0091 12.2815 2.1251
12.7301 12.5676 2.1249
12.4448 12.8473 2.1247
12.1533 13.1206 2.1244
11.8559 13.3871 2.1242
11.5525 13.6469 2.1239
11.2434 13.8998 2.1236
10.9288 14.1457 2.1234
10.6088 14.3844 2.1231
10.2839 14.6164 2.1229
9.9549 14.8425 2.1229
9.6209 15.0611 2.1229
9.2821 15.2722 2.1229
8.9387 15.4757 2.1229
8.5908 15.6715 2.1229
8.2387 15.8594 2.1229
8.2041 16.6940 2.2095
8.0623 17.3753 2.2753
7.6722 17.5511 2.2753
7.2783 17.7180 2.2753
6.8808 17.8762 2.2753
6.4798 18.0254 2.2753
6.0756 18.1656 2.2753
5.6683 18.2968 2.2753
5.2583 18.4188 2.2753
4.8456 18.5317 2.2753
4.4305 18.6353 2.2753
4.0131 18.7296 2.2753
3.5938 18.8145 2.2753
3.1727 18.8901 2.2753
2.7500 18.9563 2.2753
2.3260 19.0130 2.2753
1.9007 19.0602 2.2753
1.4745 19.0978 2.2753
1.0477 19.1260 2.2753
0.6203 19.1446 2.2753
0.1925 19.1537 2.2753
-0.2353 19.1533 2.2753
-0.6630 19.1432 2.2753
-1.0904 19.1236 2.2753
-1.5172 19.0945 2.2753
-1.9433 19.0558 2.2753
-2.3684 19.0077 2.2753
-2.7924 18.9501 2.2753
-3.2149 18.8830 2.2753
-3.6359 18.8065 2.2753
-4.0550 18.7206 2.2753
-4.4721 18.6253 2.2753
-4.8870 18.5208 2.2753
-5.2994 18.4073 2.2753
-5.7092 18.2841 2.2753
-6.1161 18.1520 2.2753
-6.5200 18.0109 2.2753
-6.9207 17.8607 2.2753
-7.3178 17.7018 2.2753
-7.7113 17.5339 2.2753
-8.1010 17.3573 2.2753
-8.4867 17.1720 2.2753
-8.8681 16.9782 2.2753
-9.2451 16.7759 2.2753
-9.6174 16.5652 2.2753
-9.9850 16.3463 2.2753
-10.3476 16.1192 2.2753
-10.7051 15.8841 2.2753
-11.0571 15.6410 2.2753
-11.4037 15.3902 2.2753
-11.7446 15.1316 2.2753
-12.0796 14.8655 2.2753
-12.4087 14.5920 2.2753
-12.7315 14.3113 2.2753
-13.0479 14.0233 2.2753
-13.3579 13.7284 2.2753
-13.6611 13.4266 2.2753
-13.9576 13.1182 2.2753
-14.2471 12.8032 2.2753
-14.5295 12.4818 2.2753
-14.8046 12.1542 2.2753
-15.0724 11.8205 2.2753
-15.1958 11.3784 2.2550
-15.2023 10.8620 2.2194
-15.2085 10.3613 2.1860
-15.2143 9.8751 2.1546
-15.2292 9.4074 2.1264
-15.4104 9.0508 2.1229
-15.6087 8.7043 2.1229
-15.7992 8.3536 2.1229
-15.9818 7.9986 2.1229
-16.1565 7.6397 2.1229
-16.3231 7.2770 2.1229
-16.2222 6.8018 2.0895
-16.2332 6.3840 2.0720
-16.7737 6.1676 2.1229
-16.9072 5.7915 2.1229
-17.0324 5.4125 2.1229
-17.1490 5.0307 2.1229
-17.2571 4.6464 2.1229
-17.3566 4.2598 2.1229
-17.2761 3.8331 2.1021
-17.2861 3.4322 2.0934
-17.2961 3.0343 2.0859
-17.3061 2.6391 2.0795
-17.3160 2.2461 2.0741
-17.3258 1.8549 2.0698
-17.3356 1.4652 2.0666
-17.3453 1.0765 2.0643
-17.3551 0.6884 2.0632
-17.3648 0.3006 2.0630
-17.3746 -0.0874 2.0639
-17.3258 -0.4742 2.0588
-17.3256 -0.8618 2.0606
-17.3255 -1.2502 2.0634
-17.3253 -1.6399 2.0672
-17.3251 -2.0312 2.0721
-17.3249 -2.4245 2.0780
-17.3247 -2.8204 2.0850
-17.3246 -3.2191 2.0931
-17.3244 -3.6211 2.1024
-17.3242 -4.0269 2.1127
-17.3129 -4.4341 2.1229
-17.2096 -4.8197 2.1229
-17.0976 -5.2028 2.1229
-16.9771 -5.5834 2.1229
-16.8482 -5.9612 2.1229
-16.7108 -6.3360 2.1229
-16.5652 -6.7076 2.1229
-16.4112 -7.0759 2.1229
-16.2491 -7.4407 2.1229
-16.0788 -7.8018 2.1229
-15.9006 -8.1589 2.1229
-15.7144 -8.5121 2.1229
-15.5203 -8.8609 2.1229
-15.3186 -9.2053 2.1229
