ply
format ascii 1.0
element vertex 2094
property float32 x
property float32 y
property float32 z
end_header
-4.2280 -12.7837 2.2182
-3.9414 -12.8749 2.2182
-3.6529 -12.9597 2.2182
-3.3625 -13.0381 2.2182
-3.0705 -13.1099 2.2182
-2.7769 -13.1752 2.2182
-2.4819 -13.2340 2.2182
-2.1857 -13.2861 2.2182
-1.8885 -13.3316 2.2182
-1.5902 -13.3705 2.2182
-1.2912 -13.4026 2.2182
-0.9915 -13.4281 2.2182
-0.6914 -13.4469 2.2182
-0.3909 -13.4590 2.2182
-0.0902 -13.4644 2.2182
0.2105 -13.4631 2.2182
0.5112 -13.4550 2.2182
0.8116 -13.4402 2.2182
1.1116 -13.4187 2.2182
1.4110 -13.3906 2.2182
1.7097 -13.3557 2.2182
2.0075 -13.3142 2.2182
2.3044 -13.2661 2.2182
2.6001 -13.2113 2.2182
2.8946 -13.1499 2.2182
3.1875 -13.0820 2.2182
3.4789 -13.0075 2.2182
3.7686 -12.9266 2.2182
4.0563 -12.8392 2.2182
4.3421 -12.7454 2.2182
4.6256 -12.6452 2.2182
4.9069 -12.5388 2.2182
5.1857 -12.4261 2.2182
5.4620 -12.3071 2.2182
5.7355 -12.1821 2.2182
6.0062 -12.0509 2.2182
6.2738 -11.9138 2.2182
6.5383 -11.7707 2.2182
6.7996 -11.6217 2.2182
7.0574 -11.4670 2.2182
7.3118 -11.3065 2.2182
7.5625 -11.1404 2.2182
7.8094 -10.9687 2.2182
8.0524 -10.7915 2.2182
8.1967 -10.4877 2.1928
8.2073 -10.0312 2.1352
8.2173 -9.5978 2.0815
8.3660 -9.3401 2.0658
8.5726 -9.1517 2.0658
8.7748 -8.9580 2.0658
8.9727 -8.7597 2.0658
9.1661 -8.5572 2.0658
9.3549 -8.3503 2.0658
9.5391 -8.1393 2.0658
9.7185 -7.9242 2.0658
9.8931 -7.7052 2.0658
10.0627 -7.4823 2.0658
10.2273 -7.2557 2.0658
10.3868 -7.0254 2.0658
10.5418 -6.7922 2.0659
10.6915 -6.5554 2.0660
10.8359 -6.3154 2.0662
10.9749 -6.0722 2.0663
11.1084 -5.8258 2.0664
11.2363 -5.5766 2.0665
11.3587 -5.3245 2.0666
11.4753 -5.0697 2.0667
11.5862 -4.8124 2.0668
9.1041 -3.5452 1.6095
9.1115 -3.3157 1.5973
9.5330 -3.2298 1.6581
11.9713 -3.7600 2.0671
12.0527 -3.4918 2.0672
12.1280 -3.2219 2.0673
12.1973 -2.9503 2.0673
12.2604 -2.6772 2.0674
12.3175 -2.4027 2.0674
12.3683 -2.1271 2.0675
12.4130 -1.8503 2.0675
12.4514 -1.5727 2.0675
12.4836 -1.2942 2.0676
12.5095 -1.0151 2.0676
12.5292 -0.7355 2.0676
12.5425 -0.4554 2.0676
12.5496 -0.1752 2.0676
12.5504 0.1051 2.0676
12.5449 0.3854 2.0676
12.5331 0.6655 2.0676
12.5150 0.9452 2.0676
12.4907 1.2245 2.0676
12.4601 1.5032 2.0675
12.4232 1.7810 2.0675
12.3801 2.0580 2.0675
12.3307 2.3340 2.0674
12.2753 2.6087 2.0674
12.2136 2.8822 2.0673
12.1459 3.1541 2.0673
12.0720 3.4245 2.0672
11.9922 3.6932 2.0671
11.9063 3.9599 2.0671
11.8144 4.2247 2.0670
11.7166 4.4873 2.0669
11.6130 4.7477 2.0668
11.5035 5.0057 2.0667
11.3883 5.2611 2.0666
11.2674 5.5138 2.0665
11.1409 5.7638 2.0664
11.0088 6.0109 2.0663
10.8711 6.2549 2.0662
10.7281 6.4957 2.0661
10.5797 6.7333 2.0659
10.4260 6.9675 2.0658
10.2676 7.1985 2.0658
10.1043 7.4260 2.0658
9.9359 7.6498 2.0658
9.7626 7.8699 2.0658
9.5844 8.0859 2.0658
9.4014 8.2980 2.0658
9.2137 8.5059 2.0658
9.0215 8.7095 2.0658
8.8247 8.9088 2.0658
8.6235 9.1037 2.0658
8.4180 9.2940 2.0658
8.2277 9.5021 2.0706
8.2099 9.9209 2.1214
8.1994 10.3713 2.1780
8.1126 10.7464 2.2182
7.8705 10.9249 2.2182
7.6246 11.0980 2.2182
7.3748 11.2655 2.2182
7.1213 11.4274 2.2182
6.8644 11.5836 2.2182
6.6039 11.7340 2.2182
6.3402 11.8786 2.2182
6.0733 12.0172 2.2182
5.8034 12.1499 2.2182
5.5306 12.2765 2.2182
5.2550 12.3969 2.2182
4.9768 12.5112 2.2182
4.6962 12.6192 2.2182
4.4132 12.7210 2.2182
4.1279 12.8163 2.2182
3.8407 12.9054 2.2182
3.5515 12.9879 2.2182
3.2605 13.0640 2.2182
2.9679 13.1336 2.2182
2.6738 13.1966 2.2182
2.3784 13.2530 2.2182
2.0819 13.3028 2.2182
1.7842 13.3460 2.2182
1.4857 13.3825 2.2182
1.1865 13.4123 2.2182
0.8866 13.4355 2.2182
0.5863 13.4519 2.2182
0.2857 13.4617 2.2182
-0.0150 13.4647 2.2182
-0.3157 13.4610 2.2182
-0.6163 13.4506 2.2182
-0.9166 13.4335 2.2182
-1.2164 13.4097 2.2182
-1.5156 13.3792 2.2182
-1.8140 13.3420 2.2182
-2.1115 13.2981 2.2182
-2.4080 13.2476 2.2182
-2.7033 13.1905 2.2182
-2.9972 13.1269 2.2182
-3.2896 13.0567 2.2182
-3.5804 12.9799 2.2182
-3.8694 12.8968 2.2182
-4.1565 12.8071 2.2182
-4.4415 12.7111 2.2182
-4.7243 12.6087 2.2182
-5.0047 12.5000 2.2182
-5.2827 12.3852 2.2182
-5.5580 12.2641 2.2182
-5.8305 12.1369 2.2182
-6.1001 12.0036 2.2182
-6.3667 11.8644 2.2182
-6.6301 11.7192 2.2182
-6.8902 11.5682 2.2182
-7.1468 11.4115 2.2182
-7.3999 11.2490 2.2182
-7.6493 11.0809 2.2182
-7.8949 10.9073 2.2182
-8.1365 10.7283 2.2182
-8.3741 10.5439 2.2182
-8.6075 10.3542 2.2182
-8.8366 10.1594 2.2182
-9.0613 9.9595 2.2182
-9.2815 9.7546 2.2182
-9.4970 9.5449 2.2182
-9.7078 9.3304 2.2182
-9.9138 9.1112 2.2182
-10.1148 8.8875 2.2182
-10.2764 8.6305 2.2108
-10.4666 8.3988 2.2108
-10.6872 8.1903 2.2182
-10.8675 7.9496 2.2182
-11.0423 7.7049 2.2182
-11.2116 7.4563 2.2182
-11.3754 7.2041 2.2182
-11.5334 6.9482 2.2182
-11.6858 6.6889 2.2182
-11.8322 6.4262 2.2182
-11.9728 6.1604 2.2182
-12.1074 5.8914 2.2182
-12.2360 5.6195 2.2182
-12.3584 5.3449 2.2182
-12.4747 5.0675 2.2182
-12.5848 4.7876 2.2182
-12.6885 4.5054 2.2182
-12.7860 4.2209 2.2182
-12.8771 3.9342 2.2182
-12.9617 3.6456 2.2182
-13.0399 3.3552 2.2182
-13.1117 3.0632 2.2182
-13.1768 2.7696 2.2182
-13.2354 2.4746 2.2182
-13.2873 2.1784 2.2182
-13.3327 1.8810 2.2182
-13.3713 1.5828 2.2182
-13.4033 1.2838 2.2182
-13.4287 0.9841 2.2182
-13.4473 0.6839 2.2182
-13.4592 0.3834 2.2182
-13.4644 0.0827 2.2182
-13.4629 -0.2180 2.2182
-13.4547 -0.5187 2.2182
-13.4398 -0.8190 2.2182
-13.4181 -1.1190 2.2182
-13.3897 -1.4184 2.2182
-13.3547 -1.7171 2.2182
-13.3130 -2.0150 2.2182
-13.2647 -2.3118 2.2182
-13.2098 -2.6075 2.2182
-13.1483 -2.9019 2.2182
-13.0802 -3.1948 2.2182
-13.0055 -3.4861 2.2182
-12.9245 -3.7757 2.2182
-12.8369 -4.0634 2.2182
-12.7429 -4.3491 2.2182
-12.6426 -4.6327 2.2182
-12.5360 -4.9139 2.2182
-12.4232 -5.1926 2.2182
-12.3041 -5.4688 2.2182
-12.1788 -5.7423 2.2182
-12.0476 -6.0128 2.2182
-11.9102 -6.2804 2.2182
-11.7670 -6.5448 2.2182
-11.6179 -6.8060 2.2182
-11.4630 -7.0638 2.2182
-11.3024 -7.3181 2.2182
-11.1361 -7.5687 2.2182
-10.9643 -7.8155 2.2182
-10.7870 -8.0584 2.2182
-10.6043 -8.2973 2.2182
-10.4164 -8.5321 2.2182
-10.2232 -8.7626 2.2182
-10.0250 -8.9888 2.2182
-9.8217 -9.2104 2.2182
-9.6135 -9.4275 2.2182
-9.4006 -9.6398 2.2182
-9.1830 -9.8474 2.2182
-8.9607 -10.0500 2.2182
-8.7340 -10.2477 2.2182
-8.5030 -10.4402 2.2182
-8.2677 -10.6275 2.2182
-8.0283 -10.8095 2.2182
-7.7848 -10.9861 2.2182
-7.5375 -11.1572 2.2182
-7.2864 -11.3228 2.2182
-7.0317 -11.4827 2.2182
-6.7735 -11.6369 2.2182
-6.5119 -11.7853 2.2182
-6.2471 -11.9278 2.2182
-5.9791 -12.0643 2.2182
-5.7082 -12.1949 2.2182
-5.4344 -12.3193 2.2182
-5.1579 -12.4376 2.2182
-4.8788 -12.5497 2.2182
-4.5973 -12.6555 2.2182
-4.3135 -12.7551 2.2182
-4.0276 -12.8482 2.2182
-3.7396 -12.9350 2.2182
-3.4498 -13.0153 2.2182
-3.1583 -13.0891 2.2182
-2.8651 -13.1563 2.2182
-2.5706 -13.2171 2.2182
-2.2747 -13.2712 2.2182
-1.9777 -13.3186 2.2182
-1.6798 -13.3595 2.2182
-1.3810 -13.3937 2.2182
-1.0815 -13.4212 2.2182
-0.7815 -13.4420 2.2182
-0.4811 -13.4561 2.2182
-0.1804 -13.4635 2.2182
0.1203 -13.4642 2.2182
0.4210 -13.4581 2.2182
0.7215 -13.4454 2.2182
1.0216 -13.4259 2.2182
1.3212 -13.3997 2.2182
1.6201 -13.3669 2.2182
1.9183 -13.3274 2.2182
2.2155 -13.2812 2.2182
2.5116 -13.2284 2.2182
2.8064 -13.1690 2.2182
3.0998 -13.1030 2.2182
3.3917 -13.0305 2.2182
3.6819 -12.9515 2.2182
3.9702 -12.8661 2.2182
4.2566 -12.7742 2.2182
4.5408 -12.6759 2.2182
4.8228 -12.5714 2.2182
5.1024 -12.4605 2.2182
5.3794 -12.3434 2.2182
5.6537 -12.2202 2.2182
5.9253 -12.0909 2.2182
6.1938 -11.9556 2.2182
6.4593 -11.8142 2.2182
6.7216 -11.6670 2.2182
6.9805 -11.5140 2.2182
7.2359 -11.3552 2.2182
7.4877 -11.1908 2.2182
7.7357 -11.0208 2.2182
7.9800 -10.8452 2.2182
8.1933 -10.6295 2.2109
8.2042 -10.1657 2.1520
8.2143 -9.7255 2.0972
8.3033 -9.3965 2.0658
8.5111 -9.2089 2.0658
8.7146 -9.0166 2.0658
8.9138 -8.8197 2.0658
9.1086 -8.6184 2.0658
9.2988 -8.4128 2.0658
9.4843 -8.2030 2.0658
9.6652 -7.9892 2.0658
9.8412 -7.7713 2.0658
10.0123 -7.5495 2.0658
10.1784 -7.3240 2.0658
10.3395 -7.0949 2.0658
10.4958 -6.8625 2.0659
10.6472 -6.6268 2.0660
10.7932 -6.3877 2.0661
10.9338 -6.1454 2.0662
11.0689 -5.9000 2.0663
11.1985 -5.6517 2.0665
11.3226 -5.4004 2.0666
11.4409 -5.1464 2.0667
11.5535 -4.8898 2.0668
9.1019 -3.6147 1.6134
9.1093 -3.3842 1.6009
9.3241 -3.2289 1.6255
11.9457 -3.8401 2.0671
12.0288 -3.5725 2.0672
12.1060 -3.3030 2.0672
12.1771 -3.0319 2.0673
12.2421 -2.7593 2.0673
12.3010 -2.4852 2.0674
12.3537 -2.2099 2.0674
12.4002 -1.9335 2.0675
12.4406 -1.6561 2.0675
12.4746 -1.3778 2.0675
12.5024 -1.0989 2.0676
12.5240 -0.8194 2.0676
12.5392 -0.5395 2.0676
12.5482 -0.2593 2.0676
12.5509 0.0210 2.0676
12.5472 0.3013 2.0676
12.5373 0.5815 2.0676
12.5211 0.8614 2.0676
12.4986 1.1408 2.0676
12.4699 1.4197 2.0675
12.4349 1.6978 2.0675
12.3937 1.9750 2.0675
12.3462 2.2513 2.0674
12.2926 2.5264 2.0674
12.2328 2.8003 2.0673
12.1669 3.0727 2.0673
12.0948 3.3436 2.0672
12.0168 3.6128 2.0672
11.9326 3.8801 2.0671
11.8426 4.1455 2.0670
11.7466 4.4088 2.0669
11.6447 4.6698 2.0668
11.5370 4.9285 2.0667
11.4235 5.1847 2.0667
11.3043 5.4383 2.0665
11.1794 5.6891 2.0664
11.0490 5.9371 2.0663
10.9130 6.1820 2.0662
10.7716 6.4238 2.0661
10.6248 6.6624 2.0660
10.4727 6.8976 2.0658
10.3156 7.1295 2.0658
10.1539 7.3582 2.0658
9.9870 7.5830 2.0658
9.8151 7.8043 2.0658
9.6383 8.0215 2.0658
9.4568 8.2348 2.0658
9.2705 8.4439 2.0658
9.0796 8.6489 2.0658
8.8842 8.8495 2.0658
8.6843 9.0457 2.0658
8.4801 9.2374 2.0658
8.2717 9.4245 2.0658
8.2129 9.7902 2.1052
8.2026 10.2337 2.1606
8.1844 10.6918 2.2182
7.9436 10.8719 2.2182
7.6988 11.0466 2.2182
7.4501 11.2158 2.2182
7.1977 11.3794 2.2182
6.9418 11.5373 2.2182
6.6824 11.6895 2.2182
6.4196 11.8359 2.2182
6.1537 11.9763 2.2182
5.8847 12.1107 2.2182
5.6127 12.2391 2.2182
5.3380 12.3614 2.2182
5.0606 12.4776 2.2182
4.7806 12.5875 2.2182
4.4983 12.6911 2.2182
4.2137 12.7884 2.2182
3.9270 12.8793 2.2182
3.6384 12.9638 2.2182
3.3480 13.0419 2.2182
3.0559 13.1134 2.2182
2.7622 13.1783 2.2182
2.4672 13.2367 2.2182
2.1709 13.2886 2.2182
1.8736 13.3337 2.2182
1.5754 13.3722 2.2182
1.2763 13.4041 2.2182
0.9766 13.4293 2.2182
0.6764 13.4477 2.2182
0.3759 13.4595 2.2182
0.0752 13.4645 2.2182
-0.2255 13.4628 2.2182
-0.5262 13.4544 2.2182
-0.8265 13.4393 2.2182
-1.1265 13.4175 2.2182
-1.4259 13.3890 2.2182
-1.7246 13.3537 2.2182
-2.0224 13.3120 2.2182
-2.3192 13.2635 2.2182
-2.6149 13.2084 2.2182
-2.9092 13.1467 2.2182
-3.2021 13.0784 2.2182
-3.4934 13.0036 2.2182
-3.7829 12.9224 2.2182
-4.0706 12.8347 2.2182
-4.3562 12.7405 2.2182
-4.6397 12.6401 2.2182
-4.9209 12.5333 2.2182
-5.1996 12.4203 2.2182
-5.4757 12.3010 2.2182
-5.7490 12.1757 2.2182
-6.0195 12.0442 2.2182
-6.2870 11.9068 2.2182
-6.5514 11.7634 2.2182
-6.8125 11.6142 2.2182
-7.0702 11.4591 2.2182
-7.3244 11.2983 2.2182
-7.5749 11.1319 2.2182
-7.8216 10.9600 2.2182
-8.0644 10.7825 2.2182
-8.3033 10.5997 2.2182
-8.5379 10.4116 2.2182
-8.7683 10.2183 2.2182
-8.9943 10.0200 2.2182
-9.2159 9.8166 2.2182
-9.4328 9.6083 2.2182
-9.6451 9.3952 2.2182
-9.8525 9.1775 2.2182
-10.0550 8.9551 2.2182
-10.2183 8.6992 2.2108
-10.4100 8.4688 2.2108
-10.6321 8.2618 2.2182
-10.8140 8.0222 2.2182
-10.9904 7.7787 2.2182
-11.1614 7.5313 2.2182
-11.3268 7.2801 2.2182
-11.4866 7.0253 2.2182
-11.6406 6.7671 2.2182
-11.7889 6.5054 2.2182
-11.9313 6.2405 2.2182
-12.0676 5.9724 2.2182
-12.1980 5.7014 2.2182
-12.3223 5.4275 2.2182
-12.4404 5.1510 2.2182
-12.5524 4.8718 2.2182
-12.6581 4.5903 2.2182
-12.7575 4.3064 2.2182
-12.8504 4.0204 2.2182
-12.9371 3.7324 2.2182
-13.0172 3.4426 2.2182
-13.0908 3.1509 2.2182
-13.1579 2.8578 2.2182
-13.2185 2.5632 2.2182
-13.2724 2.2674 2.2182
-13.3198 1.9703 2.2182
-13.3604 1.6724 2.2182
-13.3944 1.3735 2.2182
-13.4218 1.0740 2.2182
-13.4424 0.7740 2.2182
-13.4563 0.4736 2.2182
-13.4636 0.1729 2.2182
-13.4641 -0.1278 2.2182
-13.4579 -0.4285 2.2182
-13.4449 -0.7290 2.2182
-13.4253 -1.0291 2.2182
-13.3990 -1.3287 2.2182
-13.3659 -1.6276 2.2182
-13.3263 -1.9257 2.2182
-13.2799 -2.2229 2.2182
-13.2270 -2.5189 2.2182
-13.1674 -2.8137 2.2182
-13.1013 -3.1071 2.2182
-13.0286 -3.3989 2.2182
-12.9495 -3.6890 2.2182
-12.8638 -3.9774 2.2182
-12.7718 -4.2637 2.2182
-12.6734 -4.5478 2.2182
-12.5687 -4.8298 2.2182
-12.4576 -5.1093 2.2182
-12.3404 -5.3862 2.2182
-12.2171 -5.6605 2.2182
-12.0876 -5.9320 2.2182
-11.9521 -6.2004 2.2182
-11.8106 -6.4658 2.2182
-11.6632 -6.7280 2.2182
-11.5101 -6.9868 2.2182
-11.3512 -7.2422 2.2182
-11.1866 -7.4939 2.2182
-11.0164 -7.7418 2.2182
-10.8408 -7.9860 2.2182
-10.6597 -8.2261 2.2182
-10.4733 -8.4621 2.2182
-10.2817 -8.6939 2.2182
-10.0850 -8.9214 2.2182
-9.8832 -9.1444 2.2182
-9.6765 -9.3629 2.2182
-9.4650 -9.5766 2.2182
-9.2487 -9.7856 2.2182
-9.0279 -9.9898 2.2182
-8.8025 -10.1889 2.2182
-8.5727 -10.3830 2.2182
-8.3387 -10.5719 2.2182
-8.1005 -10.7555 2.2182
-7.8582 -10.9337 2.2182
-7.6121 -11.1065 2.2182
-7.3621 -11.2737 2.2182
-7.1085 -11.4353 2.2182
-6.8513 -11.5912 2.2182
-6.5908 -11.7414 2.2182
-6.3269 -11.8857 2.2182
-6.0598 -12.0240 2.2182
-5.7898 -12.1563 2.2182
-5.5168 -12.2826 2.2182
-5.2411 -12.4028 2.2182
-4.9628 -12.5167 2.2182
-4.6820 -12.6245 2.2182
-4.3989 -12.7259 2.2182
-4.1136 -12.8210 2.2182
-3.8262 -12.9096 2.2182
-3.5369 -12.9919 2.2182
-3.2459 -13.0676 2.2182
-2.9532 -13.1369 2.2182
-2.6590 -13.1995 2.2182
-2.3636 -13.2556 2.2182
-2.0669 -13.3051 2.2182
-1.7693 -13.3480 2.2182
-1.4707 -13.3841 2.2182
-1.1714 -13.4137 2.2182
-0.8715 -13.4365 2.2182
-0.5712 -13.4526 2.2182
-0.2706 -13.4620 2.2182
0.0301 -13.4647 2.2182
0.3308 -13.4606 2.2182
0.6314 -13.4499 2.2182
0.9316 -13.4324 2.2182
1.2314 -13.4083 2.2182
1.5306 -13.3774 2.2182
1.8290 -13.3399 2.2182
2.1264 -13.2958 2.2182
2.4229 -13.2449 2.2182
2.7181 -13.1875 2.2182
3.0120 -13.1235 2.2182
3.3043 -13.0530 2.2182
3.5950 -12.9759 2.2182
3.8839 -12.8924 2.2182
4.1709 -12.8024 2.2182
4.4558 -12.7061 2.2182
4.7384 -12.6034 2.2182
5.0187 -12.4944 2.2182
5.2965 -12.3792 2.2182
5.5717 -12.2578 2.2182
5.8441 -12.1303 2.2182
6.1136 -11.9968 2.2182
6.3800 -11.8573 2.2182
6.6432 -11.7118 2.2182
6.9031 -11.5605 2.2182
7.1596 -11.4034 2.2182
7.4125 -11.2407 2.2182
7.6617 -11.0724 2.2182
7.9071 -10.8985 2.2182
8.1485 -10.7192 2.2182
8.2010 -10.3022 2.1693
8.2114 -9.8551 2.1132
8.2401 -9.4522 2.0658
8.4491 -9.2658 2.0658
8.6540 -9.0747 2.0658
8.8545 -8.8792 2.0658
9.0506 -8.6792 2.0658
9.2422 -8.4749 2.0658
9.4292 -8.2664 2.0658
9.6114 -8.0537 2.0658
9.7889 -7.8370 2.0658
9.9615 -7.6165 2.0658
10.1291 -7.3921 2.0658
10.2917 -7.1641 2.0658
10.4494 -6.9326 2.0658
10.6023 -6.6979 2.0660
10.7499 -6.4598 2.0661
10.8922 -6.2185 2.0662
11.0290 -5.9740 2.0663
11.1602 -5.7265 2.0664
11.2859 -5.4761 2.0665
11.4060 -5.2229 2.0666
11.5203 -4.9671 2.0667
9.1142 -3.6905 1.6199
9.1071 -3.4530 1.6045
9.1509 -3.2377 1.5991
11.9195 -3.9200 2.0671
12.0045 -3.6530 2.0671
12.0835 -3.3840 2.0672
12.1565 -3.1134 2.0673
12.2233 -2.8412 2.0673
12.2840 -2.5676 2.0674
12.3385 -2.2926 2.0674
12.3869 -2.0165 2.0675
12.4291 -1.7394 2.0675
12.4650 -1.4614 2.0675
12.4947 -1.1826 2.0676
12.5182 -0.9033 2.0676
12.5353 -0.6235 2.0676
12.5461 -0.3434 2.0676
12.5507 -0.0631 2.0676
12.5490 0.2173 2.0676
12.5409 0.4975 2.0676
12.5266 0.7774 2.0676
12.5060 1.0570 2.0676
12.4792 1.3361 2.0676
12.4460 1.6144 2.0675
12.4067 1.8920 2.0675
12.3611 2.1686 2.0675
12.3093 2.4440 2.0674
12.2514 2.7183 2.0674
12.1873 2.9911 2.0673
12.1171 3.2625 2.0672
12.0408 3.5322 2.0672
11.9585 3.8001 2.0671
11.8702 4.0661 2.0670
11.7760 4.3300 2.0670
11.6759 4.5918 2.0669
11.5699 4.8512 2.0668
11.4581 5.1081 2.0667
11.3406 5.3625 2.0666
11.2175 5.6142 2.0665
11.0887 5.8630 2.0664
10.9544 6.1088 2.0663
10.8146 6.3516 2.0661
10.6694 6.5912 2.0660
10.5189 6.8274 2.0659
10.3631 7.0602 2.0657
10.2029 7.2899 2.0658
10.0375 7.5160 2.0658
9.8672 7.7383 2.0658
9.6919 7.9568 2.0658
9.5118 8.1712 2.0658
9.3269 8.3816 2.0658
9.1374 8.5879 2.0658
8.9433 8.7898 2.0658
8.7447 8.9873 2.0658
8.5418 9.1804 2.0658
8.3347 9.3693 2.0658
8.2158 9.6613 2.0893
8.2057 10.0982 2.1436
8.1950 10.5583 2.2018
8.0162 10.8185 2.2182
7.7726 10.9948 2.2182
7.5251 11.1657 2.2182
7.2738 11.3309 2.2182
7.0190 11.4906 2.2182
6.7606 11.6445 2.2182
6.4988 11.7925 2.2182
6.2338 11.9347 2.2182
5.9657 12.0710 2.2182
5.6946 12.2012 2.2182
5.4207 12.3254 2.2182
5.1441 12.4434 2.2182
4.8649 12.5552 2.2182
4.5832 12.6607 2.2182
4.2993 12.7599 2.2182
4.0133 12.8527 2.2182
3.7252 12.9392 2.2182
3.4353 13.0191 2.2182
3.1437 13.0926 2.2182
2.8505 13.1595 2.2182
2.5558 13.2199 2.2182
2.2599 13.2737 2.2182
1.9629 13.3209 2.2182
1.6649 13.3614 2.2182
1.3661 13.3953 2.2182
1.0666 13.4224 2.2182
0.7665 13.4429 2.2182
0.4661 13.4566 2.2182
0.1654 13.4637 2.2182
-0.1353 13.4640 2.2182
-0.4360 13.4577 2.2182
-0.7365 13.4446 2.2182
-1.0366 13.4248 2.2182
-1.3361 13.3983 2.2182
-1.6351 13.3651 2.2182
-1.9331 13.3252 2.2182
-2.2302 13.2787 2.2182
-2.5263 13.2256 2.2182
-2.8210 13.1659 2.2182
-3.1144 13.0996 2.2182
-3.4062 13.0268 2.2182
-3.6963 12.9474 2.2182
-3.9845 12.8616 2.2182
-4.2708 12.7694 2.2182
-4.5549 12.6709 2.2182
-4.8367 12.5660 2.2182
-5.1162 12.4548 2.2182
-5.3931 12.3375 2.2182
-5.6673 12.2139 2.2182
-5.9387 12.0843 2.2182
-6.2071 11.9487 2.2182
-6.4724 11.8070 2.2182
-6.7345 11.6595 2.2182
-6.9932 11.5062 2.2182
-7.2484 11.3471 2.2182
-7.5001 11.1824 2.2182
-7.7480 11.0121 2.2182
-7.9920 10.8363 2.2182
-8.2320 10.6551 2.2182
-8.4679 10.4686 2.2182
-8.6996 10.2768 2.2182
-8.9270 10.0800 2.2182
-9.1499 9.8781 2.2182
-9.3683 9.6713 2.2182
-9.5819 9.4597 2.2182
-9.7908 9.2433 2.2182
-9.9948 9.0223 2.2182
-10.1644 8.7714 2.2118
-10.3531 8.5383 2.2108
-10.5765 8.3328 2.2182
-10.7600 8.0945 2.2182
-10.9380 7.8522 2.2182
-11.1107 7.6059 2.2182
-11.2778 7.3559 2.2182
-11.4393 7.1022 2.2182
-11.5950 6.8449 2.2182
-11.7450 6.5842 2.2182
-11.8892 6.3202 2.2182
-12.0274 6.0531 2.2182
-12.1595 5.7830 2.2182
-12.2857 5.5096 2.2182
-12.4057 5.2342 2.2182
-12.5195 4.9558 2.2182
-12.6270 4.6750 2.2182
-12.7283 4.3918 2.2182
-12.8232 4.1064 2.2182
-12.9117 3.8190 2.2182
-12.9938 3.5297 2.2182
-13.0694 3.2386 2.2182
-13.1385 2.9459 2.2182
-13.2010 2.6517 2.2182
-13.2569 2.3562 2.2182
-13.3063 2.0595 2.2182
-13.3489 1.7619 2.2182
-13.3849 1.4633 2.2182
-13.4143 1.1640 2.2182
-13.4369 0.8641 2.2182
-13.4529 0.5637 2.2182
-13.4621 0.2631 2.2182
-13.4646 -0.0376 2.2182
-13.4604 -0.3383 2.2182
-13.4495 -0.6389 2.2182
-13.4319 -0.9391 2.2182
-13.4076 -1.2388 2.2182
-13.3765 -1.5380 2.2182
-13.3389 -1.8364 2.2182
-13.2945 -2.1338 2.2182
-13.2436 -2.4302 2.2182
-13.1859 -2.7254 2.2182
-13.1218 -3.0192 2.2182
-13.0511 -3.3115 2.2182
-12.9739 -3.6022 2.2182
-12.8902 -3.8911 2.2182
-12.8001 -4.1780 2.2182
-12.7036 -4.4628 2.2182
-12.6007 -4.7454 2.2182
-12.4916 -5.0257 2.2182
-12.3762 -5.3034 2.2182
-12.2547 -5.5784 2.2182
-12.1270 -5.8508 2.2182
-11.9933 -6.1203 2.2182
-11.8537 -6.3866 2.2182
-11.7081 -6.6497 2.2182
-11.5566 -6.9095 2.2182
-11.3994 -7.1659 2.2182
-11.2365 -7.4187 2.2182
-11.0680 -7.6679 2.2182
-10.8940 -7.9132 2.2182
-10.7146 -8.1545 2.2182
-10.5298 -8.3918 2.2182
-10.3397 -8.6248 2.2182
-10.1445 -8.8536 2.2182
-9.9442 -9.0780 2.2182
-9.7390 -9.2978 2.2182
-9.5289 -9.5130 2.2182
-9.3141 -9.7235 2.2182
-9.0946 -9.9291 2.2182
-8.8706 -10.1297 2.2182
-8.6421 -10.3253 2.2182
-8.4093 -10.5157 2.2182
-8.1724 -10.7009 2.2182
-7.9314 -10.8808 2.2182
-7.6864 -11.0552 2.2182
-7.4375 -11.2241 2.2182
-7.1850 -11.3874 2.2182
-6.9289 -11.5451 2.2182
-6.6693 -11.6969 2.2182
-6.4064 -11.8430 2.2182
-6.1403 -11.9831 2.2182
-5.8711 -12.1173 2.2182
-5.5990 -12.2454 2.2182
-5.3241 -12.3674 2.2182
-5.0466 -12.4832 2.2182
-4.7665 -12.5928 2.2182
-4.4841 -12.6961 2.2182
-4.1994 -12.7931 2.2182
-3.9126 -12.8837 2.2182
-3.6239 -12.9679 2.2182
-3.3334 -13.0456 2.2182
-3.0412 -13.1168 2.2182
-2.7475 -13.1814 2.2182
-2.4524 -13.2395 2.2182
-2.1561 -13.2910 2.2182
-1.8587 -13.3358 2.2182
-1.5603 -13.3740 2.2182
-1.2612 -13.4055 2.2182
-0.9615 -13.4303 2.2182
-0.6614 -13.4485 2.2182
-0.3608 -13.4599 2.2182
-0.0601 -13.4646 2.2182
0.2406 -13.4626 2.2182
0.5412 -13.4538 2.2182
0.8416 -13.4384 2.2182
1.1415 -13.4162 2.2182
1.4409 -13.3874 2.2182
1.7395 -13.3519 2.2182
2.0373 -13.3097 2.2182
2.3341 -13.2609 2.2182
2.6297 -13.2054 2.2182
2.9240 -13.1434 2.2182
3.2168 -13.0748 2.2182
3.5080 -12.9997 2.2182
3.7974 -12.9181 2.2182
4.0850 -12.8301 2.2182
4.3705 -12.7357 2.2182
4.6539 -12.6349 2.2182
4.9349 -12.5278 2.2182
5.2135 -12.4140 2.2182
5.4894 -12.2949 2.2182
5.7627 -12.1692 2.2182
6.0330 -12.0375 2.2182
6.3004 -11.8997 2.2182
6.5646 -11.7561 2.2182
6.8255 -11.6065 2.2182
7.0830 -11.4512 2.2182
7.3370 -11.2901 2.2182
7.5873 -11.1234 2.2182
7.8339 -10.9512 2.2182
8.0766 -10.7735 2.2182
8.1978 -10.4410 2.1869
8.2084 -9.9870 2.1296
8.2213 -9.5590 2.0771
8.3869 -9.3222 2.0658
8.5930 -9.1325 2.0658
8.7948 -8.9383 2.0658
8.9923 -8.7396 2.0658
9.1852 -8.5367 2.0658
9.3736 -8.3293 2.0658
9.5573 -8.1179 2.0658
9.7362 -7.9025 2.0658
9.9103 -7.6830 2.0658
10.0794 -7.4598 2.0658
10.2435 -7.2328 2.0658
10.4026 -7.0023 2.0658
10.5570 -6.7686 2.0659
10.7062 -6.5316 2.0660
10.8501 -6.2912 2.0662
10.9885 -6.0476 2.0663
11.1214 -5.8010 2.0664
11.2488 -5.5515 2.0665
11.3706 -5.2991 2.0666
11.4866 -5.0441 2.0667
11.5970 -4.7865 2.0668
9.1049 -3.5221 1.6082
9.1142 -3.2936 1.5965
11.8929 -3.9997 2.0671
11.9797 -3.7332 2.0671
12.0605 -3.4649 2.0672
12.1352 -3.1948 2.0673
12.2039 -2.9230 2.0673
12.2664 -2.6498 2.0674
12.3228 -2.3752 2.0674
12.3731 -2.0995 2.0675
12.4171 -1.8226 2.0675
12.4549 -1.5449 2.0675
12.4865 -1.2663 2.0676
12.5118 -0.9871 2.0676
12.5308 -0.7074 2.0676
12.5436 -0.4274 2.0676
12.5500 -0.1472 2.0676
12.5502 0.1332 2.0676
12.5440 0.4134 2.0676
12.5316 0.6935 2.0676
12.5129 0.9732 2.0676
12.4879 1.2524 2.0676
12.4566 1.5310 2.0675
12.4192 1.8088 2.0675
12.3754 2.0857 2.0675
12.3255 2.3615 2.0674
12.2694 2.6361 2.0674
12.2072 2.9094 2.0673
12.1388 3.1813 2.0673
12.0643 3.4515 2.0672
11.9838 3.7199 2.0671
11.8974 3.9865 2.0671
11.8049 4.2511 2.0670
11.7065 4.5135 2.0669
11.6023 4.7736 2.0668
11.4923 5.0313 2.0667
11.3765 5.2865 2.0666
11.2550 5.5390 2.0665
11.1279 5.7887 2.0664
10.9952 6.0354 2.0663
10.8571 6.2791 2.0662
10.7135 6.5197 2.0660
10.5646 6.7569 2.0659
10.4104 6.9907 2.0658
10.2515 7.2214 2.0658
10.0877 7.4485 2.0658
9.9188 7.6720 2.0658
9.7450 7.8917 2.0658
9.5663 8.1073 2.0658
9.3828 8.3189 2.0658
9.1947 8.5264 2.0658
9.0020 8.7297 2.0658
8.8048 8.9285 2.0658
8.6031 9.1230 2.0658
8.3973 9.3128 2.0658
8.2234 9.5401 2.0749
8.2088 9.9649 2.1269
8.1983 10.4177 2.1839
8.0885 10.7645 2.2182
7.8461 10.9425 2.2182
7.5997 11.1150 2.2182
7.3496 11.2819 2.2182
7.0958 11.4433 2.2182
6.8384 11.5989 2.2182
6.5777 11.7488 2.2182
6.3136 11.8927 2.2182
6.0464 12.0308 2.2182
5.7762 12.1628 2.2182
5.5031 12.2888 2.2182
5.2273 12.4086 2.2182
4.9489 12.5223 2.2182
4.6680 12.6297 2.2182
4.3847 12.7308 2.2182
4.0993 12.8256 2.2182
3.8118 12.9139 2.2182
3.5225 12.9958 2.2182
3.2313 13.0712 2.2182
2.9386 13.1402 2.2182
2.6444 13.2025 2.2182
2.3488 13.2583 2.2182
2.0522 13.3074 2.2182
1.7544 13.3499 2.2182
1.4558 13.3858 2.2182
1.1565 13.4149 2.2182
0.8566 13.4374 2.2182
0.5562 13.4532 2.2182
0.2556 13.4623 2.2182
-0.0451 13.4646 2.2182
-0.3458 13.4603 2.2182
-0.6463 13.4492 2.2182
-0.9466 13.4314 2.2182
-1.2463 13.4069 2.2182
-1.5454 13.3757 2.2182
-1.8438 13.3379 2.2182
-2.1412 13.2934 2.2182
-2.4376 13.2422 2.2182
-2.7328 13.1845 2.2182
-3.0265 13.1202 2.2182
-3.3188 13.0493 2.2182
-3.6094 12.9719 2.2182
-3.8983 12.8881 2.2182
-4.1851 12.7978 2.2182
-4.4699 12.7011 2.2182
-4.7524 12.5981 2.2182
-5.0326 12.4888 2.2182
-5.3103 12.3734 2.2182
-5.5854 12.2516 2.2182
-5.8576 12.1238 2.2182
-6.1269 11.9900 2.2182
-6.3932 11.8501 2.2182
-6.6563 11.7044 2.2182
-6.9160 11.5528 2.2182
-7.1723 11.3955 2.2182
-7.4250 11.2324 2.2182
-7.6740 11.0638 2.2182
-7.9192 10.8896 2.2182
-8.1604 10.7101 2.2182
-8.3976 10.5251 2.2182
-8.6306 10.3349 2.2182
-8.8593 10.1396 2.2182
-9.0835 9.9392 2.2182
-9.3032 9.7339 2.2182
-9.5183 9.5236 2.2182
-9.7286 9.3087 2.2182
-9.9341 9.0891 2.2182
-10.1346 8.8649 2.2182
-10.2956 8.6075 2.2108
-10.4853 8.3754 2.2108
-10.7055 8.1664 2.2182
-10.8852 7.9253 2.2182
-11.0595 7.6802 2.2182
-11.2282 7.4313 2.2182
-11.3914 7.1787 2.2182
-11.5489 6.9224 2.2182
-11.7007 6.6628 2.2182
-11.8465 6.3998 2.2182
-11.9865 6.1336 2.2182
-12.1205 5.8644 2.2182
-12.2485 5.5922 2.2182
-12.3703 5.3172 2.2182
-12.4860 5.0396 2.2182
-12.5954 4.7595 2.2182
-12.6986 4.4770 2.2182
-12.7954 4.1923 2.2182
-12.8858 3.9055 2.2182
-12.9699 3.6167 2.2182
-13.0474 3.3261 2.2182
-13.1184 3.0339 2.2182
-13.1829 2.7401 2.2182
-13.2408 2.4450 2.2182
-13.2921 2.1487 2.2182
-13.3368 1.8513 2.2182
-13.3748 1.5529 2.2182
-13.4062 1.2538 2.2182
-13.4308 0.9541 2.2182
-13.4488 0.6539 2.2182
-13.4601 0.3533 2.2182
-13.4646 0.0526 2.2182
-13.4624 -0.2481 2.2182
-13.4535 -0.5487 2.2182
-13.4379 -0.8490 2.2182
-13.4156 -1.1490 2.2182
-13.3866 -1.4483 2.2182
-13.3509 -1.7469 2.2182
-13.3085 -2.0447 2.2182
-13.2595 -2.3414 2.2182
-13.2039 -2.6370 2.2182
-13.1417 -2.9312 2.2182
-13.0730 -3.2240 2.2182
-12.9977 -3.5152 2.2182
-12.9160 -3.8046 2.2182
-12.8278 -4.0921 2.2182
-12.7332 -4.3776 2.2182
-12.6322 -4.6609 2.2182
-12.5250 -4.9419 2.2182
-12.4115 -5.2204 2.2182
-12.2918 -5.4963 2.2182
-12.1660 -5.7694 2.2182
-12.0341 -6.0397 2.2182
-11.8962 -6.3070 2.2182
-11.7524 -6.5711 2.2182
-11.6027 -6.8319 2.2182
-11.4472 -7.0894 2.2182
-11.2860 -7.3433 2.2182
-11.1192 -7.5935 2.2182
-10.9468 -7.8400 2.2182
-10.7690 -8.0825 2.2182
-10.5858 -8.3210 2.2182
-10.3973 -8.5553 2.2182
-10.2036 -8.7855 2.2182
-10.0049 -9.0111 2.2182
-9.8011 -9.2323 2.2182
-9.5925 -9.4490 2.2182
-9.3790 -9.6608 2.2182
-9.1609 -9.8679 2.2182
-8.9382 -10.0700 2.2182
-8.7111 -10.2672 2.2182
-8.4796 -10.4592 2.2182
-8.2439 -10.6459 2.2182
-8.0041 -10.8274 2.2182
-7.7603 -11.0035 2.2182
-7.5126 -11.1740 2.2182
-7.2611 -11.3390 2.2182
-7.0061 -11.4984 2.2182
-6.7475 -11.6520 2.2182
-6.4856 -11.7998 2.2182
-6.2204 -11.9417 2.2182
-5.9521 -12.0777 2.2182
-5.6809 -12.2076 2.2182
-5.4068 -12.3314 2.2182
-5.1301 -12.4491 2.2182
-4.8508 -12.5606 2.2182
-4.5690 -12.6658 2.2182
-4.2850 -12.7647 2.2182
-3.9988 -12.8572 2.2182
-3.7107 -12.9433 2.2182
-3.4207 -13.0229 2.2182
-3.1290 -13.0961 2.2182
-2.8357 -13.1627 2.2182
-2.5410 -13.2228 2.2182
-2.2451 -13.2762 2.2182
-1.9480 -13.3231 2.2182
-1.6499 -13.3632 2.2182
-1.3511 -13.3968 2.2182
-1.0515 -13.4236 2.2182
-0.7514 -13.4437 2.2182
-0.4510 -13.4572 2.2182
-0.1503 -13.4639 2.2182
0.1504 -13.4639 2.2182
0.4511 -13.4572 2.2182
0.7515 -13.4437 2.2182
1.0516 -13.4236 2.2182
1.3511 -13.3968 2.2182
1.6501 -13.3632 2.2182
1.9481 -13.3230 2.2182
2.2452 -13.2762 2.2182
2.5411 -13.2228 2.2182
2.8358 -13.1627 2.2182
3.1290 -13.0961 2.2182
3.4208 -13.0229 2.2182
3.7108 -12.9433 2.2182
3.9989 -12.8572 2.2182
4.2851 -12.7647 2.2182
4.5691 -12.6658 2.2182
4.8509 -12.5606 2.2182
5.1302 -12.4491 2.2182
5.4069 -12.3314 2.2182
5.6810 -12.2076 2.2182
5.9522 -12.0776 2.2182
6.2205 -11.9417 2.2182
6.4857 -11.7998 2.2182
6.7476 -11.6520 2.2182
7.0061 -11.4984 2.2182
7.2612 -11.3390 2.2182
7.5127 -11.1740 2.2182
7.7604 -11.0034 2.2182
8.0042 -10.8274 2.2182
8.1944 -10.5819 2.2048
8.2053 -10.1206 2.1464
8.2153 -9.6829 2.0919
8.3242 -9.3777 2.0658
8.5316 -9.1899 2.0658
8.7347 -8.9971 2.0658
8.9335 -8.7997 2.0658
9.1278 -8.5980 2.0658
9.3175 -8.3920 2.0658
9.5027 -8.1818 2.0658
9.6830 -7.9676 2.0658
9.8586 -7.7493 2.0658
10.0292 -7.5272 2.0658
10.1948 -7.3013 2.0658
10.3552 -7.0717 2.0657
10.5112 -6.8391 2.0659
10.6620 -6.6030 2.0660
10.8075 -6.3636 2.0661
10.9475 -6.1210 2.0662
11.0821 -5.8753 2.0664
11.2112 -5.6266 2.0665
11.3346 -5.3751 2.0666
11.4524 -5.1209 2.0667
11.5645 -4.8640 2.0668
9.1026 -3.5915 1.6121
9.1101 -3.3613 1.5997
9.3928 -3.2292 1.6363
11.9543 -3.8134 2.0671
12.0368 -3.5456 2.0672
12.1134 -3.2760 2.0672
12.1839 -3.0047 2.0673
12.2483 -2.7319 2.0674
12.3066 -2.4577 2.0674
12.3587 -2.1823 2.0674
12.4045 -1.9058 2.0675
12.4442 -1.6283 2.0675
12.4777 -1.3500 2.0676
12.5049 -1.0709 2.0676
12.5257 -0.7914 2.0676
12.5404 -0.5115 2.0676
12.5487 -0.2312 2.0676
12.5508 0.0491 2.0676
12.5465 0.3294 2.0676
12.5360 0.6095 2.0676
12.5191 0.8893 2.0676
12.4960 1.1687 2.0676
12.4667 1.4475 2.0675
12.4311 1.7255 2.0675
12.3892 2.0027 2.0675
12.3411 2.2789 2.0674
12.2869 2.5539 2.0674
12.2265 2.8276 2.0673
12.1599 3.0999 2.0673
12.0873 3.3706 2.0672
12.0086 3.6396 2.0672
11.9239 3.9068 2.0671
11.8332 4.1719 2.0670
11.7366 4.4350 2.0669
11.6342 4.6958 2.0668
11.5259 4.9543 2.0667
11.4118 5.2102 2.0666
11.2920 5.4635 2.0665
11.1666 5.7141 2.0664
11.0356 5.9617 2.0663
10.8991 6.2064 2.0662
10.7571 6.4479 2.0661
10.6098 6.6861 2.0660
10.4572 6.9209 2.0658
10.2997 7.1525 2.0658
10.1374 7.3808 2.0658
9.9700 7.6054 2.0658
9.7977 7.8262 2.0658
9.6204 8.0430 2.0658
9.4383 8.2559 2.0658
9.2516 8.4646 2.0658
9.0603 8.6692 2.0658
8.8644 8.8693 2.0658
8.6641 9.0651 2.0658
8.4595 9.2563 2.0658
8.2506 9.4430 2.0658
8.2119 9.8335 2.1105
8.2016 10.2794 2.1664
8.1605 10.7101 2.2182
7.9192 10.8897 2.2182
7.6741 11.0638 2.2182
7.4250 11.2324 2.2182
7.1723 11.3955 2.2182
6.9160 11.5528 2.2182
6.6563 11.7044 2.2182
6.3932 11.8502 2.2182
6.1269 11.9900 2.2182
5.8576 12.1238 2.2182
5.5854 12.2516 2.2182
5.3104 12.3733 2.2182
5.0327 12.4889 2.2182
4.7525 12.5981 2.2182
4.4699 12.7011 2.2182
4.1851 12.7978 2.2182
3.8983 12.8881 2.2182
3.6095 12.9719 2.2182
3.3188 13.0493 2.2182
3.0265 13.1202 2.2182
2.7328 13.1845 2.2182
2.4376 13.2422 2.2182
2.1412 13.2934 2.2182
1.8438 13.3378 2.2182
1.5455 13.3757 2.2182
1.2464 13.4069 2.2182
0.9466 13.4314 2.2182
0.6464 13.4492 2.2182
0.3458 13.4603 2.2182
0.0451 13.4646 2.2182
-0.2556 13.4623 2.2182
-0.5562 13.4532 2.2182
-0.8565 13.4374 2.2182
-1.1564 13.4150 2.2182
-1.4558 13.3858 2.2182
-1.7544 13.3499 2.2182
-2.0521 13.3074 2.2182
-2.3488 13.2583 2.2182
-2.6443 13.2025 2.2182
-2.9385 13.1401 2.2182
-3.2313 13.0712 2.2182
-3.5225 12.9958 2.2182
-3.8118 12.9139 2.2182
-4.0993 12.8255 2.2182
-4.3847 12.7308 2.2182
-4.6679 12.6297 2.2182
-4.9488 12.5223 2.2182
-5.2273 12.4086 2.2182
-5.5031 12.2888 2.2182
-5.7762 12.1628 2.2182
-6.0464 12.0308 2.2182
-6.3136 11.8927 2.2182
-6.5777 11.7487 2.2182
-6.8384 11.5989 2.2182
-7.0958 11.4433 2.2182
-7.3496 11.2819 2.2182
-7.5997 11.1150 2.2182
-7.8461 10.9425 2.2182
-8.0885 10.7645 2.2182
-8.3269 10.5812 2.2182
-8.5611 10.3925 2.2182
-8.7911 10.1988 2.2182
-9.0167 9.9998 2.2182
-9.2378 9.7960 2.2182
-9.4543 9.5872 2.2182
-9.6661 9.3737 2.2182
-9.8730 9.1554 2.2182
-10.0750 8.9326 2.2182
-10.2377 8.6763 2.2108
-10.4289 8.4455 2.2108
-10.6505 8.2380 2.2182
-10.8319 7.9980 2.2182
-11.0078 7.7542 2.2182
-11.1782 7.5064 2.2182
-11.3430 7.2548 2.2182
-11.5023 6.9997 2.2182
-11.6558 6.7410 2.2182
-11.8034 6.4790 2.2182
-11.9451 6.2138 2.2182
-12.0810 5.9454 2.2182
-12.2107 5.6738 2.2182
-12.3344 5.4000 2.2182
-12.4519 5.1232 2.2182
-12.5633 4.8438 2.2182
-12.6683 4.5620 2.2182
-12.7670 4.2779 2.2182
-12.8594 3.9917 2.2182
-12.9453 3.7035 2.2182
-13.0248 3.4134 2.2182
-13.0978 3.1217 2.2182
-13.1643 2.8284 2.2182
-13.2242 2.5336 2.2182
-13.2774 2.2377 2.2182
-13.3241 1.9405 2.2182
-13.3641 1.6425 2.2182
-13.3975 1.3436 2.2182
-13.4242 1.0441 2.2182
-13.4441 0.7440 2.2182
-13.4574 0.4436 2.2182
-13.4639 0.1429 2.2182
-13.4638 -0.1579 2.2182
-13.4569 -0.4585 2.2182
-13.4433 -0.7590 2.2182
-13.4230 -1.0591 2.2182
-13.3960 -1.3586 2.2182
-13.3623 -1.6574 2.2182
-13.3219 -1.9555 2.2182
-13.2749 -2.2525 2.2182
-13.2213 -2.5485 2.2182
-13.1611 -2.8431 2.2182
-13.0943 -3.1363 2.2182
-13.0210 -3.4280 2.2182
-12.9412 -3.7180 2.2182
-12.8549 -4.0061 2.2182
-12.7622 -4.2922 2.2182
-12.6632 -4.5761 2.2182
-12.5579 -4.8578 2.2182
-12.4462 -5.1371 2.2182
-12.3284 -5.4138 2.2182
-12.2044 -5.6878 2.2182
-12.0743 -5.9589 2.2182
-11.9382 -6.2271 2.2182
-11.7961 -6.4922 2.2182
-11.6482 -6.7540 2.2182
-11.4944 -7.0125 2.2182
-11.3349 -7.2675 2.2182
-11.1698 -7.5189 2.2182
-10.9991 -7.7664 2.2182
-10.8229 -8.0102 2.2182
-10.6413 -8.2499 2.2182
-10.4544 -8.4855 2.2182
-10.2622 -8.7169 2.2182
-10.0650 -8.9439 2.2182
-9.8627 -9.1665 2.2182
-9.6556 -9.3845 2.2182
-9.4435 -9.5978 2.2182
-9.2269 -9.8063 2.2182
-9.0055 -10.0099 2.2182
-8.7797 -10.2086 2.2182
-8.5495 -10.4021 2.2182
-8.3151 -10.5904 2.2182
-8.0765 -10.7735 2.2182
-7.8338 -10.9512 2.2182
-7.5873 -11.1234 2.2182
-7.3369 -11.2901 2.2182
-7.0830 -11.4512 2.2182
-6.8254 -11.6065 2.2182
-6.5645 -11.7561 2.2182
-6.3003 -11.8998 2.2182
-6.0330 -12.0375 2.2182
-5.7626 -12.1693 2.2182
-5.4893 -12.2949 2.2182
-5.2134 -12.4145 2.2182
-4.9348 -12.5278 2.2182
-4.6538 -12.6349 2.2182
-4.3705 -12.7357 2.2182
-4.0849 -12.8301 2.2182
-3.7974 -12.9181 2.2182
-3.5079 -12.9997 2.2182
-3.2167 -13.0748 2.2182
-2.9239 -13.1434 2.2182
-2.6296 -13.2054 2.2182
-2.3340 -13.2609 2.2182
-2.0372 -13.3097 2.2182
-1.7394 -13.3519 2.2182
-1.4408 -13.3874 2.2182
-1.1414 -13.4162 2.2182
-0.8415 -13.4384 2.2182
-0.5411 -13.4538 2.2182
-0.2405 -13.4626 2.2182
0.0602 -13.4646 2.2182
0.3609 -13.4599 2.2182
0.6614 -13.4485 2.2182
0.9616 -13.4303 2.2182
1.2613 -13.4055 2.2182
1.5604 -13.3740 2.2182
1.8588 -13.3358 2.2182
2.1561 -13.2910 2.2182
2.4524 -13.2395 2.2182
2.7475 -13.1814 2.2182
3.0412 -13.1167 2.2182
3.3334 -13.0456 2.2182
3.6240 -12.9679 2.2182
3.9127 -12.8837 2.2182
4.1994 -12.7931 2.2182
4.4842 -12.6961 2.2182
4.7666 -12.5928 2.2182
5.0467 -12.4832 2.2182
5.3242 -12.3674 2.2182
5.5991 -12.2454 2.2182
5.8712 -12.1173 2.2182
6.1404 -11.9831 2.2182
6.4064 -11.8430 2.2182
6.6694 -11.6969 2.2182
6.9289 -11.5451 2.2182
7.1850 -11.3874 2.2182
7.4376 -11.2241 2.2182
7.6864 -11.0552 2.2182
7.9314 -10.8808 2.2182
8.1724 -10.7009 2.2182
8.2021 -10.2565 2.1635
8.2124 -9.8118 2.1078
8.2612 -9.4337 2.0658
8.4698 -9.2469 2.0658
8.6742 -9.0554 2.0658
8.8743 -8.8594 2.0658
9.0700 -8.6590 2.0658
9.2611 -8.4542 2.0658
9.4476 -8.2453 2.0658
9.6294 -8.0322 2.0658
9.8064 -7.8151 2.0658
9.9785 -7.5942 2.0658
10.1456 -7.3694 2.0658
10.3077 -7.1410 2.0658
10.4649 -6.9093 2.0658
10.6173 -6.6742 2.0660
10.7644 -6.4358 2.0661
10.9061 -6.1941 2.0662
11.0423 -5.9494 2.0663
11.1731 -5.7016 2.0664
11.2982 -5.4509 2.0665
11.4177 -5.1974 2.0666
11.5315 -4.9414 2.0667
9.1044 -3.6629 1.6167
9.1079 -3.4300 1.6033
9.1893 -3.2282 1.6045
11.9283 -3.8934 2.0671
12.0127 -3.6261 2.0672
12.0911 -3.3570 2.0672
12.1634 -3.0862 2.0673
12.2296 -2.8139 2.0673
12.2897 -2.5401 2.0674
12.3437 -2.2651 2.0674
12.3914 -1.9889 2.0675
12.4330 -1.7116 2.0675
12.4683 -1.4335 2.0675
12.4974 -1.1547 2.0676
12.5201 -0.8753 2.0676
12.5367 -0.5955 2.0676
12.5469 -0.3153 2.0676
12.5508 -0.0350 2.0676
12.5484 0.2453 2.0676
12.5398 0.5255 2.0676
12.5248 0.8054 2.0676
12.5036 1.0850 2.0676
12.4761 1.3639 2.0675
12.4424 1.6422 2.0675
12.4024 1.9197 2.0675
12.3562 2.1962 2.0674
12.3038 2.4715 2.0674
12.2452 2.7456 2.0674
12.1805 3.0183 2.0673
12.1097 3.2895 2.0672
12.0328 3.5591 2.0672
11.9499 3.8268 2.0671
11.8611 4.0926 2.0670
11.7663 4.3563 2.0669
11.6655 4.6178 2.0669
11.5590 4.8770 2.0668
11.4466 5.1337 2.0667
11.3286 5.3878 2.0666
11.2048 5.6392 2.0665
11.0755 5.8877 2.0664
10.9406 6.1333 2.0662
10.8003 6.3758 2.0661
10.6546 6.6150 2.0660
10.5035 6.8509 2.0659
10.3474 7.0834 2.0658
10.1866 7.3128 2.0658
10.0207 7.5384 2.0658
9.8498 7.7603 2.0658
9.6741 7.9784 2.0658
9.4935 8.1925 2.0658
9.3082 8.4024 2.0658
9.1182 8.6082 2.0658
8.9236 8.8097 2.0658
8.7246 9.0068 2.0658
8.5213 9.1995 2.0658
8.3137 9.3875 2.0658
8.2149 9.7041 2.0945
8.2047 10.1432 2.1492
8.1938 10.6057 2.2079
7.9920 10.8363 2.2182
7.7480 11.0121 2.2182
7.5001 11.1824 2.2182
7.2485 11.3472 2.2182
6.9933 11.5062 2.2182
6.7345 11.6595 2.2182
6.4724 11.8070 2.2182
6.2072 11.9486 2.2182
5.9387 12.0843 2.2182
5.6674 12.2139 2.2182
5.3931 12.3375 2.2182
5.1163 12.4548 2.2182
4.8368 12.5660 2.2182
4.5550 12.6709 2.2182
4.2708 12.7695 2.2182
3.9846 12.8617 2.2182
3.6963 12.9475 2.2182
3.4062 13.0268 2.2182
3.1144 13.0996 2.2182
2.8210 13.1659 2.2182
2.5263 13.2256 2.2182
2.2303 13.2787 2.2182
1.9331 13.3252 2.2182
1.6351 13.3651 2.2182
1.3361 13.3983 2.2182
1.0365 13.4248 2.2182
0.7365 13.4446 2.2182
0.4361 13.4577 2.2182
0.1354 13.4640 2.2182
-0.1654 13.4637 2.2182
-0.4660 13.4566 2.2182
-0.7665 13.4429 2.2182
-1.0665 13.4224 2.2182
-1.3660 13.3952 2.2182
-1.6649 13.3614 2.2182
-1.9629 13.3209 2.2182
-2.2599 13.2737 2.2182
-2.5558 13.2199 2.2182
-2.8504 13.1596 2.2182
-3.1436 13.0926 2.2182
-3.4353 13.0191 2.2182
-3.7252 12.9391 2.2182
-4.0133 12.8527 2.2182
-4.2993 12.7599 2.2182
-4.5832 12.6607 2.2182
-4.8648 12.5551 2.2182
-5.1440 12.4433 2.2182
-5.4206 12.3254 2.2182
-5.6945 12.2012 2.2182
-5.9657 12.0710 2.2182
-6.2338 11.9348 2.2182
-6.4988 11.7926 2.2182
-6.7605 11.6445 2.2182
-7.0189 11.4905 2.2182
-7.2738 11.3309 2.2182
-7.5251 11.1657 2.2182
-7.7726 10.9948 2.2182
-8.0162 10.8185 2.2182
-8.2558 10.6367 2.2182
-8.4913 10.4497 2.2182
-8.7226 10.2574 2.2182
-8.9495 10.0600 2.2182
-9.1720 9.8576 2.2182
-9.3898 9.6503 2.2182
-9.6030 9.4382 2.2182
-9.8114 9.2214 2.2182
-10.0149 9.0000 2.2182
-10.1793 8.7447 2.2108
-10.3721 8.5152 2.2108
-10.5951 8.3092 2.2182
-10.7780 8.0705 2.2182
-10.9556 7.8277 2.2182
-11.1277 7.5811 2.2182
-11.2942 7.3307 2.2182
-11.4551 7.0766 2.2182
-11.6103 6.8190 2.2182
-11.7597 6.5580 2.2182
-11.9032 6.2937 2.2182
-12.0409 6.0262 2.2182
-12.1725 5.7558 2.2182
-12.2980 5.4825 2.2182
-12.4173 5.2065 2.2182
-12.5305 4.9279 2.2182
-12.6375 4.6467 2.2182
-12.7381 4.3634 2.2182
-12.8324 4.0778 2.2182
-12.9202 3.7902 2.2182
-13.0016 3.5007 2.2182
-13.0766 3.2094 2.2182
-13.1450 2.9165 2.2182
-13.2069 2.6222 2.2182
-13.2621 2.3266 2.2182
-13.3108 2.0298 2.2182
-13.3528 1.7320 2.2182
-13.3882 1.4334 2.2182
-13.4169 1.1340 2.2182
-13.4388 0.8340 2.2182
-13.4541 0.5337 2.2182
-13.4627 0.2330 2.2182
-13.4645 -0.0677 2.2182
-13.4597 -0.3684 2.2182
-13.4481 -0.6689 2.2182
-13.4298 -0.9691 2.2182
-13.4048 -1.2688 2.2182
-13.3731 -1.5678 2.2182
-13.3347 -1.8661 2.2182
-13.2897 -2.1635 2.2182
-13.2381 -2.4598 2.2182
-13.1798 -2.7549 2.2182
-13.1151 -3.0485 2.2182
-13.0437 -3.3407 2.2182
-12.9658 -3.6312 2.2182
-12.8815 -3.9199 2.2182
-12.7907 -4.2066 2.2182
-12.6936 -4.4912 2.2182
-12.5901 -4.7736 2.2182
-12.4804 -5.0536 2.2182
-12.3643 -5.3311 2.2182
-12.2422 -5.6059 2.2182
-12.1139 -5.8779 2.2182
-11.9796 -6.1470 2.2182
-11.8393 -6.4131 2.2182
-11.6932 -6.6759 2.2182
-11.5412 -6.9353 2.2182
-11.3834 -7.1914 2.2182
-11.2199 -7.4438 2.2182
-11.0509 -7.6925 2.2182
-10.8763 -7.9374 2.2182
-10.6963 -8.1784 2.2182
-10.5110 -8.4152 2.2182
-10.3204 -8.6479 2.2182
-10.1247 -8.8763 2.2182
-9.9239 -9.1002 2.2182
-9.7182 -9.3196 2.2182
-9.5077 -9.5343 2.2182
-9.2923 -9.7443 2.2182
-9.0724 -9.9493 2.2182
-8.8479 -10.1495 2.2182
-8.6190 -10.3446 2.2182
-8.3858 -10.5345 2.2182
-8.1484 -10.7192 2.2182
-7.9070 -10.8985 2.2182
-7.6617 -11.0723 2.2182
-7.4124 -11.2407 2.2182
-7.1596 -11.4034 2.2182
-6.9030 -11.5605 2.2182
-6.6431 -11.7118 2.2182
-6.3799 -11.8572 2.2182
-6.1135 -11.9968 2.2182
-5.8440 -12.1303 2.2182
-5.5716 -12.2578 2.2182
-5.2964 -12.3792 2.2182
-5.0186 -12.4944 2.2182
-4.7384 -12.6034 2.2182
-4.4557 -12.7061 2.2182
-4.1708 -12.8024 2.2182
-3.8838 -12.8924 2.2182
-3.5949 -12.9759 2.2182
-3.3042 -13.0530 2.2182
-3.0118 -13.1235 2.2182
-2.7180 -13.1875 2.2182
-2.4228 -13.2449 2.2182
-2.1264 -13.2957 2.2182
-1.8289 -13.3399 2.2182
-1.5305 -13.3775 2.2182
-1.2313 -13.4083 2.2182
-0.9316 -13.4324 2.2182
-0.6313 -13.4499 2.2182
-0.3307 -13.4606 2.2182
-0.0300 -13.4647 2.2182
0.2707 -13.4620 2.2182
0.5713 -13.4526 2.2182
0.8716 -13.4365 2.2182
1.1715 -13.4136 2.2182
1.4708 -13.3841 2.2182
1.7694 -13.3480 2.2182
2.0671 -13.3051 2.2182
2.3637 -13.2556 2.2182
2.6592 -13.1995 2.2182
2.9533 -13.1368 2.2182
3.2460 -13.0676 2.2182
3.5370 -12.9919 2.2182
3.8263 -12.9096 2.2182
4.1136 -12.8210 2.2182
4.3990 -12.7259 2.2182
4.6821 -12.6244 2.2182
4.9629 -12.5167 2.2182
5.2412 -12.4023 2.2182
5.5169 -12.2826 2.2182
5.7898 -12.1563 2.2182
6.0599 -12.0240 2.2182
6.3269 -11.8856 2.2182
6.5909 -11.7414 2.2182
6.8514 -11.5912 2.2182
7.1086 -11.4353 2.2182
7.3622 -11.2737 2.2182
7.6122 -11.1065 2.2182
7.8584 -10.9337 2.2182
8.1006 -10.7554 2.2182
8.1988 -10.3944 2.1809
8.2094 -9.9428 2.1241
8.2256 -9.5206 2.0728
8.4076 -9.3034 2.0658
8.6133 -9.1133 2.0658
8.8147 -8.9187 2.0658
9.0117 -8.7196 2.0658
9.2042 -8.5161 2.0658
9.3921 -8.3084 2.0658
9.5754 -8.0966 2.0658
9.7538 -7.8807 2.0658
9.9274 -7.6609 2.0658
10.0960 -7.4373 2.0658
10.2596 -7.2099 2.0658
10.4182 -6.9791 2.0658
10.5722 -6.7451 2.0659
10.7208 -6.5077 2.0661
10.8642 -6.2670 2.0662
11.0020 -6.0231 2.0663
11.1344 -5.7762 2.0664
11.2612 -5.5263 2.0665
11.3824 -5.2738 2.0666
11.4979 -5.0185 2.0667
11.6076 -4.7606 2.0668
9.1056 -3.4990 1.6070
9.1204 -3.2728 1.5963
11.9018 -3.9732 2.0671
11.9880 -3.7065 2.0671
12.0682 -3.4380 2.0672
12.1424 -3.1677 2.0673
12.2104 -2.8958 2.0673
12.2724 -2.6224 2.0674
12.3282 -2.3477 2.0674
12.3778 -2.0718 2.0675
12.4212 -1.7949 2.0675
12.4584 -1.5170 2.0675
12.4893 -1.2384 2.0676
12.5140 -0.9592 2.0676
12.5324 -0.6794 2.0676
12.5445 -0.3994 2.0676
12.5503 -0.1191 2.0676
12.5498 0.1612 2.0676
12.5430 0.4415 2.0676
12.5300 0.7215 2.0676
12.5106 1.0011 2.0676
12.4850 1.2803 2.0676
12.4532 1.5588 2.0675
12.4150 1.8365 2.0675
12.3707 2.1133 2.0675
12.3202 2.3890 2.0674
12.2635 2.6635 2.0674
12.2006 2.9367 2.0673
12.1316 3.2084 2.0673
12.0566 3.4784 2.0672
11.9755 3.7467 2.0671
11.8884 4.0131 2.0670
11.7953 4.2774 2.0670
11.6963 4.5396 2.0669
11.5915 4.7995 2.0668
11.4810 5.0569 2.0667
11.3646 5.3118 2.0666
11.2426 5.5641 2.0665
11.1149 5.8134 2.0664
10.9817 6.0599 2.0663
10.8430 6.3033 2.0662
10.6988 6.5435 2.0660
10.5494 6.7804 2.0659
10.3946 7.0139 2.0658
10.2354 7.2443 2.0658
10.0710 7.4711 2.0658
9.9017 7.6942 2.0658
9.7273 7.9134 2.0658
9.5482 8.1287 2.0658
9.3642 8.3399 2.0658
9.1756 8.5469 2.0658
8.9824 8.7498 2.0658
8.7848 8.9482 2.0658
8.5827 9.1422 2.0658
8.3764 9.3315 2.0658
8.2191 9.5783 2.0792
8.2078 10.0091 2.1324
8.1972 10.4643 2.1898
8.0645 10.7825 2.2182
7.8217 10.9600 2.2182
7.5749 11.1319 2.2182
7.3244 11.2983 2.2182
7.0702 11.4591 2.2182
6.8125 11.6141 2.2182
6.5514 11.7634 2.2182
6.2871 11.9068 2.2182
6.0196 12.0443 2.2182
5.7491 12.1757 2.2182
5.4757 12.3011 2.2182
5.1996 12.4203 2.2182
4.9209 12.5333 2.2182
4.6397 12.6401 2.2182
4.3563 12.7406 2.2182
4.0706 12.8347 2.2182
3.7830 12.9224 2.2182
3.4934 13.0036 2.2182
3.2021 13.0784 2.2182
2.9092 13.1467 2.2182
2.6149 13.2084 2.2182
2.3192 13.2634 2.2182
2.0224 13.3120 2.2182
1.7246 13.3538 2.2182
1.4259 13.3890 2.2182
1.1265 13.4175 2.2182
0.8265 13.4393 2.2182
0.5262 13.4544 2.2182
0.2255 13.4628 2.2182
-0.0752 13.4645 2.2182
-0.3759 13.4595 2.2182
-0.6764 13.4477 2.2182
-0.9766 13.4292 2.2182
-1.2763 13.4041 2.2182
-1.5754 13.3722 2.2182
-1.8735 13.3337 2.2182
-2.1709 13.2886 2.2182
-2.4672 13.2368 2.2182
-2.7622 13.1783 2.2182
-3.0558 13.1134 2.2182
-3.3479 13.0419 2.2182
-3.6384 12.9638 2.2182
-3.9270 12.8793 2.2182
-4.2137 12.7884 2.2182
-4.4983 12.6911 2.2182
-4.7806 12.5875 2.2182
-5.0605 12.4775 2.2182
-5.3379 12.3613 2.2182
-5.6127 12.2391 2.2182
-5.8847 12.1107 2.2182
-6.1537 11.9762 2.2182
-6.4196 11.8358 2.2182
-6.6824 11.6895 2.2182
-6.9418 11.5373 2.2182
-7.1977 11.3794 2.2182
-7.4501 11.2158 2.2182
-7.6987 11.0466 2.2182
-7.9435 10.8719 2.2182
-8.1843 10.6918 2.2182
-8.4211 10.5064 2.2182
-8.6536 10.3156 2.2182
-8.8819 10.1198 2.2182
-9.1057 9.9189 2.2182
-9.3250 9.7131 2.2182
-9.5396 9.5024 2.2182
-9.7494 9.2869 2.2182
-9.9544 9.0668 2.2182
-10.1544 8.8422 2.2182
-10.3148 8.5845 2.2108
-10.5392 8.3800 2.2182
-10.7237 8.1425 2.2182
-10.9029 7.9009 2.2182
-11.0766 7.6554 2.2182
-11.2449 7.4062 2.2182
-11.4074 7.1532 2.2182
-11.5644 6.8966 2.2182
-11.7155 6.6366 2.2182
-11.8608 6.3733 2.2182
-12.0002 6.1068 2.2182
-12.1336 5.8373 2.2182
-12.2609 5.5646 2.2182
-12.3822 5.2896 2.2182
-12.4972 5.0117 2.2182
-12.6060 4.7313 2.2182
-12.7085 4.4486 2.2182
-12.8048 4.1637 2.2182
-12.8945 3.8766 2.2182
-12.9779 3.5877 2.2182
-13.0548 3.2969 2.2182
-13.1252 3.0045 2.2182
-13.1890 2.7106 2.2182
-13.2463 2.4154 2.2182
-13.2969 2.1189 2.2182
-13.3409 1.8215 2.2182
-13.3783 1.5231 2.2182
-13.4090 1.2239 2.2182
-13.4329 0.9241 2.2182
-13.4502 0.6238 2.2182
-13.4608 0.3233 2.2182
-13.4647 0.0226 2.2182
-13.4618 -0.2782 2.2182
-13.4522 -0.5788 2.2182
-13.4359 -0.8791 2.2182
-13.4130 -1.1789 2.2182
-13.3833 -1.4782 2.2182
-13.3469 -1.7768 2.2182
-13.3039 -2.0744 2.2182
-13.2543 -2.3711 2.2182
-13.1980 -2.6665 2.2182
-13.1352 -2.9606 2.2182
-13.0658 -3.2532 2.2182
-12.9898 -3.5442 2.2182
-12.9075 -3.8334 2.2182
-12.8186 -4.1207 2.2182
-12.7234 -4.4060 2.2182
-12.6218 -4.6891 2.2182
-12.5139 -4.9698 2.2182
-12.3998 -5.2481 2.2182
-12.2795 -5.5237 2.2182
-12.1531 -5.7966 2.2182
-12.0206 -6.0666 2.2182
-11.8821 -6.3335 2.2182
-11.7377 -6.5974 2.2182
-11.5874 -6.8579 2.2182
-11.4313 -7.1149 2.2182
-11.2696 -7.3685 2.2182
-11.1022 -7.6183 2.2182
-10.9293 -7.8644 2.2182
-10.7509 -8.1065 2.2182
-10.5671 -8.3446 2.2182
-10.3781 -8.5786 2.2182
-10.1840 -8.8083 2.2182
-9.9847 -9.0334 2.2182
-9.7805 -9.2542 2.2182
-9.5713 -9.4703 2.2182
-9.3574 -9.6818 2.2182
-9.1389 -9.8883 2.2182
-8.9157 -10.0900 2.2182
-8.6882 -10.2865 2.2182
-8.4562 -10.4781 2.2182
-8.2201 -10.6643 2.2182
-7.9799 -10.8453 2.2182
-7.7357 -11.0208 2.2182
-7.4876 -11.1908 2.2182
-7.2358 -11.3552 2.2182
-6.9804 -11.5140 2.2182
-6.7214 -11.6670 2.2182
-6.4592 -11.8143 2.2182
-6.1937 -11.9556 2.2182
-5.9251 -12.0909 2.2182
-5.6536 -12.2203 2.2182
-5.3793 -12.3435 2.2182
-5.1023 -12.4605 2.2182
-4.8227 -12.5714 2.2182
-4.5407 -12.6760 2.2182
-4.2565 -12.7742 2.2182
-3.9702 -12.8661 2.2182
-3.6818 -12.9515 2.2182
-3.3916 -13.0305 2.2182
-3.0997 -13.1031 2.2182
-2.8063 -13.1690 2.2182
-2.5115 -13.2284 2.2182
-2.2154 -13.2812 2.2182
-1.9182 -13.3274 2.2182
-1.6201 -13.3669 2.2182
-1.3211 -13.3997 2.2182
-1.0215 -13.4259 2.2182
-0.7214 -13.4454 2.2182
-0.4209 -13.4581 2.2182
-0.1202 -13.4642 2.2182
0.1805 -13.4635 2.2182
0.4811 -13.4561 2.2182
0.7815 -13.4420 2.2182
1.0816 -13.4212 2.2182
1.3811 -13.3937 2.2182
1.6799 -13.3595 2.2182
1.9778 -13.3186 2.2182
2.2748 -13.2712 2.2182
2.5706 -13.2170 2.2182
2.8652 -13.1563 2.2182
3.1583 -13.0891 2.2182
3.4499 -13.0153 2.2182
3.7397 -12.9350 2.2182
4.0276 -12.8482 2.2182
4.3136 -12.7551 2.2182
4.5974 -12.6555 2.2182
4.8789 -12.5497 2.2182
5.1580 -12.4376 2.2182
5.4345 -12.3193 2.2182
5.7083 -12.1948 2.2182
5.9792 -12.0643 2.2182
6.2471 -11.9278 2.2182
6.5120 -11.7853 2.2182
6.7736 -11.6369 2.2182
7.0318 -11.4827 2.2182
7.2865 -11.3228 2.2182
7.5376 -11.1572 2.2182
7.7849 -10.9861 2.2182
8.0283 -10.8095 2.2182
8.1955 -10.5347 2.1988
8.2063 -10.0757 2.1408
8.2163 -9.6401 2.0867
8.3451 -9.3595 2.0658
8.5521 -9.1708 2.0658
8.7548 -8.9775 2.0658
8.9531 -8.7797 2.0658
9.1470 -8.5776 2.0658
9.3363 -8.3711 2.0658
9.5209 -8.1605 2.0658
9.7008 -7.9459 2.0658
9.8758 -7.7273 2.0658
10.0459 -7.5048 2.0658
10.2110 -7.2785 2.0658
10.3710 -7.0486 2.0658
10.5265 -6.8157 2.0659
10.6768 -6.5793 2.0660
10.8217 -6.3395 2.0661
10.9613 -6.0966 2.0663
11.0953 -5.8506 2.0664
11.2238 -5.6016 2.0665
11.3467 -5.3498 2.0666
11.4639 -5.0953 2.0667
11.5754 -4.8382 2.0668
9.1034 -3.5683 1.6108
9.1108 -3.3384 1.5985
9.4625 -3.2295 1.6471
11.9628 -3.7867 2.0671
12.0448 -3.5187 2.0672
12.1207 -3.2489 2.0672
12.1906 -2.9775 2.0673
12.2544 -2.7046 2.0674
12.3121 -2.4302 2.0674
12.3635 -2.1547 2.0675
12.4088 -1.8781 2.0675
12.4479 -1.6005 2.0675
12.4807 -1.3221 2.0676
12.5072 -1.0430 2.0676
12.5275 -0.7634 2.0676
12.5415 -0.4834 2.0676
12.5492 -0.2032 2.0676
12.5506 0.0771 2.0676
12.5457 0.3574 2.0676
12.5346 0.6375 2.0676
12.5171 0.9173 2.0676
12.4934 1.1966 2.0676
12.4634 1.4754 2.0675
12.4271 1.7533 2.0675
12.3847 2.0304 2.0675
12.3360 2.3064 2.0674
12.2811 2.5813 2.0674
12.2201 2.8549 2.0673
12.1530 3.1270 2.0673
12.0797 3.3976 2.0672
12.0004 3.6664 2.0671
11.9151 3.9334 2.0671
11.8238 4.1983 2.0670
11.7267 4.4612 2.0669
11.6236 4.7218 2.0668
11.5147 4.9800 2.0667
11.4001 5.2357 2.0666
11.2797 5.4887 2.0665
11.1538 5.7390 2.0664
11.0222 5.9863 2.0663
10.8852 6.2307 2.0662
10.7427 6.4718 2.0661
10.5948 6.7098 2.0659
10.4416 6.9443 2.0658
10.2837 7.1755 2.0658
10.1209 7.4034 2.0658
9.9530 7.6276 2.0658
9.7802 7.8480 2.0658
9.6024 8.0645 2.0658
9.4199 8.2770 2.0658
9.2327 8.4853 2.0658
9.0409 8.6894 2.0658
8.8446 8.8891 2.0658
8.6438 9.0844 2.0658
8.4388 9.2752 2.0658
8.2319 9.4647 2.0664
8.2109 9.8772 2.1160
