ply
format ascii 1.0
element vertex 2090
property float32 x
property float32 y
property float32 z
end_header
2.4474 15.8708 2.2753
2.0923 15.9215 2.2753
1.7362 15.9643 2.2753
1.3792 15.9991 2.2753
1.0216 16.0259 2.2753
0.6634 16.0447 2.2753
0.3049 16.0555 2.2753
-0.0538 16.0583 2.2753
-0.4124 16.0531 2.2753
-0.7709 16.0399 2.2753
-1.1289 16.0187 2.2753
-1.4864 15.9895 2.2753
-1.8431 15.9523 2.2753
-2.1990 15.9071 2.2753
-2.5537 15.8540 2.2753
-2.9072 15.7931 2.2753
-3.2592 15.7242 2.2753
-3.6096 15.6475 2.2753
-3.9581 15.5629 2.2753
-4.3047 15.4707 2.2753
-4.6492 15.3707 2.2753
-4.9913 15.2630 2.2753
-5.3309 15.1477 2.2753
-5.6679 15.0249 2.2753
-6.0021 14.8945 2.2753
-6.3333 14.7568 2.2753
-6.6613 14.6116 2.2753
-6.9860 14.4592 2.2753
-7.3072 14.2996 2.2753
-7.6247 14.1328 2.2753
-7.9385 13.9590 2.2753
-8.2482 13.7782 2.2753
-8.5539 13.5906 2.2753
-8.8553 13.3961 2.2753
-9.1523 13.1950 2.2753
-9.2027 12.6546 2.2170
-9.2144 12.0932 2.1542
-9.3444 11.7118 2.1229
-9.6064 11.5034 2.1235
-9.8641 11.2896 2.1242
-10.1170 11.0700 2.1249
-10.3649 10.8447 2.1255
-10.6078 10.6137 2.1262
-10.8454 10.3772 2.1268
-11.0777 10.1353 2.1274
-11.3045 9.8882 2.1280
-11.5257 9.6359 2.1286
-11.7413 9.3786 2.1292
-11.9509 9.1165 2.1298
-12.1547 8.8495 2.1303
-12.3523 8.5780 2.1308
-12.5438 8.3020 2.1313
-12.7291 8.0216 2.1318
-12.9079 7.7370 2.1323
-13.0803 7.4484 2.1328
-13.2462 7.1559 2.1332
-13.4054 6.8596 2.1336
-13.5578 6.5597 2.1340
-13.7034 6.2564 2.1344
-13.8422 5.9498 2.1348
-13.9739 5.6401 2.1351
-14.0986 5.3275 2.1355
-14.2161 5.0120 2.1358
-14.3265 4.6939 2.1361
-14.4296 4.3733 2.1364
-14.5254 4.0504 2.1366
-14.6139 3.7254 2.1369
-14.6949 3.3984 2.1371
-14.7685 3.0696 2.1373
-14.8346 2.7393 2.1374
-14.8932 2.4075 2.1376
-14.9442 2.0744 2.1377
-14.9876 1.7402 2.1378
-15.0234 1.4050 2.1379
-15.0516 1.0692 2.1380
-15.0721 0.7328 2.1381
-15.0849 0.3960 2.1381
-15.0901 0.0589 2.1381
-15.0876 -0.2781 2.1381
-15.0774 -0.6150 2.1381
-15.0596 -0.9515 2.1380
-15.0341 -1.2876 2.1380
-15.0010 -1.6230 2.1379
-14.9602 -1.9575 2.1378
-14.9119 -2.2910 2.1376
-14.8560 -2.6233 2.1375
-14.7925 -2.9543 2.1373
-14.7215 -3.2836 2.1371
-14.6431 -3.6113 2.1369
-14.5572 -3.9369 2.1367
-14.4640 -4.2606 2.1365
-14.3634 -4.5820 2.1362
-14.2556 -4.9010 2.1359
-14.1405 -5.2174 2.1356
-14.0183 -5.5311 2.1353
-13.8890 -5.8419 2.1349
-13.7528 -6.1496 2.1346
-13.6096 -6.4540 2.1342
-13.4595 -6.7551 2.1338
-13.3027 -7.0526 2.1334
-13.1391 -7.3465 2.1329
-12.9690 -7.6365 2.1325
-12.7924 -7.9225 2.1320
-12.6094 -8.2044 2.1315
-12.4201 -8.4819 2.1310
-12.2245 -8.7550 2.1305
-12.0229 -9.0236 2.1299
-11.8153 -9.2875 2.1294
-11.6018 -9.5465 2.1288
-11.3826 -9.8006 2.1282
-11.1577 -10.0495 2.1276
-10.9273 -10.2932 2.1270
-10.6915 -10.5316 2.1264
-10.4505 -10.7645 2.1257
-9.7829 -10.5379 2.0373
-9.5082 -10.7122 2.0295
-9.6946 -11.4263 2.1232
-9.3707 -11.5582 2.1083
-9.2215 -11.9083 2.1340
-9.2069 -12.4545 2.1945
-9.1947 -13.0373 2.2604
-8.9598 -13.3265 2.2753
-8.6599 -13.5233 2.2753
-8.3557 -13.7133 2.2753
-8.0473 -13.8965 2.2753
-7.7349 -14.0728 2.2753
-7.4187 -14.2421 2.2753
-7.0987 -14.4042 2.2753
-6.7753 -14.5592 2.2753
-6.4484 -14.7068 2.2753
-6.1183 -14.8472 2.2753
-5.7852 -14.9801 2.2753
-5.4492 -15.1056 2.2753
-5.1105 -15.2236 2.2753
-4.7692 -15.3339 2.2753
-4.4255 -15.4366 2.2753
-4.0796 -15.5316 2.2753
-3.7318 -15.6188 2.2753
-3.3820 -15.6983 2.2753
-3.0305 -15.7699 2.2753
-2.6776 -15.8336 2.2753
-2.3233 -15.8895 2.2753
-1.9678 -15.9374 2.2753
-1.6113 -15.9774 2.2753
-1.2541 -16.0094 2.2753
-0.8962 -16.0334 2.2753
-0.5379 -16.0494 2.2753
-0.1793 -16.0574 2.2753
0.1793 -16.0574 2.2753
0.5379 -16.0494 2.2753
0.8963 -16.0334 2.2753
1.2541 -16.0094 2.2753
1.6114 -15.9774 2.2753
1.9678 -15.9374 2.2753
2.3233 -15.8895 2.2753
2.6776 -15.8336 2.2753
3.0306 -15.7699 2.2753
3.3820 -15.6983 2.2753
3.7318 -15.6188 2.2753
4.0797 -15.5316 2.2753
4.4255 -15.4366 2.2753
4.7692 -15.3339 2.2753
5.1105 -15.2236 2.2753
5.4492 -15.1056 2.2753
5.6983 -14.7550 2.2411
5.7261 -13.8953 2.1294
6.0175 -13.7241 2.1233
6.3250 -13.5915 2.1241
6.3367 -12.8579 2.0311
6.9309 -13.3056 2.1257
7.2291 -13.1524 2.1265
7.5238 -12.9924 2.1273
7.8149 -12.8258 2.1281
8.1024 -12.6527 2.1288
8.3859 -12.4729 2.1296
8.6654 -12.2868 2.1303
8.9408 -12.0944 2.1311
9.2118 -11.8958 2.1318
9.4783 -11.6909 2.1325
9.7403 -11.4801 2.1332
9.9974 -11.2633 2.1339
9.6888 -10.4365 2.0177
9.5098 -9.7955 1.9344
9.4112 -9.2703 1.8717
9.5101 -8.9582 1.8512
9.4805 -8.5388 1.8078
9.4674 -8.1515 1.7701
9.4145 -7.7466 1.7275
9.5022 -7.4692 1.7125
9.3216 -6.9962 1.6514
9.2905 -6.6537 1.6191
9.4928 -6.4828 1.6288
9.4482 -6.1475 1.5971
9.2813 -5.7480 1.5468
9.2888 -5.4694 1.5273
9.4604 -5.2896 1.5357
9.3963 -4.9816 1.5069
9.3636 -4.6994 1.4845
9.2715 -4.3968 1.4539
9.4487 -4.2250 1.4665
9.5271 -4.0071 1.4644
9.3208 -3.6776 1.4197
9.2830 -3.4251 1.4020
9.2917 -3.1944 1.3922
9.5859 -3.0579 1.4257
10.2893 -3.0309 1.5198
10.2830 -2.7810 1.5093
14.4369 -3.5604 2.1068
14.5117 -3.2368 2.1067
14.5791 -2.9116 2.1065
14.6370 -2.5846 2.1060
13.8097 -2.1217 1.9796
13.8546 -1.8128 1.9798
13.8933 -1.5031 1.9800
13.9258 -1.1926 1.9804
13.9520 -0.8815 1.9808
13.9719 -0.5699 1.9813
13.9855 -0.2577 1.9819
13.9928 0.0547 1.9827
13.9938 0.3674 1.9835
13.9885 0.6801 1.9844
13.9768 0.9929 1.9854
13.9588 1.3055 1.9864
13.9345 1.6179 1.9876
13.9038 1.9299 1.9889
13.8668 2.2415 1.9903
13.8234 2.5526 1.9917
13.7737 2.8629 1.9933
14.5468 3.3642 2.1155
14.4725 3.6894 2.1162
14.3914 4.0131 2.1169
14.3034 4.3351 2.1177
14.2086 4.6553 2.1185
14.1070 4.9736 2.1194
10.1322 3.8287 1.5347
9.5529 3.8557 1.4596
9.4789 4.0744 1.4619
9.4988 4.3368 1.4795
9.4174 4.5565 1.4823
9.3945 4.8072 1.4953
9.4195 5.0886 1.5169
9.4148 5.3611 1.5351
9.4090 5.6398 1.5543
9.3235 5.8755 1.5615
9.3530 6.1901 1.5892
9.3831 6.5161 1.6186
9.3547 6.8109 1.6396
6.3270 4.8264 1.1275
9.3799 7.4924 1.7010
11.5770 9.6788 2.1381
11.3548 9.9322 2.1375
11.1270 10.1805 2.1369
10.8937 10.4234 2.1363
10.6550 10.6609 2.1356
10.4110 10.8929 2.1350
10.1620 11.1193 2.1343
9.9080 11.3398 2.1336
9.6491 11.5546 2.1329
9.3855 11.7633 2.1322
9.1174 11.9660 2.1315
8.8449 12.1625 2.1308
8.5680 12.3527 2.1301
8.2871 12.5366 2.1293
8.0022 12.7140 2.1286
7.7135 12.8849 2.1278
7.4210 13.0491 2.1270
7.1251 13.2068 2.1262
6.8258 13.3576 2.1254
6.5233 13.5016 2.1246
6.2177 13.6387 2.1238
5.9092 13.7688 2.1230
5.7123 14.1755 2.1655
5.6679 15.0249 2.2753
5.3310 15.1477 2.2753
4.9913 15.2630 2.2753
4.6492 15.3707 2.2753
4.3047 15.4707 2.2753
3.9581 15.5629 2.2753
3.6095 15.6475 2.2753
3.2592 15.7242 2.2753
2.9072 15.7931 2.2753
2.5537 15.8541 2.2753
2.1990 15.9071 2.2753
1.8432 15.9523 2.2753
1.4864 15.9895 2.2753
1.1289 16.0187 2.2753
0.7709 16.0399 2.2753
0.4124 16.0531 2.2753
0.0538 16.0583 2.2753
-0.3049 16.0555 2.2753
-0.6634 16.0447 2.2753
-1.0216 16.0259 2.2753
-1.3792 15.9991 2.2753
-1.7362 15.9643 2.2753
-2.0923 15.9215 2.2753
-2.4474 15.8708 2.2753
-2.8013 15.8122 2.2753
-3.1537 15.7457 2.2753
-3.5046 15.6713 2.2753
-3.8538 15.5891 2.2753
-4.2010 15.4992 2.2753
-4.5461 15.4015 2.2753
-4.8889 15.2961 2.2753
-5.2293 15.1831 2.2753
-5.5671 15.0625 2.2753
-5.9022 14.9344 2.2753
-6.2342 14.7989 2.2753
-6.5632 14.6560 2.2753
-6.8889 14.5057 2.2753
-7.2112 14.3482 2.2753
-7.5298 14.1836 2.2753
-7.8447 14.0119 2.2753
-8.1557 13.8332 2.2753
-8.4626 13.6476 2.2753
-8.7653 13.4552 2.2753
-9.0637 13.2560 2.2753
-9.1990 12.8293 2.2368
-9.2109 12.2583 2.1726
-9.2658 11.7742 2.1229
-9.5281 11.5663 2.1233
-9.7873 11.3543 2.1240
-10.0416 11.1365 2.1247
-10.2911 10.9128 2.1253
-10.5355 10.6835 2.1260
-10.7747 10.4487 2.1266
-11.0086 10.2085 2.1272
-11.2371 9.9629 2.1278
-11.4600 9.7121 2.1284
-11.6772 9.4563 2.1290
-11.8886 9.1956 2.1296
-12.0942 8.9301 2.1301
-12.2937 8.6599 2.1307
-12.4870 8.3852 2.1312
-12.6742 8.1061 2.1317
-12.8550 7.8228 2.1322
-13.0293 7.5354 2.1326
-13.1971 7.2440 2.1331
-13.3583 6.9489 2.1335
-13.5128 6.6501 2.1339
-13.6605 6.3478 2.1343
-13.8013 6.0422 2.1347
-13.9351 5.7334 2.1350
-14.0619 5.4216 2.1354
-14.1816 5.1069 2.1357
-14.2941 4.7896 2.1360
-14.3994 4.4697 2.1363
-14.4974 4.1475 2.1365
-14.5881 3.8231 2.1368
-14.6714 3.4967 2.1370
-14.7472 3.1685 2.1372
-14.8156 2.8385 2.1374
-14.8764 2.5071 2.1376
-14.9297 2.1744 2.1377
-9.7781 1.2017 1.3959
-15.0135 1.5056 2.1379
-15.0439 1.1700 2.1380
-15.0667 0.8338 2.1381
-15.0819 0.4971 2.1381
-15.0893 0.1601 2.1381
-15.0892 -0.1770 2.1381
-15.0813 -0.5139 2.1381
-15.0658 -0.8506 2.1381
-15.0426 -1.1869 2.1380
-15.0117 -1.5225 2.1379
-14.9733 -1.8573 2.1378
-14.9272 -2.1911 2.1377
-14.8735 -2.5238 2.1375
-14.8123 -2.8552 2.1374
-14.7436 -3.1850 2.1372
-14.6674 -3.5132 2.1370
-14.5837 -3.8395 2.1368
-14.4927 -4.1638 2.1365
-14.3943 -4.4859 2.1363
-14.2887 -4.8056 2.1360
-14.1758 -5.1227 2.1357
-14.0557 -5.4373 2.1354
-13.9286 -5.7489 2.1350
-13.7944 -6.0575 2.1347
-13.6533 -6.3630 2.1343
-13.5052 -6.6651 2.1339
-13.3504 -6.9638 2.1335
-13.1889 -7.2587 2.1331
-13.0207 -7.5499 2.1326
-12.8461 -7.8371 2.1321
-12.6649 -8.1202 2.1317
-12.4775 -8.3991 2.1312
-12.2838 -8.6736 2.1306
-12.0840 -8.9435 2.1301
-11.8782 -9.2088 2.1296
-11.6665 -9.4693 2.1290
-11.4489 -9.7249 2.1284
-11.2257 -9.9754 2.1278
-10.9970 -10.2207 2.1272
-10.7628 -10.4606 2.1266
-10.5234 -10.6952 2.1259
-9.9156 -10.5382 2.0502
-9.5692 -10.6364 2.0272
-9.7744 -11.3651 2.1239
-9.3907 -11.4255 2.0955
-9.2526 -11.7845 2.1229
-9.2104 -12.2861 2.1757
-9.1984 -12.8589 2.2401
-9.0489 -13.2662 2.2753
-8.7503 -13.4650 2.2753
-8.4474 -13.6570 2.2753
-8.1402 -13.8423 2.2753
-7.8291 -14.0207 2.2753
-7.5140 -14.1920 2.2753
-7.1951 -14.3563 2.2753
-6.8727 -14.5134 2.2753
-6.5468 -14.6633 2.2753
-6.2177 -14.8059 2.2753
-5.8854 -14.9411 2.2753
-5.5503 -15.0688 2.2753
-5.2124 -15.1890 2.2753
-4.8718 -15.3016 2.2753
-4.5289 -15.4066 2.2753
-4.1837 -15.5039 2.2753
-3.8363 -15.5935 2.2753
-3.4871 -15.6753 2.2753
-3.1361 -15.7492 2.2753
-2.7836 -15.8153 2.2753
-2.4297 -15.8736 2.2753
-2.0745 -15.9239 2.2753
-1.7184 -15.9662 2.2753
-1.3613 -16.0006 2.2753
-1.0036 -16.0270 2.2753
-0.6454 -16.0455 2.2753
-0.2869 -16.0559 2.2753
0.0718 -16.0583 2.2753
0.4304 -16.0527 2.2753
0.7888 -16.0390 2.2753
1.1468 -16.0174 2.2753
1.5043 -15.9878 2.2753
1.8610 -15.9502 2.2753
2.2167 -15.9047 2.2753
2.5714 -15.8512 2.2753
2.9248 -15.7898 2.2753
3.2767 -15.7206 2.2753
3.6270 -15.6435 2.2753
3.9755 -15.5586 2.2753
4.3220 -15.4659 2.2753
4.6664 -15.3655 2.2753
5.0084 -15.2574 2.2753
5.3479 -15.1418 2.2753
5.6847 -15.0186 2.2753
5.7134 -14.1325 2.1599
5.9248 -13.7624 2.1230
6.2331 -13.6320 2.1238
6.2397 -12.8780 2.0276
6.5883 -12.8573 2.0470
7.1399 -13.1991 2.1263
7.4357 -13.0411 2.1270
7.7280 -12.8765 2.1278
8.0165 -12.7053 2.1286
8.3013 -12.5276 2.1294
8.5820 -12.3434 2.1301
8.8586 -12.1528 2.1308
9.1309 -11.9560 2.1316
9.3988 -11.7530 2.1323
9.4928 -11.3416 2.0956
9.9208 -11.3290 2.1337
9.7332 -10.6261 2.0418
9.4622 -9.8780 1.9381
9.4595 -9.4436 1.8939
9.4624 -9.0337 1.8536
9.5088 -8.6804 1.8243
9.4180 -8.2194 1.7712
9.4225 -7.8597 1.7386
9.5310 -7.5957 1.7268
9.3185 -7.0919 1.6592
9.2498 -6.7188 1.6199
9.3730 -6.4936 1.6156
9.5883 -6.3305 1.6280
9.3818 -5.8976 1.5701
9.2866 -5.5523 1.5331
9.4229 -5.3518 1.5354
9.5768 -5.1598 1.5414
9.3267 -4.7594 1.4836
9.2130 -4.4449 1.4494
9.2827 -4.2256 1.4451
9.5608 -4.0969 1.4738
9.3941 -3.7794 1.4347
9.2760 -3.4933 1.4044
9.2472 -3.2485 1.3887
9.4396 -3.0810 1.4069
10.2912 -3.1065 1.5231
10.2849 -2.8556 1.5124
10.7963 -2.7394 1.5782
14.4900 -3.3340 2.1067
14.5600 -3.0094 2.1066
14.6206 -2.6829 2.1062
14.6725 -2.3550 2.1056
13.8418 -1.9056 1.9797
13.8824 -1.5961 1.9799
13.9167 -1.2859 1.9803
13.9448 -0.9749 1.9807
13.9666 -0.6634 1.9812
13.9821 -0.3514 1.9817
13.9913 -0.0391 1.9824
13.9942 0.2735 1.9832
13.9908 0.5863 1.9841
13.9810 0.8991 1.9851
13.9649 1.2117 1.9861
13.9425 1.5242 1.9873
13.9137 1.8364 1.9885
13.8785 2.1482 1.9899
13.8371 2.4594 1.9913
13.7893 2.7699 1.9928
14.5678 3.2663 2.1153
14.4956 3.5920 2.1160
14.4165 3.9161 2.1167
14.3305 4.2386 2.1174
14.2377 4.5594 2.1182
14.1382 4.8783 2.1191
14.0319 5.1951 2.1201
9.8132 3.8845 1.4954
9.5170 4.0154 1.4636
9.4972 4.2594 1.4748
9.4638 4.5009 1.4848
9.3909 4.7263 1.4896
9.4527 5.0250 1.5168
9.4151 5.2781 1.5293
9.3452 5.5167 1.5376
9.3412 5.7996 1.5579
9.3287 6.0846 1.5781
9.4066 6.4394 1.6152
9.3504 6.7125 1.6309
6.3593 4.7840 1.1276
9.3338 7.3537 1.6836
9.8425 8.1173 1.8077
11.4221 9.8567 2.1377
11.1959 10.1065 2.1371
10.9642 10.3511 2.1365
10.7271 10.5902 2.1358
10.4848 10.8239 2.1352
10.2372 11.0519 2.1345
9.9847 11.2743 2.1338
9.7273 11.4908 2.1332
9.4651 11.7013 2.1325
9.1983 11.9058 2.1317
8.9271 12.1042 2.1310
8.6515 12.2963 2.1303
8.3718 12.4821 2.1295
8.0881 12.6615 2.1288
7.8004 12.8343 2.1280
7.5091 13.0006 2.1272
7.2142 13.1602 2.1265
6.9159 13.3130 2.1257
6.6144 13.4591 2.1249
6.3097 13.5982 2.1240
6.0021 13.7305 2.1232
5.7219 13.9292 2.1336
5.6972 14.8013 2.2472
5.4323 15.1117 2.2753
5.0935 15.2292 2.2753
4.7521 15.3392 2.2753
4.4083 15.4415 2.2753
4.0623 15.5361 2.2753
3.7143 15.6229 2.2753
3.3645 15.7020 2.2753
3.0129 15.7732 2.2753
2.6599 15.8366 2.2753
2.3055 15.8921 2.2753
1.9500 15.9396 2.2753
1.5935 15.9791 2.2753
1.2362 16.0108 2.2753
0.8784 16.0344 2.2753
0.5200 16.0500 2.2753
0.1614 16.0576 2.2753
-0.1973 16.0572 2.2753
-0.5558 16.0488 2.2753
-0.9141 16.0324 2.2753
-1.2720 16.0080 2.2753
-1.6292 15.9755 2.2753
-1.9856 15.9352 2.2753
-2.3410 15.8869 2.2753
-2.6953 15.8306 2.2753
-3.0482 15.7665 2.2753
-3.3995 15.6944 2.2753
-3.7492 15.6146 2.2753
-4.0970 15.5270 2.2753
-4.4428 15.4316 2.2753
-4.7864 15.3285 2.2753
-5.1275 15.2178 2.2753
-5.4661 15.0995 2.2753
-5.8020 14.9736 2.2753
-6.1349 14.8403 2.2753
-6.4648 14.6996 2.2753
-6.7915 14.5516 2.2753
-7.1148 14.3962 2.2753
-7.4346 14.2337 2.2753
-7.7507 14.0641 2.2753
-8.0628 13.8875 2.2753
-8.3710 13.7040 2.2753
-8.6750 13.5136 2.2753
-8.9746 13.3164 2.2753
-9.1953 13.0073 2.2570
-9.2075 12.4262 2.1913
-9.2239 11.8840 2.1315
-9.4495 11.6288 2.1231
-9.7100 11.4186 2.1238
-9.9658 11.2024 2.1245
-10.2168 10.9805 2.1251
-10.4627 10.7529 2.1258
-10.7035 10.5197 2.1264
-10.9390 10.2811 2.1271
-11.1691 10.0371 2.1277
-11.3937 9.7879 2.1283
-11.6126 9.5336 2.1288
-11.8258 9.2744 2.1294
-12.0331 9.0103 2.1300
-12.2345 8.7415 2.1305
-12.4297 8.4681 2.1310
-12.6187 8.1903 2.1315
-12.8014 7.9082 2.1320
-12.9777 7.6220 2.1325
-13.1475 7.3318 2.1329
-13.3107 7.0378 2.1334
-13.4672 6.7401 2.1338
-13.6169 6.4388 2.1342
-13.7598 6.1342 2.1346
-13.8957 5.8263 2.1349
-14.0246 5.5154 2.1353
-14.1465 5.2016 2.1356
-14.2611 4.8851 2.1359
-14.3686 4.5660 2.1362
-14.4688 4.2444 2.1365
-14.5617 3.9207 2.1367
-14.6472 3.5949 2.1369
-14.7253 3.2671 2.1371
-14.7958 2.9377 2.1373
-14.8589 2.6067 2.1375
-14.9145 2.2743 2.1377
-9.7129 1.2599 1.3877
-15.0028 1.6062 2.1379
-15.0356 1.2708 2.1380
-15.0607 0.9347 2.1380
-15.0781 0.5981 2.1381
-15.0879 0.2611 2.1381
-15.0900 -0.0759 2.1381
-15.0845 -0.4129 2.1381
-15.0712 -0.7497 2.1381
-15.0503 -1.0861 2.1380
-15.0218 -1.4219 2.1379
-14.9856 -1.7569 2.1378
-14.9418 -2.0911 2.1377
-14.8904 -2.4241 2.1376
-14.8315 -2.7559 2.1374
-14.7650 -3.0862 2.1373
-14.6910 -3.4149 2.1371
-14.6096 -3.7417 2.1368
-14.5208 -4.0667 2.1366
-14.4246 -4.3895 2.1363
-14.3211 -4.7099 2.1361
-14.2104 -5.0279 2.1358
-14.0925 -5.3432 2.1355
-13.9675 -5.6558 2.1351
-13.8354 -5.9653 2.1348
-13.6963 -6.2717 2.1344
-13.5503 -6.5749 2.1340
-13.3975 -6.8746 2.1336
-13.2380 -7.1707 2.1332
-13.0719 -7.4630 2.1327
-12.8992 -7.7514 2.1323
-12.7200 -8.0358 2.1318
-12.5344 -8.3159 2.1313
-12.3426 -8.5917 2.1308
-12.1446 -8.8630 2.1303
-11.9406 -9.1297 2.1297
-11.7306 -9.3917 2.1292
-11.5148 -9.6487 2.1286
-11.2933 -9.9007 2.1280
-11.0662 -10.1476 2.1274
-10.8336 -10.3892 2.1268
-10.5957 -10.6254 2.1261
-10.3526 -10.8561 2.1255
-9.6402 -10.5721 2.0272
-9.5077 -10.9064 2.0501
-9.5199 -11.4259 2.1072
-9.3313 -11.7222 2.1229
-9.2138 -12.1206 2.1572
-9.2021 -12.6836 2.2203
-9.1376 -13.2053 2.2753
-8.8404 -13.4060 2.2753
-8.5387 -13.6001 2.2753
-8.2328 -13.7874 2.2753
-7.9228 -13.9679 2.2753
-7.6089 -14.1414 2.2753
-7.2912 -14.3078 2.2753
-6.9698 -14.4670 2.2753
-6.6449 -14.6191 2.2753
-6.3168 -14.7639 2.2753
-5.9854 -14.9013 2.2753
-5.6511 -15.0312 2.2753
-5.3140 -15.1537 2.2753
-4.9742 -15.2686 2.2753
-4.6320 -15.3759 2.2753
-4.2874 -15.4755 2.2753
-3.9407 -15.5674 2.2753
-3.5920 -15.6515 2.2753
-3.2416 -15.7279 2.2753
-2.8895 -15.7963 2.2753
-2.5360 -15.8569 2.2753
-2.1812 -15.9096 2.2753
-1.8254 -15.9544 2.2753
-1.4686 -15.9911 2.2753
-1.1110 -16.0200 2.2753
-0.7530 -16.0408 2.2753
-0.3945 -16.0536 2.2753
-0.0359 -16.0584 2.2753
0.3228 -16.0552 2.2753
0.6813 -16.0440 2.2753
1.0395 -16.0248 2.2753
1.3971 -15.9976 2.2753
1.7541 -15.9624 2.2753
2.1102 -15.9192 2.2753
2.4652 -15.8681 2.2753
2.8190 -15.8091 2.2753
3.1714 -15.7422 2.2753
3.5222 -15.6674 2.2753
3.8712 -15.5848 2.2753
4.2183 -15.4945 2.2753
4.5633 -15.3964 2.2753
4.9060 -15.2907 2.2753
5.2463 -15.1773 2.2753
5.5840 -15.0563 2.2753
5.7071 -14.3937 2.1939
5.8321 -13.8012 2.1229
6.1409 -13.6719 2.1236
6.2040 -13.0260 2.0443
6.4800 -12.8575 2.0401
7.0506 -13.2451 2.1260
7.3474 -13.0892 2.1268
7.6407 -12.9266 2.1276
7.9304 -12.7573 2.1284
8.2163 -12.5815 2.1291
8.4982 -12.3993 2.1299
8.7761 -12.2106 2.1306
9.0497 -12.0157 2.1313
9.3190 -11.8145 2.1321
9.5836 -11.6073 2.1328
9.8437 -11.3941 2.1335
10.0989 -11.1750 2.1341
9.3781 -9.9225 1.9345
9.4155 -9.5266 1.8978
9.4468 -9.1406 1.8625
9.5288 -8.8165 1.8394
9.4728 -8.3798 1.7920
9.4395 -7.9817 1.7515
9.4856 -7.6641 1.7279
9.6154 -7.4201 1.7209
9.2406 -6.8072 1.6262
9.3600 -6.5777 1.6209
9.4726 -6.3457 1.6155
9.4048 -6.0003 1.5807
9.2299 -5.6027 1.5299
9.3690 -5.4045 1.5325
9.5858 -5.2478 1.5484
9.4055 -4.8793 1.5013
9.1543 -4.4924 1.4448
9.2585 -4.2897 1.4458
9.5061 -4.1491 1.4696
9.2974 -3.8131 1.4238
9.3244 -3.5831 1.4154
9.2100 -3.3050 1.3864
9.3293 -3.1144 1.3936
9.7836 -3.0249 1.4510
10.2868 -2.9305 1.5155
10.5268 -2.7462 1.5414
14.4677 -3.4311 2.1068
14.5398 -3.1069 2.1066
14.6034 -2.7810 2.1063
14.6576 -2.4534 2.1057
13.8284 -1.9982 1.9797
13.8709 -1.6890 1.9799
13.9071 -1.3790 1.9801
13.9370 -1.0683 1.9805
13.9607 -0.7569 1.9810
13.9781 -0.4450 1.9816
13.9892 -0.1328 1.9822
13.9940 0.1797 1.9830
13.9925 0.4924 1.9838
13.9846 0.8052 1.9848
13.9704 1.1179 1.9858
13.9499 1.4305 1.9869
13.9230 1.7428 1.9881
13.8897 2.0547 1.9894
13.8502 2.3660 1.9909
13.8043 2.6768 1.9924
13.7520 2.9868 1.9939
14.5179 3.4945 2.1158
14.4409 3.8191 2.1165
14.3570 4.1421 2.1172
14.2663 4.4634 2.1180
14.1687 4.7828 2.1189
14.0645 5.1003 2.1198
9.8748 3.8326 1.5008
9.5359 3.9484 1.4624
9.4897 4.1798 1.4692
9.4656 4.4242 1.4804
9.3224 4.6138 1.4738
9.3349 4.8824 1.4926
9.4603 5.2204 1.5310
9.3825 5.4543 1.5377
9.4029 5.7509 1.5617
9.3122 5.9853 1.5685
9.4242 6.3591 1.6109
9.3382 6.6093 1.6210
9.3382 6.9275 1.6475
9.3490 7.2647 1.6776
9.8417 8.0065 1.7976
11.4888 9.7808 2.1379
11.2643 10.0322 2.1373
11.0343 10.2783 2.1366
10.7988 10.5191 2.1360
10.5580 10.7544 2.1354
10.3120 10.9841 2.1347
10.0610 11.2082 2.1340
9.8050 11.4264 2.1334
9.5443 11.6388 2.1327
9.2788 11.8451 2.1320
9.0089 12.0453 2.1312
8.7347 12.2393 2.1305
8.4562 12.4270 2.1298
8.1736 12.6083 2.1290
7.8871 12.7831 2.1282
7.5969 12.9514 2.1275
7.3030 13.1130 2.1267
7.0057 13.2679 2.1259
6.7051 13.4160 2.1251
6.4014 13.5572 2.1243
6.0946 13.6916 2.1235
5.7858 13.8206 2.1229
5.7038 14.5275 2.2114
5.5334 15.0749 2.2753
5.1954 15.1948 2.2753
4.8547 15.3070 2.2753
4.5117 15.4116 2.2753
4.1664 15.5085 2.2753
3.8189 15.5977 2.2753
3.4696 15.6791 2.2753
3.1186 15.7527 2.2753
2.7660 15.8184 2.2753
2.4120 15.8762 2.2753
2.0568 15.9261 2.2753
1.7006 15.9681 2.2753
1.3435 16.0021 2.2753
0.9857 16.0281 2.2753
0.6275 16.0461 2.2753
0.2690 16.0561 2.2753
-0.0897 16.0582 2.2753
-0.4483 16.0522 2.2753
-0.8067 16.0381 2.2753
-1.1647 16.0161 2.2753
-1.5222 15.9861 2.2753
-1.8788 15.9481 2.2753
-2.2345 15.9022 2.2753
-2.5891 15.8483 2.2753
-2.9424 15.7865 2.2753
-3.2943 15.7169 2.2753
-3.6445 15.6394 2.2753
-3.9929 15.5541 2.2753
-4.3393 15.4610 2.2753
-4.6835 15.3602 2.2753
-5.0254 15.2518 2.2753
-5.3648 15.1358 2.2753
-5.7015 15.0122 2.2753
-6.0354 14.8811 2.2753
-6.3662 14.7426 2.2753
-6.6939 14.5967 2.2753
-7.0183 14.4436 2.2753
-7.3391 14.2832 2.2753
-7.6563 14.1157 2.2753
-7.9696 13.9412 2.2753
-8.2790 13.7597 2.2753
-8.5842 13.5714 2.2753
-8.8852 13.3763 2.2753
-9.1817 13.1745 2.2753
-9.2039 12.5970 2.2105
-9.2155 12.0389 2.1482
-9.3823 11.7055 2.1256
-9.6323 11.4823 2.1236
-9.8896 11.2679 2.1243
-10.1420 11.0477 2.1249
-10.3894 10.8218 2.1256
-10.6318 10.5903 2.1262
-10.8689 10.3532 2.1269
-11.1006 10.1108 2.1275
-11.3269 9.8632 2.1281
-11.5476 9.6104 2.1287
-11.7625 9.3526 2.1292
-11.9716 9.0899 2.1298
-12.1747 8.8225 2.1303
-12.3718 8.5506 2.1309
-12.5627 8.2741 2.1314
-12.7472 7.9933 2.1319
-12.9255 7.7083 2.1323
-13.0972 7.4193 2.1328
-13.2624 7.1264 2.1332
-13.4209 6.8298 2.1337
-13.5727 6.5296 2.1341
-13.7176 6.2259 2.1345
-13.8556 5.9190 2.1348
-13.9867 5.6090 2.1352
-14.1106 5.2960 2.1355
-14.2275 4.9803 2.1358
-14.3371 4.6619 2.1361
-14.4395 4.3411 2.1364
-14.5346 4.0180 2.1366
-14.6223 3.6928 2.1369
-14.7026 3.3656 2.1371
-14.7755 3.0367 2.1373
-14.8408 2.7061 2.1375
-14.8986 2.3742 2.1376
-14.9489 2.0410 2.1377
-14.9915 1.7067 2.1379
-15.0266 1.3715 2.1380
-15.0540 1.0356 2.1380
-15.0737 0.6991 2.1381
-15.0858 0.3623 2.1381
-15.0902 0.0253 2.1381
-15.0869 -0.3118 2.1381
-15.0760 -0.6487 2.1381
-15.0574 -0.9852 2.1380
-15.0312 -1.3212 2.1380
-14.9973 -1.6565 2.1379
-14.9557 -1.9910 2.1378
-14.9066 -2.3244 2.1376
-14.8500 -2.6565 2.1375
-14.7857 -2.9873 2.1373
-14.7140 -3.3165 2.1371
-14.6348 -3.6439 2.1369
-14.5482 -3.9695 2.1367
-14.4542 -4.2928 2.1364
-14.3530 -4.6140 2.1362
-14.2444 -4.9327 2.1359
-14.1286 -5.2489 2.1356
-14.0057 -5.5623 2.1352
-13.8757 -5.8727 2.1349
-13.7388 -6.1801 2.1345
-13.5949 -6.4843 2.1341
-13.4441 -6.7850 2.1337
-13.2866 -7.0822 2.1333
-13.1224 -7.3757 2.1329
-12.9516 -7.6653 2.1324
-12.7744 -7.9509 2.1319
-12.5907 -8.2323 2.1315
-12.4008 -8.5095 2.1310
-12.2046 -8.7821 2.1304
-12.0024 -9.0503 2.1299
-11.7942 -9.3136 2.1293
-11.5801 -9.5722 2.1288
-11.3603 -9.8257 2.1282
-11.1349 -10.0741 2.1276
-10.9040 -10.3173 2.1270
-10.6677 -10.5551 2.1263
-10.4261 -10.7875 2.1257
-9.7391 -10.5378 2.0331
-9.5081 -10.7603 2.0346
-9.6507 -11.4262 2.1192
-9.3705 -11.6110 2.1141
-9.2171 -11.9578 2.1392
-9.2057 -12.5113 2.2009
-9.1934 -13.0976 2.2673
-8.9300 -13.3465 2.2753
-8.6296 -13.5426 2.2753
-8.3250 -13.7320 2.2753
-8.0162 -13.9145 2.2753
-7.7035 -14.0901 2.2753
-7.3868 -14.2586 2.2753
-7.0665 -14.4200 2.2753
-6.7427 -14.5743 2.2753
-6.4156 -14.7212 2.2753
-6.0852 -14.8608 2.2753
-5.7518 -14.9930 2.2753
-5.4155 -15.1177 2.2753
-5.0765 -15.2349 2.2753
-4.7349 -15.3445 2.2753
-4.3910 -15.4464 2.2753
-4.0450 -15.5407 2.2753
-3.6969 -15.6271 2.2753
-3.3469 -15.7058 2.2753
-2.9953 -15.7766 2.2753
-2.6422 -15.8396 2.2753
-2.2877 -15.8946 2.2753
-1.9322 -15.9418 2.2753
-1.5756 -15.9810 2.2753
-1.2183 -16.0122 2.2753
-0.8604 -16.0354 2.2753
-0.5020 -16.0506 2.2753
-0.1434 -16.0578 2.2753
0.2152 -16.0570 2.2753
0.5738 -16.0482 2.2753
0.9321 -16.0314 2.2753
1.2899 -16.0065 2.2753
1.6471 -15.9738 2.2753
2.0034 -15.9330 2.2753
2.3588 -15.8843 2.2753
2.7130 -15.8276 2.2753
3.0658 -15.7631 2.2753
3.4171 -15.6907 2.2753
3.7667 -15.6104 2.2753
4.1144 -15.5224 2.2753
4.4600 -15.4266 2.2753
4.8035 -15.3232 2.2753
5.1445 -15.2121 2.2753
5.4830 -15.0934 2.2753
5.7005 -14.6632 2.2291
5.7395 -13.8399 2.1229
6.0484 -13.7111 2.1233
6.2046 -13.2552 2.0737
6.3724 -12.8578 2.0333
6.9609 -13.2906 2.1258
7.2587 -13.1367 2.1266
7.5531 -12.9761 2.1274
7.8439 -12.8088 2.1281
8.1309 -12.6350 2.1289
8.4140 -12.4546 2.1297
8.6931 -12.2679 2.1304
8.9681 -12.0748 2.1311
9.2386 -11.8756 2.1319
9.5047 -11.6701 2.1326
9.7662 -11.4587 2.1333
10.0229 -11.2413 2.1339
9.6708 -10.3705 2.0091
9.5482 -9.7912 1.9378
9.3954 -9.2135 1.8645
9.5181 -8.9256 1.8488
9.4899 -8.5089 1.8060
9.3999 -8.0569 1.7542
9.4323 -7.7260 1.7276
9.5101 -7.4411 1.7109
9.1818 -6.8593 1.6239
9.3114 -6.6373 1.6202
9.5097 -6.4632 1.6292
9.4541 -6.1213 1.5958
9.3339 -5.7517 1.5534
9.3120 -5.4551 1.5291
9.4673 -5.2657 1.5349
9.4034 -4.9585 1.5063
9.2909 -4.6370 1.4713
9.2902 -4.3802 1.4553
9.4567 -4.2032 1.4663
9.2982 -3.8864 1.4279
9.2957 -3.6437 1.4147
9.2118 -3.3754 1.3901
9.3004 -3.1741 1.3924
9.6144 -3.0433 1.4289
10.2887 -3.0057 1.5187
10.2824 -2.7562 1.5083
14.4447 -3.5281 2.1068
14.5188 -3.2044 2.1067
14.5853 -2.8790 2.1065
14.6422 -2.5519 2.1059
13.8144 -2.0908 1.9796
13.8588 -1.7819 1.9798
13.8969 -1.4721 1.9801
13.9287 -1.1616 1.9804
13.9543 -0.8504 1.9808
13.9736 -0.5386 1.9814
13.9865 -0.2265 1.9820
13.9932 0.0860 1.9827
13.9936 0.3987 1.9835
13.9876 0.7114 1.9845
13.9753 1.0242 1.9855
13.9567 1.3368 1.9866
13.9317 1.6492 1.9878
13.9004 1.9612 1.9890
13.8627 2.2727 1.9904
13.8187 2.5836 1.9919
13.7684 2.8939 1.9935
14.5397 3.3968 2.1156
14.4647 3.7218 2.1163
14.3829 4.0453 2.1170
14.2942 4.3671 2.1178
14.1987 4.6872 2.1186
14.0965 5.0053 2.1195
10.1185 3.8494 1.5339
9.5343 3.8730 1.4581
9.4154 4.0721 1.4535
9.4966 4.3614 1.4807
9.3935 4.5709 1.4802
9.3809 4.8268 1.4948
9.4084 5.1098 1.5170
9.4153 5.3893 1.5371
9.4066 5.6670 1.5560
9.3093 5.8956 1.5613
9.3418 6.2128 1.5896
9.3489 6.5233 1.6152
9.3630 6.8490 1.6437
6.3428 4.8609 1.1323
9.3729 7.5213 1.7028
11.5551 9.7044 2.1380
11.3323 9.9573 2.1374
11.1039 10.2050 2.1368
10.8700 10.4474 2.1362
10.6308 10.6844 2.1356
10.3864 10.9158 2.1349
10.1368 11.1416 2.1342
9.8823 11.3616 2.1336
9.6229 11.5757 2.1329
9.3589 11.7839 2.1322
9.0903 11.9859 2.1315
8.8174 12.1818 2.1307
8.5401 12.3714 2.1300
8.2588 12.5546 2.1292
7.9735 12.7314 2.1285
7.6844 12.9016 2.1277
7.3916 13.0652 2.1269
7.0953 13.2221 2.1261
6.7957 13.3723 2.1253
6.4928 13.5156 2.1245
6.1870 13.6520 2.1237
5.8782 13.7814 2.1229
5.7103 14.2621 2.1767
5.6344 15.0375 2.2753
5.2971 15.1596 2.2753
4.9572 15.2741 2.2753
4.6148 15.3810 2.2753
4.2701 15.4803 2.2753
3.9233 15.5718 2.2753
3.5746 15.6555 2.2753
3.2240 15.7314 2.2753
2.8718 15.7995 2.2753
2.5183 15.8597 2.2753
2.1634 15.9120 2.2753
1.8075 15.9564 2.2753
1.4507 15.9927 2.2753
1.0932 16.0212 2.2753
0.7351 16.0416 2.2753
0.3766 16.0540 2.2753
0.0179 16.0584 2.2753
-0.3407 16.0548 2.2753
-0.6992 16.0432 2.2753
-1.0574 16.0236 2.2753
-1.4150 15.9959 2.2753
-1.7719 15.9603 2.2753
-2.1279 15.9168 2.2753
-2.4829 15.8653 2.2753
-2.8366 15.8059 2.2753
-3.1889 15.7386 2.2753
-3.5396 15.6634 2.2753
-3.8886 15.5805 2.2753
-4.2356 15.4897 2.2753
-4.5805 15.3913 2.2753
-4.9231 15.2851 2.2753
-5.2632 15.1715 2.2753
-5.6008 15.0500 2.2753
-5.9355 14.9212 2.2753
-6.2673 14.7849 2.2753
-6.5959 14.6412 2.2753
-6.9213 14.4903 2.2753
-7.2432 14.3321 2.2753
-7.5615 14.1667 2.2753
-7.8760 13.9943 2.2753
-8.1866 13.8149 2.2753
-8.4931 13.6286 2.2753
-8.7954 13.4355 2.2753
-9.0933 13.2357 2.2753
-9.2003 12.7707 2.2301
-9.2121 12.2029 2.1664
-9.2920 11.7534 2.1229
-9.5543 11.5454 2.1234
-9.8129 11.3328 2.1240
-10.0668 11.1143 2.1247
-10.3157 10.8902 2.1254
-10.5596 10.6603 2.1260
-10.7983 10.4249 2.1267
-11.0317 10.1841 2.1273
-11.2596 9.9380 2.1279
-11.4819 9.6868 2.1285
-11.6986 9.4305 2.1291
-11.9095 9.1693 2.1296
-12.1144 8.9033 2.1302
-12.3133 8.6326 2.1307
-12.5060 8.3575 2.1312
-12.6925 8.0780 2.1317
-12.8727 7.7942 2.1322
-13.0464 7.5064 2.1327
-13.2136 7.2147 2.1331
-13.3741 6.9191 2.1335
-13.5279 6.6200 2.1340
-13.6749 6.3173 2.1343
-13.8150 6.0114 2.1347
-13.9481 5.7023 2.1351
-14.0742 5.3903 2.1354
-14.1932 5.0753 2.1357
-14.3050 4.7577 2.1360
-14.4096 4.4376 2.1363
-14.5068 4.1152 2.1366
-14.5968 3.7906 2.1368
-14.6793 3.4640 2.1370
-14.7544 3.1356 2.1372
-14.8220 2.8055 2.1374
-14.8821 2.4739 2.1376
-14.9346 2.1410 2.1377
-14.9795 1.8070 2.1378
-15.0169 1.4721 2.1379
-15.0465 1.1364 2.1380
-15.0686 0.8001 2.1381
-15.0830 0.4633 2.1381
-15.0897 0.1263 2.1381
-15.0887 -0.2107 2.1381
-15.0801 -0.5476 2.1381
-15.0638 -0.8843 2.1381
-15.0398 -1.2204 2.1380
-15.0082 -1.5560 2.1379
-14.9690 -1.8907 2.1378
-14.9222 -2.2244 2.1377
-14.8678 -2.5570 2.1375
-14.8058 -2.8882 2.1374
-14.7363 -3.2179 2.1372
-14.6594 -3.5458 2.1370
-14.5750 -3.8720 2.1367
-14.4832 -4.1961 2.1365
-14.3841 -4.5179 2.1362
-14.2777 -4.8374 2.1360
-14.1641 -5.1544 2.1357
-14.0433 -5.4686 2.1353
-13.9155 -5.7800 2.1350
-13.7806 -6.0883 2.1346
-13.6387 -6.3934 2.1343
-13.4900 -6.6952 2.1339
-13.3346 -6.9934 2.1334
-13.1724 -7.2880 2.1330
-13.0036 -7.5788 2.1326
-12.8282 -7.8656 2.1321
-12.6465 -8.1483 2.1316
-12.4584 -8.4268 2.1311
-12.2641 -8.7008 2.1306
-12.0637 -8.9703 2.1301
-11.8573 -9.2351 2.1295
-11.6450 -9.4951 2.1289
-11.4269 -9.7501 2.1284
-11.2031 -10.0001 2.1278
-10.9738 -10.2449 2.1271
-10.7391 -10.4844 2.1265
-10.4991 -10.7184 2.1259
-9.8711 -10.5381 2.0459
-9.5454 -10.6578 2.0272
-9.7487 -11.3866 2.1239
-9.3709 -11.4536 2.0968
-9.2314 -11.8119 2.1241
-9.2092 -12.3419 2.1819
-9.1972 -12.9180 2.2468
-9.0192 -13.2864 2.2753
-8.7202 -13.4845 2.2753
-8.4169 -13.6759 2.2753
-8.1093 -13.8605 2.2753
-7.7977 -14.0381 2.2753
-7.4822 -14.2088 2.2753
-7.1630 -14.3724 2.2753
-6.8402 -14.5287 2.2753
-6.5140 -14.6779 2.2753
-6.1846 -14.8197 2.2753
-5.8521 -14.9542 2.2753
-5.5166 -15.0811 2.2753
-5.1784 -15.2006 2.2753
-4.8376 -15.3125 2.2753
-4.4944 -15.4167 2.2753
-4.1490 -15.5132 2.2753
-3.8014 -15.6020 2.2753
-3.4521 -15.6830 2.2753
-3.1010 -15.7562 2.2753
-2.7483 -15.8215 2.2753
-2.3942 -15.8790 2.2753
-2.0390 -15.9285 2.2753
-1.6827 -15.9700 2.2753
-1.3256 -16.0036 2.2753
-0.9679 -16.0293 2.2753
-0.6096 -16.0468 2.2753
-0.2510 -16.0565 2.2753
0.1076 -16.0581 2.2753
0.4663 -16.0517 2.2753
0.8247 -16.0373 2.2753
1.1826 -16.0148 2.2753
1.5400 -15.9844 2.2753
1.8966 -15.9460 2.2753
2.2523 -15.8997 2.2753
2.6069 -15.8454 2.2753
2.9601 -15.7833 2.2753
3.3118 -15.7132 2.2753
3.6620 -15.6353 2.2753
4.0102 -15.5497 2.2753
4.3565 -15.4562 2.2753
4.7007 -15.3550 2.2753
5.0424 -15.2462 2.2753
5.3817 -15.1298 2.2753
5.6938 -14.9416 2.2656
5.7154 -14.0472 2.1488
5.9557 -13.7497 2.1231
6.2637 -13.6185 2.1239
6.2685 -12.8640 2.0276
6.6245 -12.8572 2.0493
7.1697 -13.1836 2.1263
7.4651 -13.0250 2.1271
7.7570 -12.8597 2.1279
8.0452 -12.6878 2.1287
8.3296 -12.5094 2.1294
8.6099 -12.3246 2.1302
8.8861 -12.1334 2.1309
9.1579 -11.9360 2.1316
9.4254 -11.7324 2.1323
9.5167 -11.3187 2.0953
9.9464 -11.3072 2.1337
9.4820 -10.3057 1.9842
9.4302 -9.8007 1.9271
9.3996 -9.3421 1.8777
9.4877 -9.0174 1.8546
9.5313 -8.6620 1.8249
9.4345 -8.1968 1.7708
9.4358 -7.8350 1.7378
9.5309 -7.5609 1.7238
9.4502 -7.1589 1.6798
9.2631 -6.6969 1.6196
9.3695 -6.4601 1.6125
9.6273 -6.3254 1.6322
9.3309 -5.8365 1.5594
9.3031 -5.5339 1.5337
9.4410 -5.3342 1.5364
9.3821 -5.0279 1.5082
9.3227 -4.7311 1.4813
9.2157 -4.4209 1.4482
9.4058 -4.2563 1.4628
9.5510 -4.0675 1.4709
9.3339 -3.7310 1.4243
9.2783 -3.4705 1.4036
9.2660 -3.2319 1.3905
9.4732 -3.0686 1.4109
10.2905 -3.0812 1.5220
10.2843 -2.8307 1.5114
14.4212 -3.6249 2.1069
14.4973 -3.3016 2.1067
14.5665 -2.9768 2.1066
14.6261 -2.6501 2.1061
14.6775 -2.3222 2.1055
13.8461 -1.8746 1.9797
13.8861 -1.5651 1.9800
13.9198 -1.2548 1.9803
13.9473 -0.9438 1.9807
13.9684 -0.6322 1.9812
13.9833 -0.3202 1.9818
13.9919 -0.0078 1.9825
13.9941 0.3048 1.9833
13.9901 0.6176 1.9842
13.9797 0.9303 1.9852
13.9629 1.2430 1.9862
13.9399 1.5555 1.9874
13.9104 1.8676 1.9886
13.8747 2.1793 1.9900
13.8326 2.4904 1.9914
13.7841 2.8009 1.9930
14.5609 3.2990 2.1154
14.4879 3.6245 2.1161
14.4081 3.9485 2.1168
14.3215 4.2708 2.1175
14.2281 4.5914 2.1183
14.1278 4.9101 2.1192
14.0209 5.2266 2.1202
9.5486 3.8045 1.4564
9.5106 4.0378 1.4640
9.4986 4.2855 1.4765
9.4550 4.5226 1.4850
9.4038 4.7591 1.4933
9.4416 5.0462 1.5169
9.4242 5.3109 1.5327
9.3302 5.5360 1.5372
9.3521 5.8353 1.5619
9.3138 6.1045 1.5779
9.3988 6.4649 1.6163
9.3860 6.7698 1.6397
6.3449 4.7954 1.1269
9.3180 7.3751 1.6838
9.8428 8.1546 1.8111
11.3997 9.8820 2.1376
11.1730 10.1313 2.1370
10.9407 10.3753 2.1364
10.7031 10.6139 2.1358
10.4602 10.8469 2.1351
10.2122 11.0744 2.1344
9.9592 11.2962 2.1338
9.7013 11.5121 2.1331
9.4386 11.7220 2.1324
9.1714 11.9259 2.1317
8.8997 12.1237 2.1309
8.6237 12.3152 2.1302
8.3436 12.5003 2.1295
8.0595 12.6790 2.1287
7.7715 12.8513 2.1279
7.4798 13.0168 2.1272
7.1845 13.1758 2.1264
6.8859 13.3280 2.1256
6.5840 13.4733 2.1248
6.2790 13.6118 2.1240
5.9711 13.7433 2.1231
5.7164 14.0050 2.1433
5.6949 14.8947 2.2594
5.3986 15.1238 2.2753
5.0595 15.2406 2.2753
4.7178 15.3497 2.2753
4.3738 15.4513 2.2753
4.0276 15.5451 2.2753
3.6794 15.6312 2.2753
3.3294 15.7095 2.2753
2.9777 15.7799 2.2753
2.6245 15.8425 2.2753
2.2700 15.8972 2.2753
1.9144 15.9439 2.2753
1.5578 15.9827 2.2753
1.2005 16.0135 2.2753
0.8425 16.0363 2.2753
0.4841 16.0511 2.2753
0.1255 16.0579 2.2753
-0.2332 16.0567 2.2753
-0.5917 16.0475 2.2753
-0.9500 16.0303 2.2753
-1.3077 16.0051 2.2753
-1.6649 15.9719 2.2753
-2.0212 15.9307 2.2753
-2.3765 15.8816 2.2753
-2.7306 15.8245 2.2753
-3.0834 15.7596 2.2753
-3.4346 15.6868 2.2753
-3.7841 15.6062 2.2753
-4.1317 15.5178 2.2753
-4.4772 15.4216 2.2753
-4.8206 15.3178 2.2753
-5.1615 15.2063 2.2753
-5.4998 15.0872 2.2753
-5.8354 14.9606 2.2753
-6.1681 14.8266 2.2753
-6.4977 14.6851 2.2753
-6.8241 14.5363 2.2753
-7.1470 14.3803 2.2753
-7.4664 14.2171 2.2753
-7.7821 14.0468 2.2753
-8.0938 13.8695 2.2753
-8.4016 13.6852 2.2753
-8.7051 13.4942 2.2753
-9.0044 13.2964 2.2753
-9.1966 12.9476 2.2502
-9.2086 12.3699 2.1850
-9.2289 11.8355 2.1266
-9.4757 11.6080 2.1231
-9.7358 11.3972 2.1238
-9.9911 11.1805 2.1245
-10.2416 10.9580 2.1252
-10.4870 10.7298 2.1258
-10.7273 10.4961 2.1265
-10.9623 10.2569 2.1271
-11.1918 10.0124 2.1277
-11.4159 9.7627 2.1283
-11.6342 9.5079 2.1289
-11.8468 9.2481 2.1295
-12.0536 8.9836 2.1300
-12.2542 8.7143 2.1306
-12.4488 8.4405 2.1311
-12.6372 8.1623 2.1316
-12.8193 7.8798 2.1321
-12.9950 7.5932 2.1325
-13.1641 7.3026 2.1330
-13.3266 7.0082 2.1334
-13.4825 6.7101 2.1338
-13.6315 6.4085 2.1342
-13.7737 6.1035 2.1346
-13.9089 5.7954 2.1350
-14.0371 5.4841 2.1353
-14.1582 5.1701 2.1356
-14.2722 4.8532 2.1359
-14.3790 4.5339 2.1362
-14.4784 4.2121 2.1365
-14.5706 3.8881 2.1367
-14.6553 3.5621 2.1370
-14.7327 3.2342 2.1372
-14.8025 2.9047 2.1374
-14.8648 2.5735 2.1375
-14.9196 2.2411 2.1377
-9.7117 1.2377 1.3872
-15.0065 1.5727 2.1379
-15.0384 1.2372 2.1380
-15.0628 0.9010 2.1380
-15.0795 0.5644 2.1381
-15.0885 0.2275 2.1381
-15.0898 -0.1096 2.1381
-15.0835 -0.4466 2.1381
-15.0695 -0.7833 2.1381
-15.0478 -1.1197 2.1380
-15.0185 -1.4554 2.1379
-14.9816 -1.7904 2.1378
-14.9370 -2.1245 2.1377
-14.8849 -2.4574 2.1376
-14.8252 -2.7890 2.1374
-14.7579 -3.1192 2.1372
-14.6832 -3.4477 2.1370
-14.6011 -3.7743 2.1368
-14.5115 -4.0990 2.1366
-14.4146 -4.4216 2.1363
-14.3104 -4.7418 2.1360
-14.1989 -5.0595 2.1357
-14.0803 -5.3746 2.1354
-13.9546 -5.6868 2.1351
-13.8218 -5.9961 2.1347
-13.6820 -6.3022 2.1344
-13.5354 -6.6050 2.1340
-13.3819 -6.9043 2.1336
-13.2217 -7.2001 2.1331
-13.0549 -7.4920 2.1327
-12.8815 -7.7800 2.1322
-12.7017 -8.0640 2.1318
-12.5155 -8.3437 2.1313
-12.3230 -8.6191 2.1307
-12.1244 -8.8900 2.1302
-11.9198 -9.1562 2.1297
-11.7093 -9.4176 2.1291
-11.4929 -9.6741 2.1285
-11.2708 -9.9256 2.1279
-11.0432 -10.1720 2.1273
-10.8101 -10.4130 2.1267
-10.5717 -10.6487 2.1261
-10.3280 -10.8789 2.1254
-9.6166 -10.5936 2.0272
-9.5076 -10.9555 2.0553
-9.4767 -11.4258 2.1033
-9.3051 -11.7431 2.1229
-9.2127 -12.1755 2.1633
-9.2009 -12.7417 2.2269
-9.1080 -13.2256 2.2753
-8.8103 -13.4258 2.2753
-8.5083 -13.6192 2.2753
-8.2020 -13.8058 2.2753
-7.8916 -13.9856 2.2753
-7.5773 -14.1583 2.2753
-7.2592 -14.3240 2.2753
-6.9375 -14.4826 2.2753
-6.6123 -14.6339 2.2753
-6.2838 -14.7779 2.2753
-5.9521 -14.9146 2.2753
-5.6176 -15.0438 2.2753
-5.2802 -15.1655 2.2753
-4.9401 -15.2797 2.2753
-4.5976 -15.3862 2.2753
-4.2528 -15.4851 2.2753
-3.9059 -15.5762 2.2753
-3.5571 -15.6595 2.2753
-3.2064 -15.7350 2.2753
-2.8542 -15.8028 2.2753
-2.5005 -15.8626 2.2753
-2.1456 -15.9144 2.2753
-1.7897 -15.9584 2.2753
-1.4328 -15.9944 2.2753
-1.0752 -16.0224 2.2753
-0.7171 -16.0424 2.2753
-0.3587 -16.0544 2.2753
0.0000 -13.8116 2.2753
0.3085 -13.8081 2.2753
0.6168 -13.7978 2.2753
0.9248 -13.7806 2.2753
1.2324 -13.7565 2.2753
1.5393 -13.7255 2.2753
1.8455 -13.6877 2.2753
2.1507 -13.6431 2.2753
2.4549 -13.5917 2.2753
2.7578 -13.5335 2.2753
3.0594 -13.4685 2.2753
3.3595 -13.3968 2.2753
3.6578 -13.3184 2.2753
3.9544 -13.2334 2.2753
4.2489 -13.1418 2.2753
4.5414 -13.0436 2.2753
4.8316 -12.9389 2.2753
5.1194 -12.8278 2.2753
5.4046 -12.7102 2.2753
5.6871 -12.5864 2.2753
5.7101 -11.9204 2.1774
5.8253 -11.4945 2.1229
6.0821 -11.3645 2.1234
6.3364 -11.2294 2.1241
6.5877 -11.0886 2.1248
6.8359 -10.9421 2.1254
7.0807 -10.7900 2.1261
7.3222 -10.6324 2.1267
7.5601 -10.4693 2.1274
7.7943 -10.3009 2.1280
8.0247 -10.1272 2.1286
8.2512 -9.9482 2.1292
8.4737 -9.7642 2.1298
8.6921 -9.5751 2.1304
8.9061 -9.3811 2.1310
9.1158 -9.1823 2.1315
9.3210 -8.9787 2.1321
9.5216 -8.7705 2.1326
9.7175 -8.5577 2.1331
9.9086 -8.3405 2.1336
10.0947 -8.1190 2.1341
9.7009 -7.4517 2.0152
10.4519 -7.6635 2.1351
9.4131 -6.5838 1.8924
9.5927 -6.3951 1.8993
9.5307 -6.0507 1.8598
9.1947 -5.5533 1.7696
9.3310 -5.3549 1.7723
9.5583 -5.2051 1.7930
9.3752 -4.8371 1.7379
9.2176 -4.4980 1.6897
9.3574 -4.3102 1.6972
9.5506 -4.1431 1.7150
9.4083 -3.8341 1.6737
9.3010 -3.5502 1.6401
9.2717 -3.3037 1.6215
9.3814 -3.1085 1.6281
9.6795 -2.9691 1.6679
10.2839 -2.9049 1.7604
10.6151 -2.7440 1.8062
12.5868 -2.9554 2.1299
12.6452 -2.6726 2.1292
12.6977 -2.3887 2.1285
12.0177 -1.9840 2.0066
12.0595 -1.7152 2.0067
12.0958 -1.4455 2.0068
12.1266 -1.1751 2.0071
12.1519 -0.9042 2.0074
12.1716 -0.6327 2.0079
12.1858 -0.3608 2.0084
12.1944 -0.0885 2.0089
12.1974 0.1839 2.0096
12.1948 0.4565 2.0104
12.1867 0.7290 2.0112
12.1729 1.0015 2.0121
12.1536 1.2737 2.0131
12.1287 1.5457 2.0142
12.0981 1.8173 2.0154
12.0620 2.0883 2.0166
12.0203 2.3587 2.0180
11.9730 2.6284 2.0194
11.9201 2.8973 2.0209
12.5123 3.3389 2.1334
12.4384 3.6187 2.1340
12.3586 3.8968 2.1348
12.2728 4.1733 2.1355
12.1811 4.4481 2.1363
9.8302 3.8406 1.7386
9.5475 3.9781 1.7039
9.4706 4.1967 1.7065
9.4711 4.4526 1.7241
9.4100 4.6833 1.7316
9.4580 4.9738 1.7604
9.4824 5.2603 1.7864
9.3852 5.4840 1.7907
9.4032 5.7800 1.8183
9.4182 6.0832 1.8471
9.4020 6.3747 1.8713
9.3798 6.6703 1.8961
9.4959 7.0774 1.9510
10.2131 7.9728 2.1344
10.0302 8.1970 2.1340
9.8423 8.4170 2.1335
9.6495 8.6326 2.1329
9.4520 8.8438 2.1324
9.2497 9.0504 2.1319
9.0429 9.2524 2.1313
8.8317 9.4495 2.1308
8.6161 9.6418 2.1302
8.3963 9.8291 2.1296
8.1724 10.0114 2.1290
7.9445 10.1885 2.1284
7.7127 10.3604 2.1278
7.4772 10.5270 2.1272
7.2381 10.6881 2.1265
6.9954 10.8438 2.1259
6.7494 10.9940 2.1252
6.5001 11.1385 2.1245
6.2478 11.2773 2.1239
5.9924 11.4104 2.1232
5.7353 11.5398 2.1229
5.7039 12.1502 2.2112
5.5885 12.6304 2.2753
5.3051 12.7521 2.2753
5.0189 12.8674 2.2753
4.7303 12.9763 2.2753
4.4393 13.0787 2.2753
4.1461 13.1746 2.2753
3.8508 13.2639 2.2753
3.5536 13.3466 2.2753
3.2546 13.4226 2.2753
2.9540 13.4920 2.2753
2.6520 13.5546 2.2753
2.3486 13.6104 2.2753
2.0440 13.6595 2.2753
1.7384 13.7017 2.2753
1.4320 13.7371 2.2753
1.1248 13.7657 2.2753
0.8170 13.7874 2.2753
0.5089 13.8022 2.2753
0.2005 13.8101 2.2753
-0.1080 13.8111 2.2753
-0.4164 13.8053 2.2753
-0.7246 13.7925 2.2753
-1.0325 13.7729 2.2753
-1.3399 13.7464 2.2753
-1.6465 13.7131 2.2753
-1.9524 13.6729 2.2753
-2.2573 13.6259 2.2753
-2.5610 13.5720 2.2753
-2.8635 13.5114 2.2753
-3.1646 13.4441 2.2753
-3.4641 13.3701 2.2753
-3.7618 13.2894 2.2753
-4.0577 13.2021 2.2753
-4.3515 13.1081 2.2753
-4.6432 13.0077 2.2753
-4.9326 12.9007 2.2753
-5.2195 12.7874 2.2753
-5.5038 12.6676 2.2753
-5.7853 12.5415 2.2753
-6.0640 12.4092 2.2753
-6.3396 12.2706 2.2753
-6.6121 12.1260 2.2753
-6.8813 11.9753 2.2753
-7.1470 11.8186 2.2753
-7.4092 11.6560 2.2753
-7.6677 11.4876 2.2753
-7.9223 11.3135 2.2753
-8.1730 11.1337 2.2753
-8.4197 10.9485 2.2753
-8.6621 10.7577 2.2753
-8.9002 10.5615 2.2753
-9.1339 10.3601 2.2753
-9.1993 9.9760 2.2355
-9.2086 9.5490 2.1854
-9.2173 9.1404 2.1385
-9.3506 8.8672 2.1229
-9.5482 8.6579 2.1233
-9.7416 8.4446 2.1239
-9.9301 8.2269 2.1244
-10.1137 8.0049 2.1249
-10.2923 7.7787 2.1253
-10.4657 7.5486 2.1258
-10.6339 7.3145 2.1262
-10.7969 7.0766 2.1267
-10.9544 6.8350 2.1271
-11.1064 6.5899 2.1275
-11.2529 6.3414 2.1279
-11.3937 6.0896 2.1283
-11.5289 5.8346 2.1286
-11.6582 5.5765 2.1290
-11.7817 5.3156 2.1293
-11.8992 5.0518 2.1296
-12.0107 4.7855 2.1299
-12.1162 4.5166 2.1302
-12.2156 4.2454 2.1305
-12.3088 3.9720 2.1307
-12.3958 3.6965 2.1309
-12.4765 3.4191 2.1312
-12.5509 3.1399 2.1314
-12.6190 2.8590 2.1315
-12.6807 2.5767 2.1317
-12.7360 2.2930 2.1318
-12.7848 2.0081 2.1320
-12.8271 1.7221 2.1321
-12.8629 1.4353 2.1322
-12.8923 1.1477 2.1323
-12.9150 0.8595 2.1323
-12.9313 0.5708 2.1324
-12.9410 0.2818 2.1324
-12.9441 -0.0072 2.1324
-12.9406 -0.2963 2.1324
-12.9306 -0.5853 2.1324
-12.9141 -0.8739 2.1323
-12.8910 -1.1621 2.1323
-12.8613 -1.4497 2.1322
-12.8251 -1.7365 2.1321
-12.7825 -2.0224 2.1320
-12.7333 -2.3072 2.1318
-12.6778 -2.5909 2.1317
-12.6158 -2.8731 2.1315
-12.5474 -3.1539 2.1313
-12.4726 -3.4331 2.1311
-12.3916 -3.7104 2.1309
-12.3043 -3.9858 2.1307
-12.2108 -4.2591 2.1304
-12.1111 -4.5302 2.1302
-12.0053 -4.7989 2.1299
-11.8934 -5.0652 2.1296
-11.7756 -5.3287 2.1293
-11.6519 -5.5895 2.1290
-11.5222 -5.8474 2.1286
-11.3868 -6.1023 2.1282
-11.2457 -6.3539 2.1279
-11.0990 -6.6023 2.1275
-10.9466 -6.8472 2.1271
-10.7888 -7.0886 2.1267
-10.6257 -7.3263 2.1262
-10.4572 -7.5602 2.1258
-10.2835 -7.7902 2.1253
-10.1047 -8.0161 2.1248
-9.9208 -8.2379 2.1243
-9.7320 -8.4554 2.1238
-9.5384 -8.6685 2.1233
-9.3407 -8.8778 2.1229
-9.2168 -9.1604 2.1407
-9.2081 -9.5700 2.1878
-9.1988 -9.9979 2.2381
-9.1223 -10.3704 2.2753
-8.8884 -10.5715 2.2753
-8.6501 -10.7673 2.2753
-8.4074 -10.9579 2.2753
-8.1606 -11.1429 2.2753
-7.9097 -11.3224 2.2753
-7.6549 -11.4962 2.2753
-7.3962 -11.6643 2.2753
-7.1338 -11.8266 2.2753
-6.8679 -11.9830 2.2753
-6.5986 -12.1334 2.2753
-6.3259 -12.2777 2.2753
-6.0501 -12.4159 2.2753
-5.7713 -12.5480 2.2753
-5.4896 -12.6738 2.2753
-5.2052 -12.7932 2.2753
-4.9182 -12.9063 2.2753
-4.6287 -13.0129 2.2753
-4.3369 -13.1130 2.2753
-4.0429 -13.2066 2.2753
-3.7470 -13.2936 2.2753
-3.4491 -13.3740 2.2753
-3.1496 -13.4477 2.2753
-2.8485 -13.5147 2.2753
-2.5459 -13.5749 2.2753
-2.2421 -13.6284 2.2753
-1.9371 -13.6751 2.2753
-1.6312 -13.7149 2.2753
-1.3245 -13.7479 2.2753
-1.0171 -13.7741 2.2753
-0.7092 -13.7934 2.2753
-0.4010 -13.8058 2.2753
-0.0925 -13.8113 2.2753
0.2159 -13.8099 2.2753
0.5243 -13.8016 2.2753
0.8324 -13.7865 2.2753
1.1402 -13.7644 2.2753
1.4473 -13.7355 2.2753
1.7537 -13.6998 2.2753
2.0592 -13.6572 2.2753
2.3638 -13.6078 2.2753
2.6671 -13.5516 2.2753
2.9691 -13.4887 2.2753
3.2696 -13.4190 2.2753
3.5685 -13.3426 2.2753
3.8656 -13.2596 2.2753
4.1608 -13.1700 2.2753
4.4539 -13.0738 2.2753
4.7448 -12.9710 2.2753
5.0333 -12.8618 2.2753
5.3193 -12.7462 2.2753
5.6026 -12.6242 2.2753
5.7048 -12.1169 2.2063
5.7482 -11.5334 2.1229
6.0052 -11.4039 2.1232
6.2604 -11.2705 2.1239
6.5127 -11.1314 2.1246
6.7618 -10.9866 2.1252
7.0076 -10.8362 2.1259
7.2501 -10.6802 2.1265
7.4891 -10.5188 2.1272
7.7244 -10.3520 2.1278
7.9560 -10.1798 2.1284
8.1837 -10.0025 2.1290
8.4074 -9.8199 2.1296
8.6270 -9.6323 2.1302
8.8424 -9.4398 2.1308
9.0534 -9.2424 2.1314
9.2599 -9.0402 2.1319
9.4619 -8.8334 2.1324
9.6592 -8.6220 2.1330
9.5314 -8.1328 2.0641
10.0394 -8.1859 2.1340
10.2221 -7.9615 2.1345
9.6957 -7.2095 1.9904
9.3495 -6.6330 1.8885
9.5579 -6.4648 1.9009
9.6112 -6.1926 1.8835
9.2540 -5.6740 1.7882
9.3434 -5.4456 1.7816
9.4369 -5.2212 1.7767
9.5193 -4.9925 1.7708
9.2794 -4.6054 1.7066
9.3081 -4.3633 1.6935
9.3387 -4.1258 1.6819
9.3915 -3.9008 1.6753
9.2237 -3.5917 1.6307
9.2951 -3.3825 1.6295
9.3473 -3.1669 1.6259
9.6666 -3.0361 1.6692
10.2858 -2.9799 1.7641
10.3540 -2.7506 1.7649
12.5681 -3.0400 2.1302
12.6283 -2.7575 2.1294
12.6826 -2.4740 2.1287
12.0041 -2.0645 2.0066
12.0475 -1.7959 2.0066
12.0855 -1.5265 2.0068
12.1180 -1.2563 2.0070
12.1449 -0.9855 2.0073
12.1663 -0.7142 2.0077
12.1821 -0.4424 2.0082
12.1924 -0.1702 2.0088
12.1971 0.1022 2.0094
12.1962 0.3747 2.0101
12.1897 0.6472 2.0110
12.1777 0.9198 2.0119
12.1600 1.1921 2.0128
12.1367 1.4641 2.0139
12.1079 1.7358 2.0150
12.0734 2.0070 2.0163
12.0334 2.2777 2.0176
11.9877 2.5476 2.0190
11.9365 2.8168 2.0204
12.5333 3.2547 2.1332
12.4612 3.5349 2.1338
12.3831 3.8136 2.1345
12.2991 4.0906 2.1353
12.2092 4.3659 2.1361
12.1134 4.6393 2.1369
9.5868 3.9193 1.7062
9.4647 4.1185 1.7004
9.4527 4.3669 1.7154
9.4396 4.6194 1.7313
9.4413 4.8845 1.7512
9.4737 5.1727 1.7782
9.4466 5.4352 1.7954
9.4177 5.7023 1.8137
9.3892 5.9756 1.8335
9.3959 6.2791 1.8617
9.4097 6.5970 1.8932
9.4793 6.9667 1.9380
10.2670 7.9047 2.1346
10.0856 8.1302 2.1341
9.8992 8.3514 2.1336
9.7078 8.5684 2.1331
9.5117 8.7809 2.1326
9.3109 8.9889 2.1320
9.1055 9.1923 2.1315
8.8955 9.3909 2.1309
8.6813 9.5846 2.1304
8.4627 9.7735 2.1298
8.2400 9.9573 2.1292
8.0133 10.1360 2.1286
7.7827 10.3094 2.1280
7.5483 10.4776 2.1273
7.3102 10.6404 2.1267
7.0686 10.7977 2.1261
6.8235 10.9495 2.1254
6.5752 11.0957 2.1247
6.3238 11.2363 2.1241
6.0693 11.3711 2.1234
5.8125 11.5011 2.1229
5.7092 11.9528 2.1822
5.6730 12.5927 2.2753
5.3904 12.7162 2.2753
5.1050 12.8335 2.2753
4.8171 12.9443 2.2753
4.5268 13.0486 2.2753
4.2343 13.1465 2.2753
3.9396 13.2378 2.2753
3.6430 13.3225 2.2753
3.3445 13.4005 2.2753
3.0444 13.4719 2.2753
2.7427 13.5365 2.2753
2.4397 13.5944 2.2753
2.1355 13.6455 2.2753
1.8302 13.6898 2.2753
1.5240 13.7272 2.2753
1.2170 13.7578 2.2753
0.9094 13.7816 2.2753
0.6014 13.7985 2.2753
0.2931 13.8084 2.2753
-0.0154 13.8115 2.2753
-0.3239 13.8078 2.2753
-0.6322 13.7971 2.2753
-0.9402 13.7795 2.2753
-1.2477 13.7551 2.2753
-1.5546 13.7238 2.2753
-1.8607 13.6856 2.2753
-2.1659 13.6407 2.2753
-2.4700 13.5889 2.2753
-2.7729 13.5303 2.2753
-3.0744 13.4650 2.2753
-3.3744 13.3930 2.2753
-3.6727 13.3143 2.2753
-3.9691 13.2290 2.2753
-4.2636 13.1370 2.2753
-4.5560 13.0385 2.2753
-4.8460 12.9335 2.2753
-5.1337 12.8220 2.2753
-5.4188 12.7042 2.2753
-5.7011 12.5800 2.2753
-5.9807 12.4495 2.2753
-6.2573 12.3128 2.2753
-6.5307 12.1700 2.2753
-6.8009 12.0211 2.2753
-7.0677 11.8662 2.2753
-7.3309 11.7054 2.2753
-7.5905 11.5387 2.2753
-7.8463 11.3663 2.2753
-8.0983 11.1883 2.2753
-8.3461 11.0046 2.2753
-8.5898 10.8155 2.2753
-8.8292 10.6209 2.2753
-9.0642 10.4211 2.2753
-9.1964 10.1079 2.2512
-9.2058 9.6751 2.2001
-9.2147 9.2611 2.1522
-9.2909 8.9297 2.1229
-9.4893 8.7211 2.1232
-9.6841 8.5091 2.1237
-9.8741 8.2926 2.1242
-10.0592 8.0719 2.1247
-10.2393 7.8470 2.1252
-10.4142 7.6180 2.1257
-10.5840 7.3851 2.1261
-10.7486 7.1483 2.1265
-10.9077 6.9079 2.1270
-11.0614 6.6638 2.1274
-11.2096 6.4163 2.1278
-11.3521 6.1654 2.1282
-11.4889 5.9114 2.1285
-11.6200 5.6542 2.1289
-11.7452 5.3941 2.1292
-11.8646 5.1312 2.1295
-11.9779 4.8657 2.1298
-12.0852 4.5976 2.1301
-12.1864 4.3270 2.1304
-12.2815 4.0543 2.1306
-12.3703 3.7794 2.1309
-12.4529 3.5025 2.1311
-12.5293 3.2238 2.1313
-12.5992 2.9434 2.1315
-12.6628 2.6615 2.1316
-12.7200 2.3782 2.1318
-12.7708 2.0937 2.1319
-12.8151 1.8080 2.1321
-12.8529 1.5214 2.1322
-12.8842 1.2340 2.1322
-12.9089 0.9460 2.1323
-12.9271 0.6574 2.1324
-12.9387 0.3686 2.1324
-12.9438 0.0795 2.1324
-12.9424 -0.2096 2.1324
-12.9343 -0.4986 2.1324
-12.9197 -0.7874 2.1323
-12.8986 -1.0757 2.1323
-12.8709 -1.3635 2.1322
-12.8367 -1.6505 2.1321
-12.7960 -1.9367 2.1320
-12.7488 -2.2219 2.1319
-12.6951 -2.5059 2.1317
-12.6350 -2.7886 2.1316
-12.5685 -3.0699 2.1314
-12.4957 -3.3495 2.1312
-12.4166 -3.6274 2.1310
-12.3311 -3.9034 2.1308
-12.2395 -4.1773 2.1305
-12.1416 -4.4491 2.1303
-12.0377 -4.7185 2.1300
-11.9276 -4.9855 2.1297
-11.8116 -5.2499 2.1294
-11.6896 -5.5116 2.1291
-11.5617 -5.7704 2.1287
-11.4281 -6.0261 2.1284
-11.2887 -6.2788 2.1280
-11.1436 -6.5281 2.1276
-10.9929 -6.7741 2.1272
-10.8368 -7.0166 2.1268
-10.6752 -7.2554 2.1263
-10.5083 -7.4904 2.1259
-10.3361 -7.7216 2.1254
-10.1588 -7.9487 2.1250
-9.9765 -8.1718 2.1245
-9.7892 -8.3906 2.1240
-9.5970 -8.6051 2.1235
-9.4001 -8.8151 2.1229
-9.2266 -9.0479 2.1289
-9.2108 -9.4452 2.1734
-9.2017 -9.8675 2.2227
-9.1916 -10.3089 2.2753
-8.9590 -10.5117 2.2753
-8.7220 -10.7092 2.2753
-8.4807 -10.9013 2.2753
-8.2351 -11.0880 2.2753
-7.9854 -11.2691 2.2753
