ply
format ascii 1.0
element vertex 2174
property float32 x
property float32 y
property float32 z
end_header
3.7302 7.0644 2.0684
3.5715 7.1460 2.0684
3.4110 7.2240 2.0684
3.2488 7.2983 2.0684
3.0849 7.3691 2.0684
2.9196 7.4361 2.0684
2.7528 7.4995 2.0684
2.5846 7.5591 2.0684
2.4151 7.6149 2.0684
2.2445 7.6670 2.0684
2.0727 7.7152 2.0684
1.8998 7.7596 2.0684
1.7261 7.8001 2.0684
1.5514 7.8367 2.0684
1.3760 7.8694 2.0684
1.1999 7.8981 2.0684
1.0232 7.9230 2.0684
0.8460 7.9438 2.0684
0.6684 7.9607 2.0684
0.4904 7.9737 2.0684
0.3122 7.9826 2.0684
0.1338 7.9876 2.0684
-0.0446 7.9886 2.0684
-0.2230 7.9856 2.0684
-0.4013 7.9787 2.0684
-0.5794 7.9677 2.0684
-0.7573 7.9528 2.0684
-0.9347 7.9339 2.0684
-1.1116 7.9110 2.0684
-1.2880 7.8842 2.0684
-1.4638 7.8535 2.0684
-1.6388 7.8189 2.0684
-1.8131 7.7803 2.0684
-1.9864 7.7379 2.0684
-2.1587 7.6916 2.0684
-2.3299 7.6415 2.0684
-2.5000 7.5875 2.0684
-2.6689 7.5298 2.0684
-2.8364 7.4683 2.0684
-3.0025 7.4031 2.0684
-3.1671 7.3342 2.0684
-3.3301 7.2616 2.0684
-3.4914 7.1854 2.0684
-3.6511 7.1056 2.0684
-3.8088 7.0223 2.0684
-3.9647 6.9355 2.0684
-4.1186 6.8452 2.0684
-3.9694 6.2756 1.9226
-4.0945 6.1642 1.9160
-4.2321 6.0726 1.9165
-4.3677 5.9779 1.9169
-4.5011 5.8801 1.9173
-4.6324 5.7794 1.9177
-4.7613 5.6757 1.9182
-4.8880 5.5692 1.9186
-5.0122 5.4598 1.9190
-5.1340 5.3477 1.9194
-5.2533 5.2328 1.9198
-5.3700 5.1152 1.9202
-5.4840 4.9950 1.9206
-5.5953 4.8723 1.9210
-5.7038 4.7470 1.9214
-5.8084 4.6184 1.9214
-5.9101 4.4875 1.9214
-6.0089 4.3544 1.9214
-6.1046 4.2191 1.9214
-6.1973 4.0817 1.9214
-6.2869 3.9423 1.9214
-6.3734 3.8009 1.9214
-6.4529 3.6555 1.9202
-6.3935 3.4355 1.8792
-6.3404 3.2266 1.8420
-6.2597 3.0115 1.7986
-6.2530 2.8380 1.7780
-6.2171 2.6559 1.7504
-6.1865 2.4810 1.7258
-6.1267 2.2995 1.6944
-6.1037 2.1366 1.6744
-6.1148 1.9883 1.6648
-6.0970 1.8330 1.6484
-6.0806 1.6809 1.6334
-6.0672 1.5322 1.6202
-6.0237 1.3789 1.6000
-6.0142 1.2360 1.5897
-6.0328 1.1000 1.5877
-6.0292 0.9608 1.5808
-6.0234 0.8224 1.5740
-6.0204 0.6854 1.5689
-5.9883 0.5466 1.5569
-5.9894 0.4120 1.5544
-6.0216 0.2793 1.5608
-6.0264 0.1447 1.5608
-6.0316 0.0101 1.5617
-6.0395 -0.1248 1.5641
-6.0171 -0.2589 1.5594
-6.0272 -0.3943 1.5639
-6.0683 -0.5334 1.5772
-6.0800 -0.6716 1.5838
-6.0921 -0.8110 1.5913
-6.1048 -0.9519 1.5997
-6.0873 -1.0890 1.6011
-6.1016 -1.2328 1.6117
-6.1492 -1.3860 1.6321
-6.1665 -1.5354 1.6454
-6.1870 -1.6881 1.6605
-6.2085 -1.8439 1.6769
-6.2025 -1.9939 1.6869
-6.2632 -2.1689 1.7161
-6.2962 -2.3391 1.7391
-6.3340 -2.5155 1.7646
-6.3408 -2.6837 1.7827
-6.3883 -2.8737 1.8137
-6.4758 -3.0887 1.8577
-6.5324 -3.2968 1.8945
-6.5485 -3.4906 1.9214
-6.4689 -3.6360 1.9214
-6.3861 -3.7795 1.9214
-6.3001 -3.9212 1.9214
-6.2110 -4.0610 1.9214
-6.1187 -4.1987 1.9214
-6.0234 -4.3343 1.9214
-5.9251 -4.4677 1.9214
-5.8238 -4.5990 1.9214
-5.7197 -4.7279 1.9214
-5.6119 -4.8538 1.9211
-5.5010 -4.9769 1.9207
-5.3874 -5.0975 1.9203
-5.2712 -5.2155 1.9200
-5.1523 -5.3309 1.9196
-5.0309 -5.4435 1.9192
-4.9070 -5.5533 1.9188
-4.7808 -5.6603 1.9184
-4.6522 -5.7645 1.9179
-4.5213 -5.8656 1.9175
-4.3882 -5.9639 1.9171
-4.2530 -6.0591 1.9167
-4.1157 -6.1512 1.9163
-3.9768 -6.2408 1.9160
-3.9767 -6.5595 1.9861
-3.9879 -6.9222 2.0684
-3.8323 -7.0095 2.0684
-3.6748 -7.0934 2.0684
-3.5155 -7.1737 2.0684
-3.3544 -7.2504 2.0684
-3.1916 -7.3235 2.0684
-3.0273 -7.3930 2.0684
-2.8614 -7.4587 2.0684
-2.6941 -7.5208 2.0684
-2.5254 -7.5791 2.0684
-2.3555 -7.6336 2.0684
-2.1845 -7.6843 2.0684
-2.0123 -7.7312 2.0684
-1.8391 -7.7742 2.0684
-1.6650 -7.8133 2.0684
-1.4901 -7.8486 2.0684
-1.3144 -7.8799 2.0684
-1.1381 -7.9073 2.0684
-0.9612 -7.9307 2.0684
-0.7838 -7.9502 2.0684
-0.6061 -7.9657 2.0684
-0.4280 -7.9773 2.0684
-0.2497 -7.9848 2.0684
-0.0714 -7.9884 2.0684
0.1071 -7.9880 2.0684
0.2855 -7.9837 2.0684
0.4637 -7.9753 2.0684
0.6417 -7.9629 2.0684
0.8194 -7.9466 2.0684
0.9967 -7.9263 2.0684
1.1734 -7.9021 2.0684
1.3496 -7.8739 2.0684
1.5252 -7.8418 2.0684
1.6999 -7.8058 2.0684
1.8738 -7.7659 2.0684
2.0468 -7.7221 2.0684
2.2188 -7.6745 2.0684
2.3896 -7.6230 2.0684
2.5593 -7.5677 2.0684
2.7277 -7.5087 2.0684
2.8947 -7.4459 2.0684
3.0603 -7.3794 2.0684
3.2243 -7.3092 2.0684
3.3868 -7.2353 2.0684
3.5475 -7.1579 2.0684
3.7065 -7.0769 2.0684
3.8636 -6.9923 2.0684
4.0188 -6.9043 2.0684
4.1720 -6.8128 2.0684
4.3231 -6.7179 2.0684
4.4721 -6.6197 2.0684
4.6188 -6.5182 2.0684
4.7633 -6.4134 2.0684
4.9053 -6.3054 2.0684
5.0449 -6.1943 2.0684
5.1820 -6.0800 2.0684
5.3165 -5.9628 2.0684
5.4484 -5.8426 2.0684
5.5476 -5.6887 2.0573
5.5976 -5.4892 2.0299
5.6458 -5.2944 2.0040
5.6895 -5.1014 1.9786
5.7320 -4.9130 1.9547
5.7733 -4.7289 1.9323
5.8281 -4.5602 1.9160
5.9285 -4.4289 1.9160
6.0259 -4.2954 1.9160
6.1204 -4.1597 1.9160
6.2118 -4.0220 1.9160
6.3000 -3.8822 1.9160
6.3852 -3.7406 1.9160
6.4671 -3.5970 1.9160
6.5459 -3.4517 1.9160
6.6213 -3.3046 1.9160
6.6935 -3.1559 1.9160
6.7623 -3.0056 1.9160
6.8277 -2.8538 1.9160
6.8898 -2.7006 1.9160
6.9484 -2.5461 1.9160
7.0035 -2.3902 1.9160
7.0551 -2.2332 1.9160
7.1033 -2.0751 1.9160
7.1478 -1.9160 1.9160
7.1888 -1.7559 1.9160
7.2263 -1.5949 1.9160
7.2601 -1.4331 1.9160
7.2903 -1.2705 1.9160
7.3168 -1.1074 1.9160
7.3397 -0.9437 1.9160
7.3590 -0.7796 1.9160
7.3746 -0.6150 1.9160
7.3864 -0.4501 1.9160
7.3947 -0.2850 1.9160
7.3992 -0.1198 1.9160
7.4106 0.0455 1.9188
7.4077 0.2110 1.9188
7.4010 0.3764 1.9187
7.3907 0.5416 1.9187
7.3766 0.7065 1.9187
7.3588 0.8711 1.9186
7.3373 1.0352 1.9186
7.3120 1.1988 1.9185
7.2831 1.3617 1.9184
7.2505 1.5239 1.9183
7.2143 1.6854 1.9182
7.1744 1.8460 1.9181
7.1309 2.0056 1.9179
7.0838 2.1642 1.9178
7.0331 2.3217 1.9176
6.9789 2.4780 1.9175
6.9212 2.6330 1.9173
6.8600 2.7867 1.9171
6.7953 2.9389 1.9169
6.7273 3.0896 1.9167
6.6558 3.2387 1.9165
6.5811 3.3862 1.9163
6.5030 3.5319 1.9160
6.4224 3.6762 1.9160
6.3625 3.8330 1.9232
6.3671 4.0324 1.9514
6.3805 4.2434 1.9840
6.3997 4.4654 2.0205
6.4250 4.6999 2.0611
6.3408 4.8594 2.0684
6.2307 4.9998 2.0684
6.1175 5.1377 2.0684
6.0012 5.2731 2.0684
5.8820 5.4058 2.0684
5.7598 5.5358 2.0684
5.6347 5.6631 2.0684
5.5068 5.7875 2.0684
5.3762 5.9091 2.0684
5.2428 6.0277 2.0684
5.1069 6.1433 2.0684
4.9684 6.2558 2.0684
4.8275 6.3652 2.0684
4.6841 6.4714 2.0684
4.5384 6.5744 2.0684
4.3904 6.6742 2.0684
4.2403 6.7706 2.0684
4.0880 6.8636 2.0684
3.9337 6.9531 2.0684
3.7774 7.0393 2.0684
3.6193 7.1219 2.0684
3.4593 7.2009 2.0684
3.2976 7.2764 2.0684
3.1343 7.3482 2.0684
2.9694 7.4164 2.0684
2.8030 7.4809 2.0684
2.6352 7.5416 2.0684
2.4661 7.5986 2.0684
2.2958 7.6518 2.0684
2.1243 7.7011 2.0684
1.9518 7.7467 2.0684
1.7783 7.7883 2.0684
1.6039 7.8261 2.0684
1.4287 7.8600 2.0684
1.2528 7.8899 2.0684
1.0762 7.9159 2.0684
0.8992 7.9380 2.0684
0.7217 7.9561 2.0684
0.5438 7.9702 2.0684
0.3657 7.9804 2.0684
0.1873 7.9866 2.0684
0.0089 7.9888 2.0684
-0.1695 7.9870 2.0684
-0.3479 7.9812 2.0684
-0.5260 7.9714 2.0684
-0.7039 7.9577 2.0684
-0.8815 7.9400 2.0684
-1.0586 7.9183 2.0684
-1.2352 7.8927 2.0684
-1.4112 7.8631 2.0684
-1.5864 7.8297 2.0684
-1.7609 7.7923 2.0684
-1.9345 7.7510 2.0684
-2.1071 7.7059 2.0684
-2.2787 7.6569 2.0684
-2.4492 7.6041 2.0684
-2.6184 7.5475 2.0684
-2.7863 7.4871 2.0684
-2.9528 7.4230 2.0684
-3.1178 7.3552 2.0684
-3.2813 7.2837 2.0684
-3.4432 7.2086 2.0684
-3.6034 7.1299 2.0684
-3.7617 7.0477 2.0684
-3.9182 6.9619 2.0684
-4.0727 6.8727 2.0684
-4.0338 6.4729 1.9748
-4.0531 6.1915 1.9160
-4.1911 6.1003 1.9163
-4.3273 6.0066 1.9168
-4.4613 5.9097 1.9172
-4.5932 5.8099 1.9176
-4.7229 5.7071 1.9180
-4.8502 5.6014 1.9185
-4.9752 5.4929 1.9189
-5.0977 5.3816 1.9193
-5.2177 5.2675 1.9197
-5.3352 5.1508 1.9201
-5.4500 5.0313 1.9205
-5.5622 4.9094 1.9209
-5.6716 4.7849 1.9213
-5.7773 4.6572 1.9214
-5.8799 4.5270 1.9214
-5.9796 4.3946 1.9214
-6.0762 4.2599 1.9214
-6.1698 4.1232 1.9214
-6.2604 3.9843 1.9214
-6.3478 3.8435 1.9214
-6.4321 3.7008 1.9214
-6.4098 3.4998 1.8909
-6.3561 3.2883 1.8529
-6.2729 3.0697 1.8082
-6.2531 2.8887 1.7834
-6.2277 2.7099 1.7585
-6.1953 2.5328 1.7329
-6.1337 2.3492 1.7006
-6.1105 2.1851 1.6802
-6.1202 2.0355 1.6700
-6.1023 1.8793 1.6532
-6.0847 1.7261 1.6376
-6.0712 1.5766 1.6241
-6.0580 1.4296 1.6116
-6.0170 1.2787 1.5927
-6.0076 1.1371 1.5831
-6.0311 1.0026 1.5830
-6.0248 0.8637 1.5759
-6.0213 0.7264 1.5703
-5.9880 0.5870 1.5578
-5.9891 0.4523 1.5551
-5.9901 0.3181 1.5531
-6.0250 0.1851 1.5607
-6.0298 0.0505 1.5613
-6.0372 -0.0843 1.5633
-6.0451 -0.2195 1.5662
-6.0242 -0.3536 1.5625
-6.0344 -0.4897 1.5676
-6.0765 -0.6300 1.5817
-6.0883 -0.7690 1.5889
-6.1009 -0.9094 1.5971
-6.0831 -1.0462 1.5981
-6.0973 -1.1894 1.6085
-6.1440 -1.3416 1.6283
-6.1612 -1.4903 1.6413
-6.1806 -1.6419 1.6558
-6.2020 -1.7968 1.6718
-6.1945 -1.9456 1.6811
-6.2213 -2.1078 1.7007
-6.2862 -2.2876 1.7320
-6.3221 -2.4619 1.7566
-6.3588 -2.6412 1.7828
-6.3739 -2.8160 1.8042
-6.4571 -3.0269 1.8464
-6.5152 -3.2335 1.8832
-6.5718 -3.4466 1.9214
-6.4932 -3.5925 1.9214
-6.4113 -3.7367 1.9214
-6.3263 -3.8789 1.9214
-6.2380 -4.0192 1.9214
-6.1467 -4.1576 1.9214
-6.0523 -4.2938 1.9214
-5.9549 -4.4279 1.9214
-5.8545 -4.5598 1.9214
-5.7512 -4.6894 1.9214
-5.6446 -4.8164 1.9212
-5.5346 -4.9403 1.9208
-5.4218 -5.0616 1.9205
-5.3063 -5.1804 1.9201
-5.1882 -5.2966 1.9197
-5.0676 -5.4100 1.9193
-4.9445 -5.5207 1.9189
-4.8189 -5.6285 1.9185
-4.6910 -5.7335 1.9181
-4.5608 -5.8356 1.9177
-4.4284 -5.9347 1.9172
-4.2938 -6.0308 1.9168
-4.1571 -6.1238 1.9164
-4.0185 -6.2140 1.9160
-3.9155 -6.3620 1.9342
-4.0342 -6.8953 2.0684
-3.8792 -6.9837 2.0684
-3.7223 -7.0686 2.0684
-3.5635 -7.1500 2.0684
-3.4029 -7.2278 2.0684
-3.2406 -7.3020 2.0684
-3.0767 -7.3725 2.0684
-2.9113 -7.4394 2.0684
-2.7444 -7.5026 2.0684
-2.5762 -7.5620 2.0684
-2.4066 -7.6176 2.0684
-2.2359 -7.6695 2.0684
-2.0640 -7.7175 2.0684
-1.8911 -7.7617 2.0684
-1.7174 -7.8020 2.0684
-1.5427 -7.8384 2.0684
-1.3672 -7.8709 2.0684
-1.1911 -7.8995 2.0684
-1.0144 -7.9241 2.0684
-0.8371 -7.9448 2.0684
-0.6595 -7.9615 2.0684
-0.4815 -7.9742 2.0684
-0.3033 -7.9830 2.0684
-0.1249 -7.9878 2.0684
0.0535 -7.9886 2.0684
0.2320 -7.9854 2.0684
0.4103 -7.9782 2.0684
0.5883 -7.9671 2.0684
0.7661 -7.9519 2.0684
0.9435 -7.9328 2.0684
1.1205 -7.9098 2.0684
1.2969 -7.8828 2.0684
1.4726 -7.8519 2.0684
1.6476 -7.8170 2.0684
1.8217 -7.7783 2.0684
1.9950 -7.7356 2.0684
2.1673 -7.6892 2.0684
2.3385 -7.6388 2.0684
2.5085 -7.5847 2.0684
2.6773 -7.5268 2.0684
2.8447 -7.4651 2.0684
3.0107 -7.3997 2.0684
3.1753 -7.3306 2.0684
3.3382 -7.2579 2.0684
3.4995 -7.1815 2.0684
3.6590 -7.1015 2.0684
3.8167 -7.0181 2.0684
3.9725 -6.9311 2.0684
4.1263 -6.8406 2.0684
4.2780 -6.7467 2.0684
4.4277 -6.6495 2.0684
4.5751 -6.5490 2.0684
4.7202 -6.4451 2.0684
4.8629 -6.3381 2.0684
5.0033 -6.2279 2.0684
5.1411 -6.1146 2.0684
5.2764 -5.9983 2.0684
5.4091 -5.8789 2.0684
5.5322 -5.7496 2.0659
5.5828 -5.5486 2.0380
5.6318 -5.3526 2.0117
5.6765 -5.1588 1.9860
5.7193 -4.9691 1.9617
5.7610 -4.7837 1.9388
5.8074 -4.6070 1.9193
5.8987 -4.4685 1.9160
5.9970 -4.3356 1.9160
6.0924 -4.2006 1.9160
6.1847 -4.0635 1.9160
6.2739 -3.9243 1.9160
6.3600 -3.7832 1.9160
6.4429 -3.6402 1.9160
6.5226 -3.4955 1.9160
6.5990 -3.3489 1.9160
6.6722 -3.2007 1.9160
6.7420 -3.0509 1.9160
6.8084 -2.8995 1.9160
6.8715 -2.7468 1.9160
6.9311 -2.5926 1.9160
6.9873 -2.4371 1.9160
7.0400 -2.2805 1.9160
7.0892 -2.1227 1.9160
7.1348 -1.9638 1.9160
7.1769 -1.8040 1.9160
7.2154 -1.6432 1.9160
7.2503 -1.4817 1.9160
7.2816 -1.3194 1.9160
7.3092 -1.1564 1.9160
7.3332 -0.9929 1.9160
7.3536 -0.8288 1.9160
7.3703 -0.6644 1.9160
7.3833 -0.4996 1.9160
7.3926 -0.3346 1.9160
7.3982 -0.1694 1.9160
7.4001 -0.0041 1.9160
7.4089 0.1614 1.9188
7.4034 0.3268 1.9187
7.3942 0.4921 1.9187
7.3812 0.6571 1.9187
7.3645 0.8218 1.9186
7.3441 0.9860 1.9186
7.3200 1.1497 1.9185
7.2922 1.3129 1.9184
7.2607 1.4754 1.9183
7.2255 1.6371 1.9182
7.1867 1.7979 1.9181
7.1443 1.9579 1.9180
7.0983 2.1168 1.9178
7.0487 2.2746 1.9177
6.9955 2.4313 1.9175
6.9389 2.5867 1.9174
6.8787 2.7407 1.9172
6.8151 2.8934 1.9170
6.7480 3.0445 1.9168
6.6776 3.1941 1.9166
6.6038 3.3421 1.9163
6.5268 3.4883 1.9161
6.4469 3.6331 1.9160
6.3648 3.7765 1.9162
6.3638 3.9707 1.9421
6.3751 4.1784 1.9736
6.3939 4.3980 2.0093
6.4154 4.6273 2.0481
6.3733 4.8168 2.0684
6.2641 4.9580 2.0684
6.1518 5.0966 2.0684
6.0364 5.2328 2.0684
5.9180 5.3663 2.0684
5.7967 5.4971 2.0684
5.6725 5.6252 2.0684
5.5455 5.7505 2.0684
5.4156 5.8729 2.0684
5.2831 5.9924 2.0684
5.1480 6.1089 2.0684
5.0103 6.2224 2.0684
4.8700 6.3327 2.0684
4.7274 6.4399 2.0684
4.5824 6.5439 2.0684
4.4351 6.6446 2.0684
4.2856 6.7420 2.0684
4.1339 6.8360 2.0684
3.9802 6.9266 2.0684
3.8245 7.0138 2.0684
3.6669 7.0975 2.0684
3.5075 7.1776 2.0684
3.3463 7.2541 2.0684
3.1834 7.3271 2.0684
3.0190 7.3963 2.0684
2.8530 7.4619 2.0684
2.6857 7.5238 2.0684
2.5170 7.5819 2.0684
2.3470 7.6362 2.0684
2.1759 7.6867 2.0684
2.0037 7.7334 2.0684
1.8304 7.7762 2.0684
1.6563 7.8152 2.0684
1.4813 7.8502 2.0684
1.3056 7.8813 2.0684
1.1293 7.9085 2.0684
0.9524 7.9318 2.0684
0.7750 7.9511 2.0684
0.5972 7.9664 2.0684
0.4191 7.9778 2.0684
0.2408 7.9851 2.0684
0.0624 7.9885 2.0684
-0.1160 7.9879 2.0684
-0.2944 7.9833 2.0684
-0.4726 7.9748 2.0684
-0.6506 7.9622 2.0684
-0.8282 7.9457 2.0684
-1.0055 7.9252 2.0684
-1.1823 7.9008 2.0684
-1.3584 7.8724 2.0684
-1.5339 7.8401 2.0684
-1.7086 7.8039 2.0684
-1.8825 7.7638 2.0684
-2.0554 7.7198 2.0684
-2.2273 7.6720 2.0684
-2.3981 7.6203 2.0684
-2.5677 7.5648 2.0684
-2.7361 7.5056 2.0684
-2.9030 7.4426 2.0684
-3.0685 7.3759 2.0684
-3.2325 7.3056 2.0684
-3.3948 7.2315 2.0684
-3.5555 7.1539 2.0684
-3.7144 7.0727 2.0684
-3.8714 6.9880 2.0684
-4.0265 6.8998 2.0684
-4.1361 6.7373 2.0469
-4.0116 6.2185 1.9160
-4.1498 6.1279 1.9162
-4.2866 6.0350 1.9166
-4.4213 5.9391 1.9171
-4.5539 5.8402 1.9175
-4.6842 5.7383 1.9179
-4.8123 5.6335 1.9183
-4.9380 5.5258 1.9187
-5.0612 5.4153 1.9192
-5.1820 5.3020 1.9196
-5.3003 5.1860 1.9200
-5.4159 5.0674 1.9204
-5.5288 4.9462 1.9208
-5.6391 4.8225 1.9212
-5.7460 4.6958 1.9214
-5.8495 4.5663 1.9214
-5.9500 4.4345 1.9214
-6.0475 4.3006 1.9214
-6.1421 4.1644 1.9214
-6.2335 4.0262 1.9214
-6.3219 3.8860 1.9214
-6.4071 3.7438 1.9214
-6.4280 3.5658 1.9032
-6.3720 3.3509 1.8640
-6.2863 3.1286 1.8181
-6.2423 2.9347 1.7860
-6.2385 2.7645 1.7667
-6.2041 2.5850 1.7402
-6.1750 2.4125 1.7165
-6.1174 2.2339 1.6862
-6.0946 2.0725 1.6668
-6.1076 1.9258 1.6581
-6.0900 1.7717 1.6422
-6.0752 1.6212 1.6280
-6.0620 1.4734 1.6152
-6.0199 1.3215 1.5958
-6.0104 1.1794 1.5859
-6.0330 1.0445 1.5853
-6.0267 0.9053 1.5779
-6.0222 0.7675 1.5719
-6.0192 0.6308 1.5670
-5.9887 0.4927 1.5558
-5.9898 0.3583 1.5536
-6.0235 0.2255 1.5607
-6.0283 0.0909 1.5610
-6.0348 -0.0438 1.5626
-6.0427 -0.1789 1.5652
-6.0211 -0.3130 1.5611
-6.0313 -0.4488 1.5659
-6.0730 -0.5885 1.5798
-6.0847 -0.7272 1.5867
-6.0971 -0.8672 1.5945
-6.0890 -1.0052 1.5979
-6.0930 -1.1463 1.6053
-6.1389 -1.2975 1.6246
-6.1560 -1.4455 1.6373
-6.1743 -1.5960 1.6512
-6.1955 -1.7500 1.6669
-6.1866 -1.8977 1.6755
-6.2132 -2.0588 1.6947
-6.2763 -2.2364 1.7251
-6.3102 -2.4087 1.7488
-6.3502 -2.5878 1.7755
-6.3596 -2.7589 1.7949
-6.4078 -2.9515 1.8266
-6.4982 -3.1710 1.8721
-6.5570 -3.3830 1.9104
-6.5171 -3.5490 1.9214
-6.4362 -3.6936 1.9214
-6.3521 -3.8365 1.9214
-6.2648 -3.9774 1.9214
-6.1744 -4.1163 1.9214
-6.0810 -4.2532 1.9214
-5.9844 -4.3879 1.9214
-5.8849 -4.5205 1.9214
-5.7825 -4.6508 1.9214
-5.6771 -4.7787 1.9213
-5.5679 -4.9033 1.9210
-5.4559 -5.0255 1.9206
-5.3412 -5.1451 1.9202
-5.2239 -5.2620 1.9198
-5.1040 -5.3763 1.9194
-4.9817 -5.4878 1.9190
-4.8568 -5.5965 1.9186
-4.7296 -5.7023 1.9182
-4.6001 -5.8053 1.9178
-4.4683 -5.9053 1.9174
-4.3343 -6.0023 1.9169
-4.1983 -6.0963 1.9165
-4.0602 -6.1871 1.9161
-3.9208 -6.2761 1.9160
-4.0668 -6.8454 2.0616
-3.9259 -6.9575 2.0684
-3.7695 -7.0435 2.0684
-3.6113 -7.1259 2.0684
-3.4513 -7.2048 2.0684
-3.2895 -7.2801 2.0684
-3.1261 -7.3517 2.0684
-2.9611 -7.4197 2.0684
-2.7946 -7.4840 2.0684
-2.6268 -7.5445 2.0684
-2.4576 -7.6013 2.0684
-2.2872 -7.6543 2.0684
-2.1157 -7.7035 2.0684
-1.9431 -7.7488 2.0684
-1.7696 -7.7903 2.0684
-1.5951 -7.8279 2.0684
-1.4199 -7.8616 2.0684
-1.2440 -7.8913 2.0684
-1.0674 -7.9171 2.0684
-0.8903 -7.9390 2.0684
-0.7128 -7.9569 2.0684
-0.5349 -7.9708 2.0684
-0.3567 -7.9808 2.0684
-0.1784 -7.9868 2.0684
0.0000 -7.3065 2.0684
0.1632 -7.3047 2.0684
0.3263 -7.2992 2.0684
0.4892 -7.2901 2.0684
0.6519 -7.2774 2.0684
0.8143 -7.2610 2.0684
0.9763 -7.2410 2.0684
1.1378 -7.2174 2.0684
1.2987 -7.1902 2.0684
1.4589 -7.1594 2.0684
1.6185 -7.1250 2.0684
1.7772 -7.0871 2.0684
1.9350 -7.0457 2.0684
2.0919 -7.0007 2.0684
2.2478 -6.9522 2.0684
2.4025 -6.9003 2.0684
2.5560 -6.8449 2.0684
2.7082 -6.7861 2.0684
2.8591 -6.7239 2.0684
3.0086 -6.6584 2.0684
3.1565 -6.5895 2.0684
3.3029 -6.5174 2.0684
3.4477 -6.4420 2.0684
3.5907 -6.3634 2.0684
3.7319 -6.2816 2.0684
3.8713 -6.1967 2.0684
4.0087 -6.1087 2.0684
4.1441 -6.0176 2.0684
4.2775 -5.9236 2.0684
4.4087 -5.8265 2.0684
4.5378 -5.7266 2.0684
4.6645 -5.6239 2.0684
4.7890 -5.5183 2.0684
4.9110 -5.4099 2.0684
5.0306 -5.2989 2.0684
5.1477 -5.1852 2.0684
5.2622 -5.0690 2.0684
5.3741 -4.9502 2.0684
5.4834 -4.8289 2.0684
5.5898 -4.7052 2.0684
5.6935 -4.5792 2.0684
5.7944 -4.4509 2.0684
5.8318 -4.2760 2.0472
5.8661 -4.1029 2.0265
5.8960 -3.9307 2.0060
5.9252 -3.7618 1.9869
5.9537 -3.5958 1.9690
5.9800 -3.4318 1.9519
6.0037 -3.2694 1.9353
6.0336 -3.1130 1.9220
6.0826 -2.9682 1.9160
6.1474 -2.8316 1.9160
6.2091 -2.6936 1.9160
6.2677 -2.5543 1.9160
6.3232 -2.4136 1.9160
6.3755 -2.2718 1.9160
6.4247 -2.1288 1.9160
6.4706 -1.9848 1.9160
6.5133 -1.8398 1.9160
6.5528 -1.6939 1.9160
6.5890 -1.5471 1.9160
6.6219 -1.3995 1.9160
6.6515 -1.2513 1.9160
6.6778 -1.1024 1.9160
6.7008 -0.9530 1.9160
6.7204 -0.8031 1.9160
6.7367 -0.6528 1.9160
6.7495 -0.5022 1.9160
6.7591 -0.3513 1.9160
6.7652 -0.2003 1.9160
6.7680 -0.0491 1.9160
6.7711 0.1021 1.9171
6.7671 0.2533 1.9170
6.7596 0.4044 1.9170
6.7488 0.5552 1.9170
6.7346 0.7058 1.9170
6.7170 0.8560 1.9169
6.6960 1.0058 1.9168
6.6716 1.1551 1.9168
6.6439 1.3037 1.9167
6.6128 1.4517 1.9166
6.5784 1.5990 1.9165
6.5406 1.7454 1.9164
6.4996 1.8909 1.9163
6.4553 2.0355 1.9161
6.4174 2.1822 1.9189
6.3576 2.3216 1.9160
6.3042 2.4630 1.9160
6.2773 2.6156 1.9252
6.2783 2.7821 1.9440
6.2851 2.9548 1.9661
6.2919 3.1315 1.9896
6.2987 3.3124 2.0147
6.3063 3.4983 2.0416
6.3085 3.6862 2.0684
6.2246 3.8262 2.0684
6.1376 3.9642 2.0684
6.0475 4.1003 2.0684
5.9545 4.2344 2.0684
5.8584 4.3663 2.0684
5.7594 4.4961 2.0684
5.6576 4.6236 2.0684
5.5529 4.7488 2.0684
5.4454 4.8716 2.0684
5.3353 4.9920 2.0684
5.2225 5.1099 2.0684
5.1070 5.2253 2.0684
4.9891 5.3381 2.0684
4.8686 5.4482 2.0684
4.7457 5.5555 2.0684
4.6204 5.6601 2.0684
4.4929 5.7619 2.0684
4.3631 5.8608 2.0684
4.2311 5.9568 2.0684
4.0970 6.0498 2.0684
3.9608 6.1398 2.0684
3.8227 6.2268 2.0684
3.6827 6.3106 2.0684
3.5408 6.3913 2.0684
3.3972 6.4688 2.0684
3.2519 6.5430 2.0684
3.1049 6.6140 2.0684
2.9564 6.6817 2.0684
2.8065 6.7461 2.0684
2.6551 6.8071 2.0684
2.5024 6.8647 2.0684
2.3484 6.9188 2.0684
2.1933 6.9696 2.0684
2.0371 7.0168 2.0684
1.8799 7.0606 2.0684
1.7217 7.1008 2.0684
1.5627 7.1375 2.0684
1.4029 7.1706 2.0684
1.2424 7.2001 2.0684
1.0813 7.2261 2.0684
0.9196 7.2484 2.0684
0.7575 7.2672 2.0684
0.5950 7.2823 2.0684
0.4322 7.2938 2.0684
0.2692 7.3016 2.0684
0.1061 7.3058 2.0684
-0.0571 7.3063 2.0684
-0.2203 7.3032 2.0684
-0.3833 7.2965 2.0684
-0.5462 7.2861 2.0684
-0.7088 7.2721 2.0684
-0.8710 7.2544 2.0684
-1.0328 7.2332 2.0684
-1.1941 7.2083 2.0684
-1.3548 7.1798 2.0684
-1.5149 7.1478 2.0684
-1.6741 7.1122 2.0684
-1.8325 7.0730 2.0684
-1.9901 7.0303 2.0684
-2.1466 6.9841 2.0684
-2.3020 6.9344 2.0684
-2.4563 6.8813 2.0684
-2.6094 6.8247 2.0684
-2.7612 6.7647 2.0684
-2.9116 6.7014 2.0684
-3.0605 6.6347 2.0684
-3.2079 6.5646 2.0684
-3.3538 6.4914 2.0684
-3.4979 6.4148 2.0684
-3.6403 6.3351 2.0684
-3.7809 6.2522 2.0684
-3.8532 6.0619 2.0334
-3.7575 5.6294 1.9160
-3.8824 5.5442 1.9161
-4.0061 5.4573 1.9165
-4.1278 5.3675 1.9169
-4.2475 5.2750 1.9173
-4.3651 5.1799 1.9176
-4.4806 5.0821 1.9180
-4.5939 4.9817 1.9184
-4.7049 4.8788 1.9188
-4.8136 4.7734 1.9191
-4.9199 4.6656 1.9195
-5.0238 4.5554 1.9198
-5.1252 4.4429 1.9202
-5.2241 4.3281 1.9205
-5.3204 4.2110 1.9209
-5.4141 4.0919 1.9212
-5.5046 3.9703 1.9214
-5.5919 3.8464 1.9214
-5.6764 3.7205 1.9214
-5.7581 3.5928 1.9214
-5.8369 3.4633 1.9214
-5.9128 3.3321 1.9214
-5.9857 3.1992 1.9214
-6.0557 3.0647 1.9214
-6.1226 2.9287 1.9214
-6.1865 2.7912 1.9214
-6.2135 2.6380 1.9110
-6.1836 2.4638 1.8844
-6.1244 2.2830 1.8503
-6.1014 2.1205 1.8286
-6.1130 1.9727 1.8184
-6.0952 1.8177 1.8006
-6.0792 1.6660 1.7844
-6.0659 1.5175 1.7701
-6.0227 1.3645 1.7482
-6.0132 1.2219 1.7371
-6.0349 1.0865 1.7359
-6.0286 0.9469 1.7276
-6.0231 0.8086 1.7204
-6.0201 0.6717 1.7148
-5.9884 0.5331 1.7020
-5.9895 0.3986 1.6993
-6.0221 0.2658 1.7065
-6.0269 0.1313 1.7066
-6.0324 -0.0034 1.7077
-6.0403 -0.1383 1.7104
-6.0181 -0.2724 1.7054
-6.0283 -0.4079 1.7105
-6.0694 -0.5471 1.7252
-6.0812 -0.6854 1.7324
-6.0933 -0.8250 1.7407
-6.1060 -0.9660 1.7501
-6.0888 -1.1032 1.7517
-6.1031 -1.2472 1.7634
-6.1509 -1.4008 1.7859
-6.1682 -1.5504 1.8005
-6.1891 -1.7035 1.8173
-6.1787 -1.8500 1.8259
-6.2051 -2.0100 1.8465
-6.2665 -2.1857 1.8788
-6.2996 -2.3564 1.9040
-6.3022 -2.5192 1.9214
-6.2444 -2.6593 1.9214
-6.1834 -2.7981 1.9214
-6.1194 -2.9355 1.9214
-6.0523 -3.0715 1.9214
-5.9822 -3.2059 1.9214
-5.9091 -3.3387 1.9214
-5.8330 -3.4698 1.9214
-5.7541 -3.5992 1.9214
-5.6723 -3.7268 1.9214
-5.5876 -3.8526 1.9214
-5.5002 -3.9764 1.9214
-5.4094 -4.0979 1.9212
-5.3157 -4.2170 1.9208
-5.2192 -4.3339 1.9205
-5.1202 -4.4486 1.9202
-5.0187 -4.5610 1.9198
-4.9147 -4.6711 1.9195
-4.8082 -4.7788 1.9191
-4.6994 -4.8841 1.9188
-4.5883 -4.9869 1.9184
-4.4749 -5.0871 1.9180
-4.3594 -5.1848 1.9177
-4.2416 -5.2799 1.9173
-4.1218 -5.3722 1.9169
-4.0000 -5.4618 1.9165
-3.8763 -5.5487 1.9161
-3.7512 -5.6336 1.9160
-3.7689 -5.9438 1.9924
-3.7739 -6.2565 2.0684
-3.6332 -6.3392 2.0684
-3.4907 -6.4187 2.0684
-3.3465 -6.4951 2.0684
-3.2006 -6.5682 2.0684
-3.0531 -6.6381 2.0684
-2.9041 -6.7046 2.0684
-2.7536 -6.7678 2.0684
-2.6018 -6.8276 2.0684
-2.4486 -6.8840 2.0684
-2.2943 -6.9370 2.0684
-2.1388 -6.9865 2.0684
-1.9822 -7.0325 2.0684
-1.8247 -7.0750 2.0684
-1.6662 -7.1140 2.0684
-1.5069 -7.1495 2.0684
-1.3468 -7.1813 2.0684
-1.1861 -7.2096 2.0684
-1.0248 -7.2343 2.0684
-0.8629 -7.2554 2.0684
-0.7007 -7.2729 2.0684
-0.5381 -7.2867 2.0684
-0.3752 -7.2969 2.0684
-0.2121 -7.3035 2.0684
-0.0490 -7.3064 2.0684
0.1142 -7.3057 2.0684
0.2774 -7.3013 2.0684
0.4404 -7.2933 2.0684
0.6032 -7.2816 2.0684
0.7656 -7.2663 2.0684
0.9277 -7.2474 2.0684
1.0894 -7.2249 2.0684
1.2505 -7.1987 2.0684
1.4109 -7.1690 2.0684
1.5707 -7.1357 2.0684
1.7297 -7.0989 2.0684
1.8878 -7.0585 2.0684
2.0450 -7.0145 2.0684
2.2011 -6.9671 2.0684
2.3562 -6.9162 2.0684
2.5101 -6.8619 2.0684
2.6627 -6.8041 2.0684
2.8140 -6.7429 2.0684
2.9639 -6.6784 2.0684
3.1123 -6.6105 2.0684
3.2592 -6.5394 2.0684
3.4044 -6.4649 2.0684
3.5479 -6.3873 2.0684
3.6897 -6.3065 2.0684
3.8297 -6.2225 2.0684
3.9677 -6.1354 2.0684
4.1037 -6.0453 2.0684
4.2377 -5.9521 2.0684
4.3696 -5.8560 2.0684
4.4993 -5.7569 2.0684
4.6267 -5.6550 2.0684
4.7519 -5.5502 2.0684
4.8747 -5.4427 2.0684
4.9950 -5.3325 2.0684
5.1129 -5.2196 2.0684
5.2282 -5.1041 2.0684
5.3409 -4.9861 2.0684
5.4509 -4.8655 2.0684
5.5582 -4.7426 2.0684
5.6627 -4.6173 2.0684
5.7644 -4.4896 2.0684
5.8214 -4.3286 2.0536
5.8560 -4.1545 2.0326
5.8871 -3.9820 2.0120
5.9165 -3.8121 1.9925
5.9453 -3.6453 1.9742
5.9728 -3.4811 1.9571
5.9966 -3.3178 1.9401
6.0241 -3.1594 1.9257
6.0626 -3.0089 1.9160
6.1283 -2.8727 1.9160
6.1909 -2.7351 1.9160
6.2505 -2.5962 1.9160
6.3069 -2.4559 1.9160
6.3602 -2.3145 1.9160
6.4103 -2.1718 1.9160
6.4572 -2.0281 1.9160
6.5009 -1.8834 1.9160
6.5413 -1.7377 1.9160
6.5785 -1.5912 1.9160
6.6124 -1.4439 1.9160
6.6430 -1.2958 1.9160
6.6703 -1.1471 1.9160
6.6942 -0.9979 1.9160
6.7149 -0.8481 1.9160
6.7321 -0.6979 1.9160
6.7460 -0.5474 1.9160
6.7566 -0.3966 1.9160
6.7637 -0.2456 1.9160
6.7675 -0.0945 1.9160
6.7716 0.0567 1.9171
6.7686 0.2079 1.9171
6.7622 0.3591 1.9170
6.7524 0.5100 1.9170
6.7392 0.6607 1.9170
6.7226 0.8110 1.9169
6.7026 0.9609 1.9169
6.6793 1.1103 1.9168
6.6525 1.2592 1.9167
6.6224 1.4074 1.9166
6.5890 1.5549 1.9165
6.5523 1.7015 1.9164
6.5123 1.8473 1.9163
6.4689 1.9922 1.9162
6.4223 2.1360 1.9160
6.3730 2.2789 1.9160
6.3205 2.4207 1.9160
6.2798 2.5673 1.9206
6.2762 2.7310 1.9377
6.2831 2.9026 1.9593
6.2899 3.0780 1.9824
6.2967 3.2577 2.0070
6.3035 3.4418 2.0332
6.3136 3.6326 2.0620
6.2501 3.7844 2.0684
6.1640 3.9230 2.0684
6.0749 4.0597 2.0684
5.9827 4.1944 2.0684
5.8875 4.3270 2.0684
5.7894 4.4574 2.0684
5.6884 4.5856 2.0684
5.5846 4.7115 2.0684
5.4780 4.8350 2.0684
5.3686 4.9562 2.0684
5.2566 5.0748 2.0684
5.1419 5.1910 2.0684
5.0247 5.3045 2.0684
4.9050 5.4154 2.0684
4.7826 5.5236 2.0684
4.6583 5.6291 2.0684
4.5314 5.7317 2.0684
4.4022 5.8315 2.0684
4.2709 5.9283 2.0684
4.1374 6.0222 2.0684
4.0019 6.1132 2.0684
3.8643 6.2010 2.0684
3.7249 6.2858 2.0684
3.5836 6.3674 2.0684
3.4405 6.4458 2.0684
3.2956 6.5211 2.0684
3.1492 6.5930 2.0684
3.0011 6.6617 2.0684
2.8516 6.7271 2.0684
2.7006 6.7891 2.0684
2.5483 6.8477 2.0684
2.3948 6.9029 2.0684
2.2400 6.9547 2.0684
2.0841 7.0030 2.0684
1.9272 7.0478 2.0684
1.7693 7.0891 2.0684
1.6105 7.1268 2.0684
1.4509 7.1610 2.0684
1.2906 7.1917 2.0684
1.1297 7.2187 2.0684
0.9682 7.2421 2.0684
0.8062 7.2619 2.0684
0.6438 7.2781 2.0684
0.4811 7.2907 2.0684
0.3181 7.2996 2.0684
0.1550 7.3049 2.0684
-0.0082 7.3065 2.0684
-0.1713 7.3045 2.0684
-0.3344 7.2989 2.0684
-0.4974 7.2896 2.0684
-0.6601 7.2767 2.0684
-0.8224 7.2601 2.0684
-0.9844 7.2399 2.0684
-1.1458 7.2161 2.0684
-1.3067 7.1887 2.0684
-1.4669 7.1578 2.0684
-1.6264 7.1232 2.0684
-1.7851 7.0851 2.0684
-1.9429 7.0435 2.0684
-2.0997 6.9983 2.0684
-2.2555 6.9497 2.0684
-2.4102 6.8976 2.0684
-2.5636 6.8420 2.0684
-2.7158 6.7831 2.0684
-2.8666 6.7207 2.0684
-3.0160 6.6550 2.0684
-3.1639 6.5860 2.0684
-3.3102 6.5137 2.0684
-3.4548 6.4381 2.0684
-3.5978 6.3594 2.0684
-3.7389 6.2774 2.0684
-3.8782 6.1924 2.0684
-3.7346 5.6772 1.9237
-3.8450 5.5700 1.9160
-3.9692 5.4836 1.9164
-4.0915 5.3947 1.9168
-4.2118 5.3031 1.9171
-4.3300 5.2087 1.9175
-4.4462 5.1117 1.9179
-4.5601 5.0121 1.9183
-4.6718 4.9100 1.9186
-4.7812 4.8053 1.9190
-4.8883 4.6982 1.9194
-4.9929 4.5887 1.9197
-5.0951 4.4769 1.9201
-5.1947 4.3627 1.9204
-5.2918 4.2464 1.9208
-5.3862 4.1278 1.9211
-5.4779 4.0071 1.9214
-5.5660 3.8837 1.9214
-5.6514 3.7585 1.9214
-5.7339 3.6313 1.9214
-5.8136 3.5023 1.9214
-5.8903 3.3716 1.9214
-5.9642 3.2392 1.9214
-6.0350 3.1052 1.9214
-6.1029 2.9696 1.9214
-6.1677 2.8326 1.9214
-6.2242 2.6919 1.9197
-6.1923 2.5155 1.8921
-6.1314 2.3326 1.8571
-6.1083 2.1689 1.8350
-6.1184 2.0198 1.8240
-6.1005 1.8638 1.8058
-6.0833 1.7110 1.7890
-6.0699 1.5618 1.7743
-6.0256 1.4077 1.7517
-6.0161 1.2645 1.7403
-6.0066 1.1230 1.7299
-6.0305 0.9886 1.7300
-6.0241 0.8499 1.7223
-6.0210 0.7127 1.7164
-5.9881 0.5735 1.7029
-5.9892 0.4389 1.7000
-6.0206 0.3062 1.7066
-6.0254 0.1716 1.7064
-6.0303 0.0370 1.7072
-6.0379 -0.0978 1.7095
-6.0459 -0.2331 1.7128
-6.0252 -0.3672 1.7089
-6.0354 -0.5033 1.7145
-6.0776 -0.6438 1.7302
-6.0895 -0.7830 1.7381
-6.1022 -0.9236 1.7472
-6.0845 -1.0604 1.7484
-6.0988 -1.2038 1.7598
-6.1457 -1.3564 1.7817
-6.1630 -1.5053 1.7960
-6.1827 -1.6573 1.8121
-6.2042 -1.8125 1.8298
-6.1971 -1.9617 1.8402
-6.2240 -2.1242 1.8618
-6.2896 -2.3047 1.8963
-6.3189 -2.4769 1.9214
-6.2620 -2.6174 1.9214
-6.2020 -2.7566 1.9214
-6.1389 -2.8944 1.9214
-6.0727 -3.0308 1.9214
-6.0035 -3.1657 1.9214
-5.9313 -3.2990 1.9214
-5.8562 -3.4306 1.9214
-5.7781 -3.5606 1.9214
-5.6971 -3.6888 1.9214
-5.6133 -3.8151 1.9214
-5.5267 -3.9395 1.9214
-5.4371 -4.0617 1.9213
-5.3441 -4.1815 1.9209
-5.2484 -4.2990 1.9206
-5.1502 -4.4144 1.9203
-5.0494 -4.5275 1.9199
-4.9461 -4.6383 1.9196
-4.8404 -4.7467 1.9192
-4.7323 -4.8528 1.9189
-4.6219 -4.9563 1.9185
-4.5092 -5.0573 1.9181
-4.3943 -5.1558 1.9178
-4.2772 -5.2516 1.9174
-4.1580 -5.3448 1.9170
-4.0368 -5.4353 1.9166
-3.9136 -5.5229 1.9163
-3.7888 -5.6083 1.9160
-3.7286 -5.7940 1.9505
-3.8157 -6.2310 2.0684
-3.6756 -6.3147 2.0684
-3.5337 -6.3952 2.0684
-3.3900 -6.4725 2.0684
-3.2445 -6.5466 2.0684
-3.0975 -6.6175 2.0684
-2.9490 -6.6850 2.0684
-2.7989 -6.7492 2.0684
-2.6475 -6.8100 2.0684
-2.4947 -6.8675 2.0684
-2.3407 -6.9215 2.0684
-2.1856 -6.9720 2.0684
-2.0293 -7.0191 2.0684
-1.8720 -7.0627 2.0684
-1.7138 -7.1027 2.0684
-1.5547 -7.1392 2.0684
-1.3949 -7.1722 2.0684
-1.2344 -7.2015 2.0684
-1.0732 -7.2273 2.0684
-0.9115 -7.2495 2.0684
-0.7494 -7.2680 2.0684
-0.5869 -7.2829 2.0684
-0.4241 -7.2942 2.0684
-0.2611 -7.3019 2.0684
-0.0979 -7.3059 2.0684
0.0653 -7.3062 2.0684
0.2284 -7.3030 2.0684
0.3915 -7.2960 2.0684
0.5544 -7.2855 2.0684
0.7169 -7.2713 2.0684
0.8792 -7.2535 2.0684
1.0409 -7.2320 2.0684
1.2022 -7.2070 2.0684
1.3629 -7.1783 2.0684
1.5228 -7.1461 2.0684
1.6821 -7.1103 2.0684
1.8404 -7.0710 2.0684
1.9979 -7.0281 2.0684
2.1544 -6.9817 2.0684
2.3098 -6.9318 2.0684
2.4640 -6.8785 2.0684
2.6170 -6.8218 2.0684
2.7687 -6.7616 2.0684
2.9191 -6.6981 2.0684
3.0679 -6.6312 2.0684
3.2153 -6.5611 2.0684
3.3610 -6.4876 2.0684
3.5051 -6.4109 2.0684
3.6474 -6.3310 2.0684
3.7879 -6.2480 2.0684
3.9265 -6.1618 2.0684
4.0631 -6.0726 2.0684
4.1977 -5.9804 2.0684
4.3303 -5.8851 2.0684
4.4606 -5.7869 2.0684
4.5887 -5.6859 2.0684
4.7146 -5.5820 2.0684
4.8381 -5.4753 2.0684
4.9592 -5.3658 2.0684
5.0778 -5.2537 2.0684
5.1938 -5.1390 2.0684
5.3073 -5.0217 2.0684
5.4182 -4.9019 2.0684
5.5263 -4.7797 2.0684
5.6317 -4.6551 2.0684
5.7342 -4.5282 2.0684
5.8108 -4.3815 2.0602
5.8457 -4.2064 2.0388
5.8782 -4.0336 2.0182
5.9078 -3.8627 1.9982
5.9367 -3.6950 1.9796
5.9649 -3.5303 1.9622
5.9895 -3.3665 1.9451
6.0144 -3.2059 1.9294
6.0462 -3.0514 1.9173
6.1089 -2.9137 1.9160
6.1725 -2.7766 1.9160
6.2432 -2.6423 1.9192
6.2903 -2.4982 1.9160
6.3445 -2.3570 1.9160
6.3956 -2.2147 1.9160
6.4434 -2.0714 1.9160
6.4881 -1.9269 1.9160
6.5295 -1.7815 1.9160
6.5677 -1.6353 1.9160
6.6026 -1.4882 1.9160
6.6342 -1.3403 1.9160
6.6624 -1.1918 1.9160
6.6874 -1.0427 1.9160
6.7090 -0.8931 1.9160
6.7273 -0.7430 1.9160
6.7422 -0.5926 1.9160
6.7538 -0.4419 1.9160
6.7619 -0.2909 1.9160
6.7668 -0.1398 1.9160
6.7718 0.0113 1.9171
6.7699 0.1626 1.9171
6.7645 0.3138 1.9170
6.7557 0.4647 1.9170
6.7435 0.6155 1.9170
6.7280 0.7659 1.9169
6.7090 0.9160 1.9169
6.6866 1.0656 1.9168
6.6609 1.2146 1.9168
6.6318 1.3630 1.9167
6.5994 1.5107 1.9166
6.5637 1.6576 1.9165
6.5246 1.8037 1.9163
6.4823 1.9488 1.9162
6.4367 2.0930 1.9161
6.3881 2.2362 1.9160
6.3366 2.3783 1.9160
6.2822 2.5193 1.9161
6.2742 2.6803 1.9315
6.2810 2.8507 1.9527
6.2879 3.0250 1.9753
6.2947 3.2033 1.9994
6.3015 3.3860 2.0251
6.3104 3.5747 2.0532
6.2753 3.7424 2.0684
6.1902 3.8816 2.0684
6.1020 4.0189 2.0684
6.0107 4.1542 2.0684
5.9164 4.2874 2.0684
5.8192 4.4185 2.0684
5.7190 4.5474 2.0684
5.6160 4.6740 2.0684
5.5102 4.7982 2.0684
5.4017 4.9201 2.0684
5.2905 5.0395 2.0684
5.1766 5.1564 2.0684
5.0602 5.2707 2.0684
4.9412 5.3824 2.0684
4.8197 5.4914 2.0684
4.6959 5.5977 2.0684
4.5697 5.7012 2.0684
4.4412 5.8018 2.0684
4.3105 5.8996 2.0684
4.1777 5.9944 2.0684
4.0427 6.0862 2.0684
3.9058 6.1750 2.0684
3.7669 6.2607 2.0684
3.6262 6.3432 2.0684
3.4836 6.4226 2.0684
3.3393 6.4988 2.0684
3.1933 6.5718 2.0684
3.0457 6.6415 2.0684
2.8966 6.7078 2.0684
2.7461 6.7709 2.0684
2.5942 6.8305 2.0684
2.4409 6.8867 2.0684
2.2865 6.9395 2.0684
2.1310 6.9889 2.0684
1.9744 7.0347 2.0684
1.8167 7.0771 2.0684
1.6582 7.1159 2.0684
1.4989 7.1511 2.0684
1.3388 7.1828 2.0684
1.1780 7.2110 2.0684
1.0167 7.2355 2.0684
0.8548 7.2564 2.0684
0.6926 7.2737 2.0684
0.5299 7.2873 2.0684
0.3670 7.2973 2.0684
0.2040 7.3037 2.0684
0.0408 7.3064 2.0684
-0.1224 7.3055 2.0684
-0.2855 7.3010 2.0684
-0.4485 7.2928 2.0684
-0.6113 7.2809 2.0684
-0.7737 7.2655 2.0684
-0.9358 7.2464 2.0684
-1.0974 7.2237 2.0684
-1.2585 7.1973 2.0684
-1.4189 7.1674 2.0684
-1.5787 7.1340 2.0684
-1.7376 7.0969 2.0684
-1.8957 7.0563 2.0684
-2.0528 7.0122 2.0684
-2.2089 6.9647 2.0684
-2.3639 6.9136 2.0684
-2.5177 6.8591 2.0684
-2.6703 6.8011 2.0684
-2.8215 6.7398 2.0684
-2.9713 6.6751 2.0684
-3.1197 6.6071 2.0684
-3.2665 6.5357 2.0684
-3.4116 6.4611 2.0684
-3.5551 6.3833 2.0684
-3.6968 6.3023 2.0684
-3.8366 6.2182 2.0684
-3.7743 5.8221 1.9642
-3.8076 5.5956 1.9160
-3.9321 5.5098 1.9162
-4.0550 5.4217 1.9166
-4.1759 5.3308 1.9170
-4.2948 5.2373 1.9174
-4.4115 5.1411 1.9178
-4.5262 5.0423 1.9182
-4.6385 4.9409 1.9185
-4.7486 4.8370 1.9189
-4.8564 4.7306 1.9193
-4.9618 4.6218 1.9196
-5.0647 4.5107 1.9200
-5.1651 4.3972 1.9203
-5.2629 4.2815 1.9207
-5.3582 4.1636 1.9210
-5.4508 4.0436 1.9213
-5.5399 3.9209 1.9214
-5.6261 3.7962 1.9214
-5.7094 3.6696 1.9214
-5.7900 3.5412 1.9214
-5.8676 3.4110 1.9214
-5.9423 3.2791 1.9214
-6.0141 3.1456 1.9214
-6.0828 3.0105 1.9214
-6.1486 2.8739 1.9214
-6.2112 2.7358 1.9214
-6.2011 2.5676 1.9000
-6.1721 2.3955 1.8743
-6.1151 2.2176 1.8415
-6.0924 2.0566 1.8203
-6.1058 1.9103 1.8111
-6.0882 1.7565 1.7938
-6.0739 1.6063 1.7786
-6.0606 1.4588 1.7647
-6.0189 1.3073 1.7436
-6.0095 1.1653 1.7329
-6.0324 1.0305 1.7325
-6.0260 0.8914 1.7245
-6.0219 0.7538 1.7181
-6.0189 0.6172 1.7128
-5.9888 0.4792 1.7008
-5.9899 0.3449 1.6985
-6.0240 0.2120 1.7064
-6.0288 0.0774 1.7069
-6.0356 -0.0573 1.7087
-6.0435 -0.1924 1.7117
-6.0221 -0.3265 1.7073
-6.0324 -0.4624 1.7127
-6.0741 -0.6023 1.7280
-6.0859 -0.7411 1.7356
-6.0984 -0.8812 1.7443
-6.0803 -1.0177 1.7452
-6.0945 -1.1606 1.7563
-6.1406 -1.3122 1.7776
-6.1578 -1.4604 1.7916
-6.1764 -1.6113 1.8070
-6.1977 -1.7656 1.8243
-6.1892 -1.9136 1.8340
-6.2159 -2.0751 1.8551
-6.2796 -2.2534 1.8887
-6.3141 -2.4263 1.9149
-6.2794 -2.5754 1.9214
-6.2203 -2.7150 1.9214
-6.1582 -2.8532 1.9214
-6.0929 -2.9901 1.9214
-6.0246 -3.1254 1.9214
-5.9533 -3.2592 1.9214
-5.8790 -3.3913 1.9214
-5.8018 -3.5218 1.9214
-5.7217 -3.6505 1.9214
-5.6387 -3.7774 1.9214
-5.5530 -3.9024 1.9214
-5.4644 -4.0254 1.9214
-5.3723 -4.1458 1.9210
-5.2774 -4.2640 1.9207
-5.1799 -4.3800 1.9204
-5.0799 -4.4938 1.9200
-4.9774 -4.6053 1.9197
-4.8724 -4.7145 1.9193
-4.7650 -4.8212 1.9190
-4.6553 -4.9255 1.9186
-4.5432 -5.0273 1.9182
-4.4290 -5.1265 1.9179
-4.3125 -5.2232 1.9175
-4.1940 -5.3171 1.9171
-4.0734 -5.4084 1.9168
-3.9508 -5.4969 1.9164
-3.8263 -5.5828 1.9160
-3.7088 -5.6793 1.9202
-3.8254 -6.1538 2.0512
-3.7179 -6.2899 2.0684
-3.5764 -6.3714 2.0684
-3.4332 -6.4497 2.0684
-3.2883 -6.5247 2.0684
-3.1418 -6.5966 2.0684
-2.9937 -6.6651 2.0684
-2.8441 -6.7303 2.0684
-2.6931 -6.7921 2.0684
-2.5407 -6.8506 2.0684
-2.3870 -6.9056 2.0684
-2.2322 -6.9572 2.0684
-2.0763 -7.0053 2.0684
-1.9193 -7.0500 2.0684
-1.7614 -7.0911 2.0684
-1.6025 -7.1286 2.0684
-1.4429 -7.1626 2.0684
-1.2826 -7.1931 2.0684
-1.1216 -7.2199 2.0684
-0.9601 -7.2432 2.0684
-0.7981 -7.2628 2.0684
-0.6357 -7.2788 2.0684
-0.4729 -7.2912 2.0684
-0.3100 -7.3000 2.0684
-0.1469 -7.3051 2.0684
0.0163 -7.3065 2.0684
0.1795 -7.3043 2.0684
0.3426 -7.2985 2.0684
0.5055 -7.2890 2.0684
0.6682 -7.2759 2.0684
0.8305 -7.2592 2.0684
0.9925 -7.2388 2.0684
1.1539 -7.2149 2.0684
1.3147 -7.1873 2.0684
1.4749 -7.1561 2.0684
1.6344 -7.1214 2.0684
1.7930 -7.0831 2.0684
1.9508 -7.0413 2.0684
2.1075 -6.9960 2.0684
2.2633 -6.9472 2.0684
2.4179 -6.8949 2.0684
2.5713 -6.8392 2.0684
2.7234 -6.7800 2.0684
2.8741 -6.7175 2.0684
3.0234 -6.6516 2.0684
3.1712 -6.5825 2.0684
3.3175 -6.5100 2.0684
3.4620 -6.4343 2.0684
3.6049 -6.3553 2.0684
3.7459 -6.2732 2.0684
3.8851 -6.1880 2.0684
4.0223 -6.0997 2.0684
4.1576 -6.0084 2.0684
4.2907 -5.9140 2.0684
4.4217 -5.8167 2.0684
4.5506 -5.7165 2.0684
4.6771 -5.6134 2.0684
4.8013 -5.5076 2.0684
4.9231 -5.3990 2.0684
5.0424 -5.2876 2.0684
5.1593 -5.1737 2.0684
5.2736 -5.0572 2.0684
5.3852 -4.9381 2.0684
5.4941 -4.8166 2.0684
5.6003 -4.6927 2.0684
5.7038 -4.5665 2.0684
5.8001 -4.4348 2.0669
5.8353 -4.2586 2.0451
5.8691 -4.0855 2.0244
5.8990 -3.9136 2.0041
5.9281 -3.7450 1.9850
5.9565 -3.5794 1.9673
5.9824 -3.4154 1.9501
6.0060 -3.2533 1.9337
6.0368 -3.0976 1.9208
6.0893 -2.9546 1.9160
6.1537 -2.8179 1.9160
6.2151 -2.6797 1.9160
6.2734 -2.5402 1.9160
6.3286 -2.3995 1.9160
6.3806 -2.2575 1.9160
6.4294 -2.1145 1.9160
6.4750 -1.9703 1.9160
6.5174 -1.8252 1.9160
6.5566 -1.6792 1.9160
6.5925 -1.5324 1.9160
6.6250 -1.3848 1.9160
6.6543 -1.2364 1.9160
6.6803 -1.0875 1.9160
6.7029 -0.9380 1.9160
6.7222 -0.7881 1.9160
6.7381 -0.6378 1.9160
6.7507 -0.4871 1.9160
6.7599 -0.3362 1.9160
6.7657 -0.1852 1.9160
6.7681 -0.0340 1.9160
6.7708 0.1172 1.9171
6.7665 0.2684 1.9170
6.7587 0.4195 1.9170
6.7476 0.5703 1.9170
6.7330 0.7209 1.9170
6.7150 0.8710 1.9169
6.6937 1.0208 1.9168
6.6690 1.1700 1.9168
6.6409 1.3185 1.9167
6.6095 1.4665 1.9166
6.5747 1.6136 1.9165
6.5367 1.7600 1.9164
6.4953 1.9054 1.9163
6.4507 2.0499 1.9161
6.4030 2.1933 1.9160
6.3524 2.3358 1.9160
6.2986 2.4771 1.9160
6.2765 2.6317 1.9267
6.2790 2.7992 1.9462
6.2858 2.9723 1.9684
6.2926 3.1494 1.9920
6.2994 3.3307 2.0173
6.3073 3.5174 2.0444
6.3003 3.7003 2.0684
6.2161 3.8401 2.0684
6.1287 3.9780 2.0684
6.0384 4.1138 2.0684
5.9450 4.2477 2.0684
5.8486 4.3794 2.0684
5.7494 4.5089 2.0684
5.6472 4.6362 2.0684
5.5423 4.7612 2.0684
5.4345 4.8838 2.0684
5.3241 5.0039 2.0684
5.2110 5.1216 2.0684
5.0953 5.2367 2.0684
4.9771 5.3492 2.0684
4.8564 5.4590 2.0684
4.7333 5.5661 2.0684
4.6078 5.6705 2.0684
4.4800 5.7720 2.0684
4.3500 5.8706 2.0684
4.2177 5.9663 2.0684
4.0834 6.0590 2.0684
3.9471 6.1487 2.0684
3.8088 6.2353 2.0684
3.6686 6.3188 2.0684
3.5265 6.3992 2.0684
3.3827 6.4763 2.0684
3.2372 6.5503 2.0684
3.0901 6.6209 2.0684
2.9415 6.6883 2.0684
2.7914 6.7523 2.0684
2.6399 6.8130 2.0684
2.4870 6.8702 2.0684
2.3330 6.9241 2.0684
2.1778 6.9744 2.0684
2.0214 7.0213 2.0684
1.8641 7.0647 2.0684
1.7059 7.1046 2.0684
1.5468 7.1409 2.0684
1.3869 7.1737 2.0684
1.2263 7.2029 2.0684
1.0651 7.2285 2.0684
0.9034 7.2505 2.0684
0.7413 7.2688 2.0684
0.5788 7.2836 2.0684
0.4159 7.2947 2.0684
0.2529 7.3022 2.0684
0.0898 7.3060 2.0684
-0.0734 7.3062 2.0684
-0.2366 7.3027 2.0684
-0.3996 7.2956 2.0684
-0.5625 7.2849 2.0684
-0.7251 7.2705 2.0684
-0.8873 7.2525 2.0684
-1.0490 7.2309 2.0684
-1.2102 7.2056 2.0684
-1.3709 7.1768 2.0684
-1.5308 7.1444 2.0684
-1.6900 7.1084 2.0684
-1.8483 7.0689 2.0684
-2.0058 7.0258 2.0684
-2.1622 6.9793 2.0684
-2.3175 6.9293 2.0684
-2.4717 6.8758 2.0684
-2.6246 6.8189 2.0684
-2.7763 6.7585 2.0684
-2.9265 6.6948 2.0684
-3.0753 6.6278 2.0684
-3.2226 6.5575 2.0684
-3.3683 6.4839 2.0684
-3.5122 6.4070 2.0684
-3.6545 6.3270 2.0684
-3.7949 6.2438 2.0684
-3.8330 6.0004 2.0157
-3.7700 5.6210 1.9160
-3.8948 5.5357 1.9161
-4.0183 5.4484 1.9165
-4.1398 5.3584 1.9169
-4.2593 5.2656 1.9173
-4.3767 5.1702 1.9177
-4.4920 5.0722 1.9180
-4.6051 4.9716 1.9184
-4.7159 4.8684 1.9188
-4.8243 4.7628 1.9191
-4.9304 4.6547 1.9195
-5.0341 4.5442 1.9199
-5.1352 4.4315 1.9202
-5.2339 4.3165 1.9206
-5.3299 4.1992 1.9209
-5.4233 4.0798 1.9212
-5.5135 3.9580 1.9214
-5.6005 3.8339 1.9214
-5.6847 3.7078 1.9214
-5.7661 3.5799 1.9214
-5.8446 3.4503 1.9214
-5.9202 3.3189 1.9214
-5.9929 3.1858 1.9214
-6.0625 3.0512 1.9214
-6.1292 2.9150 1.9214
-6.1927 2.7774 1.9214
-6.2100 2.6201 1.9081
-6.1807 2.4466 1.8818
-6.1221 2.2666 1.8481
-6.0992 2.1045 1.8265
-6.1112 1.9570 1.8166
-6.0935 1.8023 1.7989
-6.0779 1.6510 1.7830
-6.0646 1.5028 1.7688
-6.0218 1.3502 1.7470
-6.0123 1.2077 1.7360
-6.0343 1.0725 1.7350
-6.0279 0.9330 1.7268
-6.0228 0.7949 1.7198
-6.0198 0.6581 1.7143
-5.9885 0.5196 1.7017
-5.9896 0.3852 1.6991
-6.0225 0.2524 1.7064
-6.0274 0.1178 1.7066
-6.0332 -0.0169 1.7080
-6.0411 -0.1518 1.7107
-6.0191 -0.2859 1.7059
-6.0293 -0.4215 1.7110
-6.0706 -0.5609 1.7259
-6.0824 -0.6993 1.7332
-6.0946 -0.8390 1.7416
-6.1073 -0.9802 1.7511
-6.0902 -1.1176 1.7529
-6.1045 -1.2617 1.7647
-6.1526 -1.4157 1.7873
-6.1701 -1.5656 1.8021
-6.1913 -1.7190 1.8190
-6.1813 -1.8659 1.8279
-6.2078 -2.0262 1.8486
-6.2697 -2.2026 1.8813
-6.3029 -2.3737 1.9067
-6.2966 -2.5333 1.9214
-6.2384 -2.6733 1.9214
-6.1771 -2.8119 1.9214
-6.1128 -2.9492 1.9214
-6.0454 -3.0850 1.9214
-5.9750 -3.2192 1.9214
-5.9016 -3.3519 1.9214
-5.8253 -3.4828 1.9214
-5.7460 -3.6121 1.9214
-5.6639 -3.7395 1.9214
-5.5790 -3.8651 1.9214
-5.4913 -3.9887 1.9214
-5.4002 -4.1099 1.9211
-5.3061 -4.2287 1.9208
-5.2094 -4.3454 1.9205
-5.1102 -4.4599 1.9201
-5.0084 -4.5721 1.9198
-4.9042 -4.6820 1.9194
-4.7975 -4.7894 1.9191
-4.6884 -4.8945 1.9187
-4.5771 -4.9970 1.9184
-4.4635 -5.0970 1.9180
-4.3477 -5.1944 1.9176
-4.2297 -5.2892 1.9172
-4.1098 -5.3813 1.9169
-3.9878 -5.4707 1.9165
-3.8638 -5.5573 1.9161
-3.7386 -5.6419 1.9160
-3.7827 -5.9952 2.0068
-3.7599 -6.2649 2.0684
-3.6191 -6.3473 2.0684
-3.4764 -6.4265 2.0684
-3.3320 -6.5026 2.0684
-3.1859 -6.5754 2.0684
-3.0383 -6.6449 2.0684
-2.8891 -6.7111 2.0684
-2.7385 -6.7739 2.0684
-2.5865 -6.8334 2.0684
-2.4333 -6.8895 2.0684
-2.2788 -6.9421 2.0684
-2.1232 -6.9913 2.0684
-1.9665 -7.0369 2.0684
-1.8088 -7.0791 2.0684
-1.6503 -7.1177 2.0684
-1.4909 -7.1528 2.0684
-1.3308 -7.1843 2.0684
-1.1700 -7.2123 2.0684
-1.0086 -7.2366 2.0684
-0.8467 -7.2573 2.0684
-0.6844 -7.2744 2.0684
-0.5218 -7.2879 2.0684
-0.3589 -7.2977 2.0684
-0.1958 -7.3039 2.0684
-0.0326 -7.3065 2.0684
0.1306 -7.3054 2.0684
0.2937 -7.3006 2.0684
0.4567 -7.2923 2.0684
0.6194 -7.2802 2.0684
0.7819 -7.2646 2.0684
0.9439 -7.2453 2.0684
1.1055 -7.2224 2.0684
1.2665 -7.1959 2.0684
1.4269 -7.1658 2.0684
1.5866 -7.1322 2.0684
1.7455 -7.0950 2.0684
1.9035 -7.0542 2.0684
2.0606 -7.0100 2.0684
2.2167 -6.9622 2.0684
2.3716 -6.9109 2.0684
2.5254 -6.8562 2.0684
2.6779 -6.7981 2.0684
2.8291 -6.7366 2.0684
2.9788 -6.6718 2.0684
3.1271 -6.6036 2.0684
3.2738 -6.5321 2.0684
3.4188 -6.4573 2.0684
3.5622 -6.3794 2.0684
3.7038 -6.2982 2.0684
3.8435 -6.2139 2.0684
3.9814 -6.1265 2.0684
4.1172 -6.0361 2.0684
4.2510 -5.9426 2.0684
4.3827 -5.8462 2.0684
4.5121 -5.7468 2.0684
4.6394 -5.6446 2.0684
4.7643 -5.5396 2.0684
4.8868 -5.4318 2.0684
5.0069 -5.3213 2.0684
5.1245 -5.2082 2.0684
5.2396 -5.0924 2.0684
5.3520 -4.9741 2.0684
5.4617 -4.8533 2.0684
5.5688 -4.7301 2.0684
5.6730 -4.6046 2.0684
5.7745 -4.4768 2.0684
5.8249 -4.3110 2.0515
5.8594 -4.1373 2.0306
5.8901 -3.9648 2.0100
5.9194 -3.7953 1.9906
5.9481 -3.6288 1.9725
5.9752 -3.4646 1.9553
5.9990 -3.3016 1.9385
6.0273 -3.1439 1.9244
6.0693 -2.9953 1.9160
6.1347 -2.8590 1.9160
6.1970 -2.7213 1.9160
6.2563 -2.5822 1.9160
6.3124 -2.4418 1.9160
6.3653 -2.3002 1.9160
6.4151 -2.1575 1.9160
6.4617 -2.0137 1.9160
6.5051 -1.8689 1.9160
6.5452 -1.7231 1.9160
6.5820 -1.5765 1.9160
6.6156 -1.4291 1.9160
6.6459 -1.2810 1.9160
6.6728 -1.1322 1.9160
6.6964 -0.9829 1.9160
6.7167 -0.8331 1.9160
6.7337 -0.6829 1.9160
6.7472 -0.5323 1.9160
6.7574 -0.3815 1.9160
6.7643 -0.2305 1.9160
6.7677 -0.0794 1.9160
6.7715 0.0718 1.9171
6.7681 0.2231 1.9171
6.7614 0.3742 1.9170
6.7513 0.5251 1.9170
6.7377 0.6757 1.9170
6.7208 0.8260 1.9169
6.7004 0.9759 1.9169
6.6768 1.1252 1.9168
6.6497 1.2740 1.9167
6.6193 1.4222 1.9166
6.5855 1.5696 1.9165
6.5484 1.7162 1.9164
6.5081 1.8619 1.9163
6.4644 2.0066 1.9162
6.4175 2.1504 1.9160
6.3679 2.2932 1.9160
6.3151 2.4348 1.9160
6.2790 2.5834 1.9221
6.2769 2.7480 1.9398
6.2838 2.9200 1.9616
6.2906 3.0958 1.9848
6.2974 3.2759 2.0095
6.3042 3.4605 2.0359
6.3146 3.6520 2.0651
6.2417 3.7983 2.0684
6.1553 3.9368 2.0684
6.0658 4.0733 2.0684
5.9733 4.2077 2.0684
5.8778 4.3401 2.0684
5.7794 4.4703 2.0684
5.6782 4.5983 2.0684
5.5740 4.7239 2.0684
5.4671 4.8473 2.0684
5.3575 4.9681 2.0684
5.2451 5.0866 2.0684
5.1303 5.2024 2.0684
5.0129 5.3157 2.0684
4.8929 5.4264 2.0684
4.7705 5.5343 2.0684
4.6457 5.6395 2.0684
4.5186 5.7418 2.0684
4.3892 5.8413 2.0684
4.2576 5.9379 2.0684
4.1239 6.0315 2.0684
3.9882 6.1221 2.0684
3.8505 6.2096 2.0684
3.7108 6.2941 2.0684
3.5693 6.3754 2.0684
3.4260 6.4535 2.0684
3.2811 6.5284 2.0684
3.1344 6.6001 2.0684
2.9862 6.6684 2.0684
2.8366 6.7335 2.0684
2.6855 6.7951 2.0684
2.5330 6.8534 2.0684
2.3793 6.9083 2.0684
2.2245 6.9597 2.0684
2.0685 7.0076 2.0684
1.9114 7.0521 2.0684
1.7534 7.0930 2.0684
1.5946 7.1304 2.0684
1.4349 7.1643 2.0684
1.2746 7.1945 2.0684
1.1136 7.2212 2.0684
0.9520 7.2443 2.0684
0.7900 7.2637 2.0684
0.6276 7.2795 2.0684
0.4648 7.2917 2.0684
0.3018 7.3003 2.0684
0.1387 7.3052 2.0684
-0.0245 7.3065 2.0684
-0.1877 7.3041 2.0684
-0.3508 7.2981 2.0684
-0.5137 7.2885 2.0684
-0.6763 7.2752 2.0684
-0.8386 7.2583 2.0684
-1.0005 7.2377 2.0684
-1.1619 7.2136 2.0684
-1.3228 7.1858 2.0684
-1.4829 7.1545 2.0684
-1.6423 7.1196 2.0684
-1.8009 7.0811 2.0684
-1.9586 7.0391 2.0684
-2.1154 6.9936 2.0684
-2.2710 6.9446 2.0684
-2.4256 6.8922 2.0684
-2.5789 6.8363 2.0684
-2.7309 6.7770 2.0684
-2.8816 6.7143 2.0684
-3.0309 6.6483 2.0684
-3.1786 6.5789 2.0684
-3.3247 6.5063 2.0684
-3.4692 6.4304 2.0684
-3.6120 6.3513 2.0684
-3.7529 6.2691 2.0684
-3.8920 6.1837 2.0684
-3.7323 5.6461 1.9160
-3.8632 5.5697 1.9189
-3.9815 5.4749 1.9164
-4.1036 5.3857 1.9168
-4.2237 5.2937 1.9172
-4.3417 5.1991 1.9176
-4.4577 5.1019 1.9179
-4.5714 5.0020 1.9183
-4.6829 4.8996 1.9187
-4.7920 4.7947 1.9190
-4.8988 4.6874 1.9194
-5.0032 4.5776 1.9198
-5.1051 4.4655 1.9201
-5.2045 4.3512 1.9205
-5.3014 4.2346 1.9208
-5.3955 4.1159 1.9211
-5.4868 3.9948 1.9214
-5.5747 3.8713 1.9214
-5.6597 3.7458 1.9214
-5.7420 3.6185 1.9214
-5.8214 3.4893 1.9214
-5.8979 3.3585 1.9214
-5.9714 3.2259 1.9214
-6.0420 3.0917 1.9214
-6.1095 2.9560 1.9214
-6.1740 2.8188 1.9214
-6.2206 2.6738 1.9168
-6.1894 2.4982 1.8895
-6.1290 2.3160 1.8548
-6.1060 2.1527 1.8328
-6.1166 2.0040 1.8221
-6.0988 1.8484 1.8041
-6.0819 1.6960 1.7874
-6.0686 1.5470 1.7729
-6.0246 1.3933 1.7505
-6.0151 1.2503 1.7392
-6.0057 1.1090 1.7289
-6.0298 0.9747 1.7292
-6.0237 0.8361 1.7216
-6.0207 0.6990 1.7159
-5.9882 0.5600 1.7026
-5.9893 0.4255 1.6998
-6.0211 0.2927 1.7065
-6.0259 0.1582 1.7065
-6.0308 0.0236 1.7073
-6.0387 -0.1113 1.7098
-6.0467 -0.2466 1.7132
-6.0262 -0.3808 1.7094
-6.0365 -0.5170 1.7151
-6.0788 -0.6577 1.7309
-6.0908 -0.7970 1.7390
-6.1035 -0.9377 1.7481
-6.0859 -1.0747 1.7495
-6.1002 -1.2183 1.7610
-6.1474 -1.3712 1.7831
-6.1647 -1.5203 1.7975
-6.1849 -1.6727 1.8138
-6.2063 -1.8282 1.8316
-6.1998 -1.9778 1.8423
-6.2600 -2.1521 1.8740
-6.2929 -2.3219 1.8989
-6.3134 -2.4910 1.9214
-6.2562 -2.6314 1.9214
-6.1958 -2.7705 1.9214
-6.1324 -2.9082 1.9214
-6.0659 -3.0444 1.9214
-5.9964 -3.1791 1.9214
-5.9239 -3.3122 1.9214
-5.8485 -3.4437 1.9214
-5.7701 -3.5735 1.9214
-5.6889 -3.7015 1.9214
-5.6048 -3.8276 1.9214
-5.5179 -3.9518 1.9214
-5.4279 -4.0738 1.9212
-5.3346 -4.1933 1.9209
-5.2387 -4.3106 1.9206
-5.1403 -4.4258 1.9202
-5.0392 -4.5387 1.9199
-4.9357 -4.6493 1.9195
-4.8297 -4.7575 1.9192
-4.7214 -4.8632 1.9188
-4.6107 -4.9665 1.9185
-4.4978 -5.0673 1.9181
-4.3826 -5.1655 1.9177
-4.2653 -5.2611 1.9174
-4.1460 -5.3540 1.9170
-4.0246 -5.4441 1.9166
-3.9012 -5.5316 1.9162
-3.7763 -5.6168 1.9160
-3.7418 -5.8433 1.9643
-3.8018 -6.2395 2.0684
-3.6615 -6.3229 2.0684
-3.5194 -6.4031 2.0684
-3.3755 -6.4801 2.0684
-3.2299 -6.5539 2.0684
-3.0827 -6.6244 2.0684
-2.9340 -6.6916 2.0684
-2.7838 -6.7554 2.0684
-2.6323 -6.8159 2.0684
-2.4794 -6.8730 2.0684
-2.3252 -6.9267 2.0684
-2.1700 -6.9769 2.0684
-2.0136 -7.0236 2.0684
-1.8562 -7.0668 2.0684
-1.6979 -7.1065 2.0684
-1.5388 -7.1427 2.0684
-1.3789 -7.1752 2.0684
-1.2183 -7.2043 2.0684
-1.0571 -7.2297 2.0684
-0.8953 -7.2515 2.0684
-0.7332 -7.2697 2.0684
-0.5706 -7.2842 2.0684
-0.4078 -7.2952 2.0684
-0.2447 -7.3024 2.0684
-0.0816 -7.3061 2.0684
0.0816 -7.3061 2.0684
0.2448 -7.3024 2.0684
0.4078 -7.2952 2.0684
0.5706 -7.2842 2.0684
0.7332 -7.2697 2.0684
0.8954 -7.2515 2.0684
1.0571 -7.2297 2.0684
1.2183 -7.2043 2.0684
1.3789 -7.1753 2.0684
1.5388 -7.1427 2.0684
1.6979 -7.1065 2.0684
1.8562 -7.0668 2.0684
2.0136 -7.0236 2.0684
2.1700 -6.9769 2.0684
2.3253 -6.9267 2.0684
2.4794 -6.8730 2.0684
2.6323 -6.8159 2.0684
2.7838 -6.7554 2.0684
2.9340 -6.6916 2.0684
3.0827 -6.6244 2.0684
3.2299 -6.5539 2.0684
3.3755 -6.4801 2.0684
3.5194 -6.4031 2.0684
3.6615 -6.3229 2.0684
3.8018 -6.2395 2.0684
3.9402 -6.1531 2.0684
4.0767 -6.0635 2.0684
4.2111 -5.9710 2.0684
4.3434 -5.8754 2.0684
4.4735 -5.7769 2.0684
4.6014 -5.6756 2.0684
4.7270 -5.5714 2.0684
4.8503 -5.4644 2.0684
4.9711 -5.3548 2.0684
5.0895 -5.2424 2.0684
5.2053 -5.1274 2.0684
5.3185 -5.0099 2.0684
5.4291 -4.8898 2.0684
5.5369 -4.7674 2.0684
5.6420 -4.6425 2.0684
5.7443 -4.5153 2.0684
5.8143 -4.3638 2.0580
