ply
format ascii 1.0
element vertex 2049
property float32 x
property float32 y
property float32 z
end_header
8.6747 -6.4805 -0.1829
8.9126 -6.3530 -0.1849
9.1557 -6.2226 -0.1870
9.4046 -6.0892 -0.1893
9.6597 -5.9525 -0.1917
9.9215 -5.8122 -0.1942
10.1905 -5.6679 -0.1970
10.4674 -5.5195 -0.1999
10.7527 -5.3666 -0.2030
11.0473 -5.2087 -0.2063
11.3517 -5.0455 -0.2098
11.6669 -4.8765 -0.2136
11.9938 -4.7013 -0.2176
11.8810 -4.3535 -0.2137
11.6850 -3.9880 -0.2086
11.4983 -3.6397 -0.2037
11.3199 -3.3069 -0.1992
11.1493 -2.9886 -0.1950
10.9856 -2.6832 -0.1910
10.8283 -2.3898 -0.1873
10.6770 -2.1075 -0.1838
10.5311 -1.8354 -0.1806
10.3903 -1.5726 -0.1775
10.2540 -1.3184 -0.1746
10.1221 -1.0723 -0.1719
9.9940 -0.8334 -0.1694
9.8697 -0.6015 -0.1670
9.7487 -0.3758 -0.1648
9.6309 -0.1560 -0.1627
9.5159 0.0585 -0.1607
9.4037 0.2679 -0.1589
9.2939 0.4727 -0.1572
9.7015 0.7110 -0.1643
10.1972 0.9767 -0.1730
10.7488 1.2724 -0.1828
11.3670 1.6037 -0.1939
12.0652 1.9780 -0.2065
12.8609 2.4045 -0.2210
13.7772 2.8957 -0.2378
14.8450 3.4681 -0.2575
16.1063 4.1442 -0.2809
32.3539 9.0999 -0.5677
31.9923 9.7743 -0.5651
31.6340 10.4428 -0.5627
31.2784 11.1061 -0.5607
30.9253 11.7649 -0.5589
34.5824 14.0482 -0.6305
42.8292 23.2612 -0.8233
31.2698 20.7962 -0.6343
14.1128 37.6656 -0.6794
13.2520 37.9255 -0.6786
12.3929 38.1850 -0.6781
11.5345 38.4443 -0.6780
3.9988 14.4965 -0.2540
8.9066 35.3505 -0.6158
8.1095 35.5172 -0.6154
7.3130 35.6837 -0.6153
6.5164 35.8502 -0.6155
5.7188 36.0169 -0.6160
3.8685 28.4537 -0.4851
3.2600 28.7792 -0.4892
3.3127 36.5199 -0.6194
2.5034 36.6891 -0.6212
1.6890 36.8593 -0.6233
0.7879 33.5893 -0.5675
0.0459 41.1168 -0.6945
-0.8767 41.3097 -0.6980
-1.8090 41.5046 -0.7018
-1.9457 29.4859 -0.4992
-3.7066 41.9013 -0.7106
-4.6743 42.1035 -0.7156
-5.6563 42.3088 -0.7210
-6.6539 42.5174 -0.7269
-7.6685 42.7294 -0.7333
-9.5785 47.2736 -0.8148
-6.9232 30.6365 -0.5306
-10.9889 44.0293 -0.7665
-12.0467 44.0552 -0.7715
-13.1816 44.2924 -0.7806
-14.3442 44.5355 -0.7903
-15.5366 44.7847 -0.8007
-11.9267 32.0489 -0.5776
-18.0215 45.3042 -0.8236
-19.3193 45.5755 -0.8362
-18.3447 10.5549 -0.3575
-16.4786 8.9974 -0.3171
-16.7244 8.6524 -0.3181
-16.9717 8.3053 -0.3192
-17.2209 7.9555 -0.3204
-17.4723 7.6028 -0.3219
-17.7260 7.2468 -0.3235
-17.9823 6.8871 -0.3253
-18.2418 6.5231 -0.3272
-18.5044 6.1544 -0.3294
-18.7708 5.7807 -0.3318
-45.9861 13.0450 -0.8074
-45.8998 11.9196 -0.8010
-13.4337 3.1700 -0.2332
-13.2343 2.8125 -0.2285
-13.0426 2.4687 -0.2242
-12.8579 2.1374 -0.2202
-12.6795 1.8178 -0.2164
-12.5072 1.5088 -0.2128
-12.3403 1.2097 -0.2094
-12.1785 0.9198 -0.2063
-12.4351 0.6603 -0.2103
-12.9170 0.3968 -0.2183
-13.4367 0.1125 -0.2270
-14.0003 -0.1955 -0.2365
-20.2262 -0.7345 -0.3419
-13.6097 -2.9718 -0.2353
-13.5193 -3.2701 -0.2350
-13.4291 -3.5675 -0.2347
-13.3391 -3.8646 -0.2346
-13.2491 -4.1614 -0.2346
-13.1809 -4.4658 -0.2351
-13.1713 -4.7931 -0.2368
-13.1616 -5.1253 -0.2386
-13.1518 -5.4628 -0.2406
-13.1418 -5.8061 -0.2427
-13.2220 -6.1981 -0.2467
-13.3212 -6.6114 -0.2512
-13.4242 -7.0404 -0.2561
-13.6096 -7.5299 -0.2627
-13.9273 -8.1171 -0.2723
-14.3786 -8.8162 -0.2849
-29.7826 -38.1075 -0.8170
-29.0826 -38.9753 -0.8214
-25.4773 -35.7842 -0.7423
-23.8052 -35.0678 -0.7159
-22.0797 -34.1429 -0.6868
-20.4883 -33.2898 -0.6603
-19.1525 -32.7354 -0.6406
-18.6766 -33.6232 -0.6497
-18.1869 -34.5368 -0.6593
-17.6821 -35.4785 -0.6696
-17.1611 -36.4504 -0.6805
-16.6226 -37.4551 -0.6922
-16.0831 -38.5388 -0.7054
-15.3592 -39.2484 -0.7119
-14.7934 -40.4417 -0.7274
-14.1435 -41.5164 -0.7409
-13.4971 -42.7222 -0.7568
-12.8480 -44.0709 -0.7754
-12.1154 -45.2999 -0.7921
-11.5285 -47.3155 -0.8226
25.1524 -37.7742 -0.7666
21.0753 -30.1680 -0.6216
19.5568 -26.7036 -0.5591
16.2732 -21.2096 -0.4516
14.7374 -18.3446 -0.3975
13.5297 -16.0915 -0.3551
12.5541 -14.2716 -0.3211
11.7489 -12.7694 -0.2931
11.0724 -11.5074 -0.2697
10.4955 -10.4312 -0.2500
9.9972 -9.5017 -0.2330
9.5622 -8.6900 -0.2183
9.1786 -7.9745 -0.2054
8.8376 -7.3384 -0.1940
8.5322 -6.7686 -0.1840
8.6044 -6.5182 -0.1823
8.8407 -6.3915 -0.1843
9.0822 -6.2620 -0.1863
9.3293 -6.1296 -0.1886
9.5825 -5.9939 -0.1909
9.8422 -5.8546 -0.1934
10.1090 -5.7116 -0.1961
10.3834 -5.5645 -0.1990
10.6662 -5.4130 -0.2020
10.9579 -5.2566 -0.2053
11.2593 -5.0950 -0.2088
11.5712 -4.9279 -0.2124
11.8944 -4.7546 -0.2164
11.9417 -4.4668 -0.2154
11.7428 -4.0958 -0.2101
11.5534 -3.7425 -0.2051
11.3726 -3.4052 -0.2005
11.1997 -3.0826 -0.1962
11.0340 -2.7735 -0.1922
10.8749 -2.4766 -0.1884
10.7218 -2.1911 -0.1849
10.5743 -1.9160 -0.1815
10.4320 -1.6504 -0.1784
10.2944 -1.3938 -0.1755
10.1612 -1.1453 -0.1727
10.0320 -0.9043 -0.1701
9.9066 -0.6704 -0.1677
9.7847 -0.4429 -0.1655
9.6659 -0.2213 -0.1633
9.5501 -0.0053 -0.1613
9.4371 0.2056 -0.1594
9.3266 0.4117 -0.1577
9.5623 0.6364 -0.1619
10.0430 0.8940 -0.1703
10.5768 1.1802 -0.1798
11.1738 1.5002 -0.1904
11.8463 1.8607 -0.2026
12.6107 2.2705 -0.2164
13.4881 2.7408 -0.2325
14.5066 3.2867 -0.2513
15.7046 3.9289 -0.2735
17.1355 4.6959 -0.3001
32.1004 9.5727 -0.5658
31.7411 10.2429 -0.5634
31.3848 10.9077 -0.5612
31.0310 11.5677 -0.5594
32.6254 12.9991 -0.5932
15.6046 12.3509 -0.3362
14.3713 37.5874 -0.6797
13.5101 37.8476 -0.6788
12.6505 38.1072 -0.6782
11.7921 38.3665 -0.6780
10.9338 38.6258 -0.6781
3.7719 14.5582 -0.2540
8.3485 35.4672 -0.6155
7.5520 35.6337 -0.6153
6.7555 35.8002 -0.6154
5.9583 35.9669 -0.6158
5.1596 36.1338 -0.6166
3.4193 28.4775 -0.4845
3.5546 36.4693 -0.6190
2.7466 36.6382 -0.6206
1.9338 36.8082 -0.6226
1.1153 36.9792 -0.6249
0.2903 37.1517 -0.6276
-0.5991 41.2517 -0.6969
-1.5283 41.4459 -0.7006
-1.7499 29.5266 -0.4996
-3.4188 41.8411 -0.7091
-4.3825 42.0425 -0.7140
-5.3600 42.2469 -0.7193
-6.3528 42.4544 -0.7251
-7.3621 42.6654 -0.7313
-8.3895 42.8802 -0.7381
-6.6912 30.5610 -0.5285
-10.8440 44.7225 -0.7773
-11.7112 43.9851 -0.7689
-12.8382 44.2207 -0.7778
-13.9923 44.4619 -0.7874
-15.1757 44.7093 -0.7975
-16.3907 44.9633 -0.8084
-12.3832 31.7476 -0.5756
-18.9259 45.4932 -0.8323
-34.4017 24.4641 -0.7131
-19.5650 11.4322 -0.3828
-16.4051 9.1005 -0.3169
-16.6504 8.7561 -0.3178
-16.8973 8.4097 -0.3188
-17.1459 8.0608 -0.3200
-17.3966 7.7090 -0.3214
-17.6496 7.3540 -0.3230
-17.9052 6.9954 -0.3247
-18.1636 6.6327 -0.3266
-18.4253 6.2655 -0.3287
-18.6905 5.8934 -0.3310
-46.0280 13.3907 -0.8097
-45.9189 12.2535 -0.8028
-13.4950 3.2801 -0.2346
-13.2933 2.9182 -0.2299
-13.0994 2.5705 -0.2255
-12.9126 2.2356 -0.2214
-12.7324 1.9125 -0.2175
-12.5583 1.6005 -0.2138
-12.3898 1.2985 -0.2104
-12.2265 1.0059 -0.2072
-12.2972 0.7356 -0.2081
-12.7686 0.4779 -0.2158
-13.2765 0.2002 -0.2243
-13.8263 -0.1004 -0.2336
-19.9475 -0.5906 -0.3371
-20.9084 -1.0868 -0.3537
-13.5464 -3.1807 -0.2350
-13.4562 -3.4783 -0.2348
-13.3661 -3.7755 -0.2346
-13.2761 -4.0723 -0.2346
-13.1861 -4.3693 -0.2346
-13.1742 -4.6944 -0.2362
-13.1646 -5.0250 -0.2380
-13.1548 -5.3609 -0.2400
-13.1448 -5.7024 -0.2420
-13.1929 -6.0769 -0.2454
-13.2910 -6.4858 -0.2498
-13.3929 -6.9100 -0.2546
-13.5187 -7.3617 -0.2600
-13.8296 -7.9366 -0.2693
-14.1638 -8.5545 -0.2795
-15.0875 -9.5787 -0.3019
-30.7280 -38.7787 -0.8357
-29.2520 -38.6594 -0.8189
-28.6830 -39.7209 -0.8276
-24.3516 -35.3607 -0.7252
-22.5823 -34.4123 -0.6953
-20.9525 -33.5387 -0.6680
-19.3520 -32.5738 -0.6400
-18.8207 -33.3543 -0.6469
-18.3353 -34.2600 -0.6564
-17.8352 -35.1928 -0.6665
-17.3193 -36.1554 -0.6772
-16.7861 -37.1500 -0.6886
-16.4771 -38.7500 -0.7113
-15.5336 -38.9231 -0.7079
-14.8946 -39.8876 -0.7192
-14.3322 -41.1644 -0.7363
-13.6940 -42.3550 -0.7519
-13.0541 -43.6863 -0.7702
-12.3309 -44.8979 -0.7865
-4.5006 -24.9184 -0.4277
26.7755 -40.8020 0.2748
25.5487 -37.0989 0.2536
19.3595 -26.8094 0.1862
20.0184 -26.4562 0.1868
16.3258 -20.6031 0.1480
14.2064 -17.1281 0.1253
14.5803 -16.8007 0.1252
13.6127 -14.9956 0.1140
12.8038 -13.4866 0.1047
12.1170 -12.2052 0.0968
11.5258 -11.1025 0.0901
11.0113 -10.1426 0.0843
10.5589 -9.2987 0.0792
8.9359 -7.5218 0.0658
8.6205 -6.9333 0.0623
8.5344 -6.5557 0.0606
8.7693 -6.4298 0.0612
9.0091 -6.3012 0.0619
9.2545 -6.1697 0.0626
9.5058 -6.0350 0.0634
9.7635 -5.8968 0.0642
10.0282 -5.7550 0.0651
10.3003 -5.6091 0.0660
10.5805 -5.4589 0.0670
10.8694 -5.3040 0.0681
11.1678 -5.1441 0.0692
11.4764 -4.9786 0.0704
11.7962 -4.8072 0.0717
12.0033 -4.5818 0.0723
11.8015 -4.2052 0.0705
11.6093 -3.8468 0.0689
11.4260 -3.5048 0.0673
11.2508 -3.1780 0.0658
11.0830 -2.8649 0.0645
10.9219 -2.5645 0.0632
10.7671 -2.2756 0.0620
10.6180 -1.9975 0.0608
10.4742 -1.7292 0.0598
10.3352 -1.4699 0.0588
10.2007 -1.2190 0.0578
10.0704 -0.9759 0.0570
9.9439 -0.7399 0.0561
9.8209 -0.5105 0.0554
9.7012 -0.2872 0.0546
9.5846 -0.0696 0.0540
9.4707 0.1428 0.0533
9.3595 0.3503 0.0527
9.4272 0.5639 0.0532
11.5646 0.9514 0.0653
12.1689 1.2753 0.0689
12.8431 1.6367 0.0729
13.6009 2.0430 0.0774
14.4599 2.5034 0.0826
15.4122 3.0243 0.0884
15.2399 3.3456 0.0878
15.3234 3.7245 0.0888
17.1202 4.5685 0.0998
32.2089 9.3704 0.1889
31.8487 10.0424 0.1880
31.4915 10.7087 0.1873
31.1369 11.3701 0.1866
30.8871 12.0673 0.1867
38.6263 16.0944 0.2356
39.3233 25.3987 0.2636
15.6491 12.2164 0.1118
14.6304 37.5092 0.2267
13.7682 37.7696 0.2263
12.9082 38.0294 0.2261
12.0496 38.2887 0.2260
11.1913 38.5480 0.2260
3.8443 14.4385 0.0841
8.5877 35.4172 0.2052
7.7909 35.5838 0.2051
6.9945 35.7503 0.2051
6.1976 35.9168 0.2052
5.3995 36.0837 0.2054
3.6028 28.3964 0.1612
3.7963 36.4188 0.2062
2.9895 36.5875 0.2067
2.1782 36.7570 0.2073
1.3616 36.9278 0.2081
0.5387 37.0998 0.2089
-0.3289 42.0760 0.2369
-1.2484 41.3874 0.2331
-1.5601 29.6951 0.1674
-2.2206 29.6216 0.1672
-4.0920 41.9818 0.2375
-5.0652 42.1853 0.2392
-6.0533 42.3918 0.2411
-7.0575 42.6017 0.2431
-8.0793 42.8153 0.2453
-6.4888 30.6171 0.1762
-10.6949 45.4354 0.2628
-11.6194 44.8467 0.2608
-12.6050 44.5298 0.2605
-13.6430 44.3889 0.2615
-14.8174 44.6344 0.2648
-16.0226 44.8863 0.2683
-12.1510 31.7800 0.1916
-18.5359 45.4117 0.2762
-19.8496 45.6863 0.2804
-14.2164 24.7403 0.1607
-17.2692 9.7318 0.1116
-16.5651 8.8535 0.1058
-16.8113 8.5079 0.1061
-17.0591 8.1600 0.1065
-17.3089 7.8094 0.1069
-17.5609 7.4556 0.1074
-17.8155 7.0983 0.1080
-18.0728 6.7371 0.1086
-18.3332 6.3716 0.1093
-18.5970 6.0012 0.1100
-46.0703 13.7386 0.2707
-45.9470 12.5915 0.2682
-13.5501 3.3899 0.0786
-13.3462 3.0238 0.0770
-13.1502 2.6721 0.0756
-12.9616 2.3336 0.0741
-12.7797 2.0073 0.0728
-12.6040 1.6922 0.0716
-12.4340 1.3874 0.0704
-12.2694 1.0922 0.0694
-12.6898 0.8445 0.0716
-13.1921 0.5823 0.0743
-13.7348 0.2992 0.0773
-17.9372 -0.0100 0.1010
-18.7084 -0.4284 0.1054
-19.5498 -0.8849 0.1102
-20.4722 -1.3853 0.1155
-13.5735 -3.0912 0.0784
-13.4832 -3.3891 0.0783
-13.3931 -3.6864 0.0782
-13.3031 -3.9833 0.0782
-13.2131 -4.2801 0.0782
-13.1771 -4.5961 0.0786
-13.1675 -4.9253 0.0792
-13.1577 -5.2596 0.0798
-13.1478 -5.5993 0.0805
-13.1641 -5.9570 0.0814
-13.2612 -6.3615 0.0828
-13.3619 -6.7810 0.0844
-13.4665 -7.2167 0.0860
-13.7340 -7.7598 0.0888
-14.0609 -8.3642 0.0921
-14.7735 -9.2410 0.0981
-29.4204 -38.3451 0.2721
-28.8550 -39.3999 0.2750
-24.8493 -35.5706 0.2443
-23.0977 -34.6886 0.2346
-21.4281 -33.7936 0.2253
-19.7179 -32.6887 0.2149
-18.9638 -33.0875 0.2147
-18.4825 -33.9854 0.2178
-17.9869 -34.9099 0.2211
-17.4758 -35.8634 0.2246
-16.9479 -36.8481 0.2284
-16.8776 -38.9646 0.2391
-15.7059 -38.6016 0.2346
-15.1237 -39.6877 0.2391
-14.5185 -40.8167 0.2439
-13.8883 -41.9925 0.2490
-13.2307 -43.2192 0.2545
-12.5433 -44.5015 0.2603
-4.6685 -24.8926 0.1426
-7.7455 -47.0808 0.2686
26.9182 -39.6538 0.2698
21.2833 -29.8935 0.2066
19.8203 -26.5624 0.1866
16.1683 -20.6876 0.1478
14.2213 -17.3818 0.1264
14.5203 -16.9598 0.1257
13.8843 -15.5022 0.1172
13.0322 -13.9128 0.1073
12.3119 -12.5690 0.0991
11.6944 -11.4169 0.0920
11.1586 -10.4173 0.0859
10.6888 -9.5410 0.0807
10.2733 -8.7658 0.0760
8.7115 -7.1032 0.0633
8.4649 -6.5929 0.0604
8.6983 -6.4678 0.0610
8.9366 -6.3401 0.0617
9.1803 -6.2094 0.0624
9.4298 -6.0757 0.0632
9.6855 -5.9386 0.0640
9.9480 -5.7979 0.0648
10.2178 -5.6533 0.0657
10.4955 -5.5044 0.0667
10.7818 -5.3510 0.0678
11.0772 -5.1926 0.0689
11.3827 -5.0289 0.0701
11.6991 -4.8593 0.0713
12.0271 -4.6834 0.0727
11.8609 -4.3162 0.0711
11.6660 -3.9525 0.0693
11.4801 -3.6058 0.0677
11.3026 -3.2745 0.0663
11.1326 -2.9574 0.0649
10.9696 -2.6533 0.0635
10.8129 -2.3611 0.0623
10.6622 -2.0799 0.0612
10.5168 -1.8087 0.0601
10.3764 -1.5468 0.0591
10.2406 -1.2935 0.0581
10.1091 -1.0481 0.0572
9.9815 -0.8100 0.0564
9.8575 -0.5786 0.0556
9.7368 -0.3536 0.0549
9.6193 -0.1343 0.0542
9.5046 0.0796 0.0535
9.3926 0.2886 0.0529
9.2960 0.4936 0.0524
9.7487 0.7363 0.0550
11.9808 1.1745 0.0678
12.6327 1.5240 0.0716
13.3638 1.9159 0.0760
14.1904 2.3589 0.0810
15.1333 2.8644 0.0867
15.2914 3.2497 0.0880
15.1207 3.5681 0.0875
17.1779 4.4609 0.0999
32.3176 9.1676 0.1891
31.9564 9.8414 0.1883
31.5983 10.5094 0.1875
31.2430 11.1722 0.1868
30.8901 11.8306 0.1862
36.6796 14.9956 0.2231
42.8337 23.3876 0.2748
31.2360 20.8744 0.2115
14.0266 37.6916 0.2264
13.1660 37.9515 0.2262
12.3070 38.2110 0.2260
11.4488 38.4702 0.2260
3.9484 14.4395 0.0842
8.8269 35.3672 0.2052
8.0299 35.5338 0.2051
7.2334 35.7003 0.2051
6.4368 35.8668 0.2052
5.6391 36.0336 0.2053
3.7989 28.4164 0.1614
4.0375 36.3684 0.2060
3.2320 36.5368 0.2065
2.4222 36.7061 0.2071
1.6072 36.8764 0.2078
0.7137 33.6320 0.1894
-0.0470 42.0171 0.2366
-0.9695 41.3291 0.2328
-1.9027 41.5242 0.2340
-2.0129 29.5017 0.1665
-3.8027 41.9214 0.2370
-4.7718 42.1239 0.2387
-5.7552 42.3295 0.2405
-6.7545 42.5384 0.2425
-7.7708 42.7508 0.2446
-6.3157 30.8170 0.1771
-7.0139 30.7188 0.1774
-11.0471 43.8463 0.2546
-12.4167 45.0134 0.2629
-13.2964 44.3164 0.2605
-14.4619 44.5601 0.2638
-15.6577 44.8100 0.2672
-11.9673 31.9395 0.1920
-18.1495 45.3309 0.2749
-19.4512 45.6030 0.2791
-18.3358 10.4953 0.1189
-16.4915 8.9567 0.1057
-16.7373 8.6118 0.1060
-16.9846 8.2647 0.1063
-17.2338 7.9149 0.1068
-17.4851 7.5621 0.1073
-17.7388 7.2059 0.1078
-17.9953 6.8459 0.1084
-18.2547 6.4817 0.1091
-18.5175 6.1129 0.1098
-18.7839 5.7389 0.1106
-45.9752 12.9310 0.2689
-13.6130 3.5027 0.0791
-13.4065 3.1320 0.0775
-13.2082 2.7762 0.0760
-13.0174 2.4338 0.0746
-12.8336 2.1040 0.0732
-12.6561 1.7856 0.0720
-12.4844 1.4778 0.0708
-12.3182 1.1798 0.0697
-12.5463 0.9194 0.0708
-13.0374 0.6631 0.0735
-13.5674 0.3865 0.0764
-14.1421 0.0869 0.0796
-18.4702 -0.2991 0.1040
-19.2894 -0.7436 0.1087
-20.1862 -1.2302 0.1139
-13.6007 -3.0017 0.0784
-13.5103 -3.2998 0.0783
-13.4201 -3.5973 0.0782
-13.3301 -3.8942 0.0782
-13.2401 -4.1911 0.0782
-13.1799 -4.4983 0.0784
-13.1704 -4.8260 0.0790
-13.1607 -5.1587 0.0796
-13.1508 -5.4968 0.0802
-13.1408 -5.8407 0.0810
-13.2317 -6.2387 0.0824
-13.3313 -6.6535 0.0839
-13.4347 -7.0842 0.0855
-13.6404 -7.5868 0.0879
-13.9603 -8.1782 0.0911
-14.4750 -8.9198 0.0957
-29.6430 -38.1038 0.2718
-29.0259 -39.0812 0.2741
-25.2740 -35.6670 0.2461
-23.6260 -34.9718 0.2376
-21.9148 -34.0545 0.2280
-20.3359 -33.2081 0.2192
-19.1055 -32.8231 0.2138
-18.6283 -33.7133 0.2169
-18.1371 -34.6297 0.2201
-17.6308 -35.5742 0.2235
-17.1081 -36.5493 0.2272
-16.5678 -37.5573 0.2311
-15.9534 -38.4693 0.2345
-15.3007 -39.3575 0.2377
-14.7026 -40.4733 0.2424
-14.0801 -41.6346 0.2475
-13.4310 -42.8455 0.2528
-12.7529 -44.1107 0.2585
-12.0430 -45.4350 0.2646
-11.4002 -47.2467 0.2736
-8.1053 -47.2875 0.2701
-7.2922 -49.1067 0.2795
26.9540 -40.2847 0.2729
21.0650 -30.0105 0.2064
19.6226 -26.6684 0.1864
16.1010 -20.8885 0.1485
16.5365 -20.4902 0.1482
14.3855 -17.0321 0.1255
14.1712 -16.0376 0.1205
13.2724 -14.3608 0.1101
12.5161 -12.9499 0.1014
11.8702 -11.7449 0.0940
11.3117 -10.7031 0.0877
10.8236 -9.7924 0.0822
10.3928 -8.9888 0.0774
8.8056 -7.2787 0.0643
8.5034 -6.7149 0.0610
8.6278 -6.5056 0.0608
8.8646 -6.3787 0.0615
9.1066 -6.2489 0.0622
9.3543 -6.1162 0.0629
9.6081 -5.9801 0.0637
9.8685 -5.8405 0.0646
10.1361 -5.6971 0.0655
10.4114 -5.5496 0.0664
10.6949 -5.3975 0.0674
10.9876 -5.2407 0.0685
11.2900 -5.0786 0.0697
11.6030 -4.9108 0.0709
11.9274 -4.7369 0.0723
11.9213 -4.4289 0.0716
11.7235 -4.0598 0.0699
11.5350 -3.7081 0.0682
11.3550 -3.3723 0.0667
11.1828 -3.0512 0.0653
11.0178 -2.7433 0.0639
10.8593 -2.4476 0.0627
10.7068 -2.1631 0.0615
10.5599 -1.8890 0.0604
10.4180 -1.6244 0.0594
10.2809 -1.3686 0.0584
10.1481 -1.1209 0.0575
10.0194 -0.8807 0.0566
9.8943 -0.6473 0.0558
9.7727 -0.4205 0.0551
9.6542 -0.1995 0.0544
9.5387 0.0160 0.0537
9.4259 0.2264 0.0531
9.3157 0.4321 0.0525
9.6082 0.6610 0.0542
11.7987 1.0769 0.0667
12.4295 1.4150 0.0704
13.1353 1.7934 0.0746
13.9313 2.2201 0.0794
14.8367 2.7054 0.0849
15.3430 3.1534 0.0882
15.1717 3.4730 0.0876
17.2358 4.3528 0.1001
17.2939 4.7808 0.1010
32.0644 9.6399 0.1885
31.7054 10.3096 0.1877
31.3493 10.9738 0.1870
30.9957 11.6335 0.1864
36.8058 14.7601 0.2233
14.2852 37.6135 0.2265
13.4240 37.8736 0.2262
12.5647 38.1332 0.2261
11.7062 38.3924 0.2260
9.8652 35.1502 0.2055
9.0662 35.3172 0.2053
8.2689 35.4839 0.2051
7.4724 35.6504 0.2051
6.6758 35.8169 0.2051
5.8785 35.9835 0.2053
4.0189 28.6012 0.1626
3.3605 28.5256 0.1617
3.4740 36.4862 0.2064
2.6656 36.6552 0.2069
1.8522 36.8252 0.2076
1.0332 36.9964 0.2084
0.2343 41.9583 0.2362
-0.6914 41.2710 0.2324
-1.6217 41.4654 0.2336
-1.8143 29.4990 0.1664
-3.5146 41.8611 0.2365
-4.4796 42.0628 0.2382
-5.4586 42.2675 0.2399
-6.4530 42.4754 0.2419
-7.4640 42.6867 0.2440
-8.4933 42.9019 0.2462
-6.7642 30.5675 0.1763
-10.8927 44.4894 0.2579
-12.0735 44.9416 0.2620
-12.9523 44.2445 0.2596
-14.1092 44.4864 0.2628
-15.2956 44.7344 0.2662
-16.5139 44.9890 0.2698
-12.4759 31.7756 0.1922
-19.0566 45.5205 0.2778
-34.3659 24.3231 0.2370
-19.5527 11.3665 0.1273
-16.4181 9.0598 0.1056
-16.6634 8.7155 0.1059
-16.9102 8.3691 0.1062
-17.1588 8.0201 0.1066
-17.4095 7.6682 0.1071
-17.6624 7.3131 0.1076
-17.9180 6.9544 0.1082
-18.1765 6.5915 0.1089
-18.4383 6.2240 0.1096
-18.7036 5.8516 0.1103
-46.0140 13.2753 0.2696
-13.6767 3.6170 0.0796
-13.4675 3.2416 0.0780
-13.2668 2.8814 0.0764
-13.0739 2.5352 0.0750
-12.8881 2.2017 0.0736
-12.7087 1.8799 0.0723
-12.5353 1.5691 0.0711
-12.3675 1.2682 0.0700
-12.4058 0.9927 0.0701
-12.8862 0.7420 0.0727
-13.4040 0.4717 0.0755
-13.9646 0.1794 0.0786
-18.2379 -0.1731 0.1027
-19.0360 -0.6061 0.1072
-19.9083 -1.0794 0.1123
-20.8667 -1.5995 0.1178
-13.5374 -3.2105 0.0783
-13.4472 -3.5081 0.0782
-13.3571 -3.8052 0.0782
-13.2671 -4.1020 0.0782
-13.1828 -4.4008 0.0782
-13.1733 -4.7272 0.0788
-13.1636 -5.0584 0.0794
-13.1538 -5.3948 0.0800
-13.1438 -5.7369 0.0807
-13.2026 -6.1171 0.0819
-13.3011 -6.5275 0.0834
-13.4033 -6.9533 0.0850
-13.5488 -7.4174 0.0870
-13.8619 -7.9963 0.0901
-14.1986 -8.6188 0.0935
-15.1957 -9.6950 0.1015
-30.2271 -38.3221 0.2748
-29.1956 -38.7645 0.2732
-28.6254 -39.8282 0.2761
-24.1681 -35.2623 0.2407
-22.4135 -34.3218 0.2308
-20.7968 -33.4552 0.2218
-19.2669 -32.5960 0.2132
-18.7729 -33.4436 0.2159
-18.2860 -34.3519 0.2191
-17.7843 -35.2878 0.2225
-17.2667 -36.2534 0.2261
-16.7318 -37.2513 0.2299
-16.3451 -38.6792 0.2364
-15.4757 -39.0311 0.2364
-14.8845 -40.1339 0.2410
-14.2696 -41.2812 0.2459
-13.6287 -42.4768 0.2512
-12.9595 -43.7252 0.2568
-12.2594 -45.0312 0.2628
-4.4638 -25.0336 0.1432
-7.2696 -46.7943 0.2666
26.6666 -40.4388 0.2727
25.1279 -36.3138 0.2486
19.4252 -26.7742 0.1862
20.0846 -26.4207 0.1869
16.3785 -20.5749 0.1481
14.2511 -17.1041 0.1253
14.4750 -16.6043 0.1240
13.5254 -14.8327 0.1130
12.7301 -13.3492 0.1039
12.0539 -12.0876 0.0961
11.4712 -11.0005 0.0895
10.9635 -10.0533 0.0837
10.5167 -9.2198 0.0787
8.9028 -7.4600 0.0654
8.5908 -6.8779 0.0620
8.5577 -6.5432 0.0607
8.7930 -6.4171 0.0613
9.0334 -6.2882 0.0620
9.2794 -6.1563 0.0627
9.5313 -6.0213 0.0635
9.7897 -5.8828 0.0643
10.0550 -5.7406 0.0652
10.3279 -5.5943 0.0661
10.6090 -5.4436 0.0671
10.8988 -5.2883 0.0682
11.1982 -5.1278 0.0693
11.5079 -4.9618 0.0706
11.8288 -4.7897 0.0719
11.9827 -4.5432 0.0722
11.7818 -4.1686 0.0704
11.5906 -3.8119 0.0687
11.4081 -3.4715 0.0671
11.2337 -3.1460 0.0657
11.0666 -2.8343 0.0643
10.9062 -2.5351 0.0630
10.7520 -2.2474 0.0618
10.6034 -1.9702 0.0607
10.4601 -1.7028 0.0597
10.3216 -1.4445 0.0587
10.1875 -1.1944 0.0578
10.0576 -0.9520 0.0569
9.9314 -0.7166 0.0561
9.8088 -0.4879 0.0553
9.6894 -0.2652 0.0546
9.5731 -0.0481 0.0539
9.4595 0.1638 0.0533
9.3485 0.3708 0.0527
9.4718 0.5879 0.0534
11.6222 0.9823 0.0657
12.2330 1.3097 0.0693
12.9149 1.6752 0.0733
13.6820 2.0864 0.0779
14.5523 2.5529 0.0832
15.3949 3.0566 0.0884
15.2228 3.3775 0.0878
15.4482 3.7914 0.0896
17.1010 4.6044 0.0997
32.1727 9.4379 0.1888
31.8128 10.1093 0.1879
31.4559 10.7751 0.1872
31.1016 11.4360 0.1866
36.7558 14.4550 0.2224
38.5820 16.1772 0.2355
15.6139 12.2452 0.1117
14.5440 37.5353 0.2266
13.6821 37.7956 0.2263
12.8223 38.0553 0.2261
11.9638 38.3147 0.2260
11.1054 38.5739 0.2260
3.8159 14.4617 0.0842
8.5080 35.4339 0.2052
7.7113 35.6004 0.2051
6.9148 35.7669 0.2051
6.1178 35.9335 0.2052
5.3195 36.1004 0.2054
3.5406 28.4151 0.1612
3.7157 36.4356 0.2062
2.9086 36.6044 0.2067
2.0968 36.7741 0.2074
1.2796 36.9449 0.2081
0.4560 37.1171 0.2090
-0.4232 42.0957 0.2370
-1.3416 41.4069 0.2333
-1.6225 29.6189 0.1670
-2.2972 29.7512 0.1680
-4.1887 42.0020 0.2377
-5.1634 42.2058 0.2394
-6.1530 42.4127 0.2413
-7.1589 42.6229 0.2433
-8.1825 42.8369 0.2455
-6.5529 30.5827 0.1761
-10.7451 45.1955 0.2616
-11.7325 44.8704 0.2611
-12.6505 44.3123 0.2594
-13.7592 44.4132 0.2618
-14.9365 44.6593 0.2651
-16.1449 44.9119 0.2687
-12.2220 31.7528 0.1916
-18.6655 45.4388 0.2766
-19.9833 45.7143 0.2809
-14.2731 24.7111 0.1607
-16.9424 9.4978 0.1093
-16.5897 8.8190 0.1058
-16.8360 8.4732 0.1061
-17.0840 8.1251 0.1065
-17.3340 7.7741 0.1070
-17.5863 7.4200 0.1075
-17.8411 7.0624 0.1080
-18.0987 6.7008 0.1087
-18.3594 6.3348 0.1093
-18.6236 5.9639 0.1101
-46.0562 13.6224 0.2704
-45.9376 12.4787 0.2680
-13.5294 3.3526 0.0785
-13.3262 2.9880 0.0769
-13.1310 2.6376 0.0754
-12.9431 2.3004 0.0740
-12.7618 1.9753 0.0727
-12.5867 1.6613 0.0715
-12.4173 1.3575 0.0703
-12.2683 1.0645 0.0693
-12.7384 0.8191 0.0719
-13.2445 0.5550 0.0746
-13.7915 0.2696 0.0777
-18.0115 -0.0503 0.1014
-18.7893 -0.4723 0.1058
-19.6382 -0.9328 0.1107
-20.5693 -1.4381 0.1161
-13.5645 -3.1211 0.0784
-13.4742 -3.4189 0.0783
-13.3841 -3.7161 0.0782
-13.2941 -4.0130 0.0782
-13.2041 -4.3098 0.0782
-13.1761 -4.6288 0.0786
-13.1665 -4.9585 0.0792
-13.1567 -5.2933 0.0798
-13.1468 -5.6336 0.0805
-13.1737 -5.9968 0.0815
-13.2711 -6.4028 0.0830
-13.3722 -6.8238 0.0845
-13.4772 -7.2613 0.0862
-13.7656 -7.8183 0.0891
-14.0950 -8.4271 0.0925
-14.8764 -9.3516 0.0989
-31.2234 -39.0443 0.2815
-29.3644 -38.4497 0.2724
-28.7978 -39.5066 0.2753
-24.7242 -35.5604 0.2439
-22.9245 -34.5957 0.2337
-21.2684 -33.7080 0.2244
-19.5726 -32.6124 0.2141
-18.9162 -33.1762 0.2150
-18.4335 -34.0766 0.2181
-17.9364 -35.0040 0.2214
-17.4237 -35.9605 0.2250
-16.8941 -36.9484 0.2287
-16.7433 -38.8927 0.2384
-15.6487 -38.7083 0.2351
-15.0643 -39.7986 0.2396
-14.4567 -40.9322 0.2444
-13.8238 -42.1128 0.2496
-13.1634 -43.3448 0.2550
-12.4728 -44.6330 0.2609
-4.6073 -24.8732 0.1424
-7.6264 -47.0123 0.2681
26.4425 -38.7662 0.2642
19.5648 -27.3503 0.1893
19.8863 -26.5270 0.1867
16.2208 -20.6595 0.1479
14.1171 -17.1760 0.1252
14.5653 -16.9357 0.1258
13.7921 -15.3303 0.1161
12.9548 -13.7683 0.1064
12.2459 -12.4458 0.0983
11.6374 -11.3106 0.0914
11.1088 -10.3245 0.0854
10.6450 -9.4592 0.0802
10.2343 -8.6931 0.0756
8.6809 -7.0460 0.0629
8.4881 -6.5805 0.0605
8.7219 -6.4552 0.0611
8.9607 -6.3271 0.0618
9.2050 -6.1962 0.0625
9.4551 -6.0622 0.0632
9.7115 -5.9247 0.0640
9.9747 -5.7836 0.0649
10.2452 -5.6386 0.0658
10.5237 -5.4893 0.0668
10.8109 -5.3354 0.0679
11.1073 -5.1765 0.0690
11.4139 -5.0122 0.0702
11.7313 -4.8420 0.0715
12.0449 -4.6594 0.0727
11.8410 -4.2790 0.0709
11.6470 -3.9171 0.0692
11.4620 -3.5720 0.0676
11.2852 -3.2422 0.0661
11.1160 -2.9265 0.0647
10.9536 -2.6236 0.0634
10.7976 -2.3325 0.0622
10.6474 -2.0523 0.0611
10.5026 -1.7821 0.0600
10.3626 -1.5211 0.0590
10.2273 -1.2686 0.0580
10.0961 -1.0239 0.0571
9.9689 -0.7865 0.0563
9.8452 -0.5558 0.0555
9.7249 -0.3314 0.0548
9.6077 -0.1127 0.0541
9.4933 0.1007 0.0535
9.3815 0.3092 0.0528
9.3393 0.5168 0.0527
9.7965 0.7619 0.0553
12.0428 1.2078 0.0681
12.7021 1.5612 0.0721
13.4419 1.9578 0.0765
14.2790 2.4065 0.0815
15.2350 2.9189 0.0873
15.2742 3.2817 0.0880
15.1037 3.5998 0.0874
17.1586 4.4968 0.0999
32.2813 9.2353 0.1890
31.9204 9.9085 0.1882
31.5627 10.5759 0.1874
31.2076 11.2382 0.1868
30.8549 11.8962 0.1862
36.6376 15.0740 0.2231
39.6445 25.3560 0.2650
31.3004 21.0188 0.2123
15.7394 12.1741 0.1120
14.8031 37.4570 0.2268
13.9404 37.7176 0.2264
13.0800 37.9775 0.2261
12.2212 38.2369 0.2260
11.3629 38.4961 0.2260
3.9128 14.4359 0.0842
8.7471 35.3839 0.2052
7.9502 35.5505 0.2051
7.1538 35.7170 0.2051
6.3570 35.8835 0.2052
5.5592 36.0503 0.2054
3.7324 28.4017 0.1613
3.9572 36.3852 0.2061
3.1512 36.5537 0.2066
2.3409 36.7230 0.2072
1.5254 36.8935 0.2079
0.7038 37.0653 0.2087
-0.1409 42.0367 0.2367
-1.0624 41.3485 0.2329
-1.9967 41.5438 0.2342
-2.0806 29.5221 0.1666
-3.8990 41.9415 0.2372
-4.8694 42.1443 0.2389
-5.8544 42.3502 0.2407
-6.8553 42.5595 0.2427
-7.8735 42.7723 0.2449
-6.3682 30.7243 0.1767
-10.5932 45.9220 0.2653
-11.1573 43.8693 0.2549
-12.5130 44.9700 0.2628
-10.9473 36.1929 0.2129
-14.5802 44.5848 0.2641
-15.7789 44.8354 0.2676
-12.0231 31.8714 0.1918
-18.2780 45.3578 0.2753
-19.5837 45.6307 0.2796
-17.9650 10.2299 0.1164
-16.5161 8.9223 0.1057
-16.7619 8.5772 0.1060
-17.0094 8.2298 0.1064
-17.2588 7.8797 0.1068
-17.5104 7.5266 0.1073
-17.7643 7.1701 0.1079
-18.0211 6.8097 0.1085
-18.2808 6.4451 0.1091
-18.5440 6.0757 0.1099
-46.0993 13.9718 0.2712
-45.9658 12.8176 0.2687
-13.5920 3.4649 0.0790
-13.3863 3.0958 0.0774
-13.1888 2.7413 0.0758
-12.9987 2.4003 0.0744
-12.8155 2.0716 0.0731
-12.6386 1.7543 0.0718
-12.4676 1.4476 0.0707
-12.3019 1.1505 0.0696
-12.5938 0.8946 0.0711
-13.0886 0.6364 0.0738
-13.6228 0.3576 0.0767
-14.2023 0.0555 0.0800
-18.5490 -0.3419 0.1045
-19.3754 -0.7902 0.1092
-20.2806 -1.2814 0.1144
-13.5916 -3.0316 0.0784
-13.5013 -3.3296 0.0783
-13.4111 -3.6270 0.0782
-13.3211 -3.9239 0.0782
-13.2311 -4.2208 0.0782
-13.1790 -4.5308 0.0785
-13.1694 -4.8591 0.0790
-13.1597 -5.1923 0.0797
-13.1498 -5.5309 0.0803
-13.1451 -5.8778 0.0811
-13.2415 -6.2795 0.0825
-13.3415 -6.6959 0.0840
-13.4453 -7.1282 0.0857
-13.6714 -7.6440 0.0882
-13.9936 -8.2398 0.0914
-14.5729 -9.0251 0.0965
-29.5447 -38.1529 0.2717
-28.9690 -39.1872 0.2744
-25.0818 -35.5640 0.2450
-23.4484 -34.8766 0.2366
-21.7512 -33.9668 0.2271
-20.0144 -32.8477 0.2166
-19.0584 -32.9110 0.2141
-18.5798 -33.8038 0.2172
-18.0872 -34.7228 0.2204
-17.5793 -35.6704 0.2239
-17.0549 -36.6485 0.2276
-16.5127 -37.6601 0.2315
-15.8242 -38.4000 0.2338
-15.2419 -39.4672 0.2382
-14.6415 -40.5873 0.2429
-14.0164 -41.7534 0.2480
-13.3645 -42.9696 0.2534
-12.6833 -44.2404 0.2591
-11.9701 -45.5710 0.2653
-11.2915 -47.2588 0.2736
-7.9849 -47.2185 0.2696
-7.2019 -49.2557 0.2802
27.0500 -40.2332 0.2730
21.1378 -29.9715 0.2065
19.6884 -26.6331 0.1865
16.0635 -20.7438 0.1477
14.4733 -17.8519 0.1294
14.4304 -17.0080 0.1256
14.0738 -15.8558 0.1194
13.1910 -14.2089 0.1092
12.4469 -12.8209 0.1006
11.8107 -11.6340 0.0933
11.2600 -10.6065 0.0871
10.7781 -9.7075 0.0817
10.3525 -8.9136 0.0769
8.7739 -7.2195 0.0640
8.4749 -6.6617 0.0607
8.6512 -6.4930 0.0609
8.8885 -6.3658 0.0616
9.1311 -6.2358 0.0623
9.3794 -6.1027 0.0630
9.6339 -5.9663 0.0638
9.8950 -5.8264 0.0647
10.1632 -5.6826 0.0656
10.4393 -5.5346 0.0665
10.7238 -5.3821 0.0676
11.0174 -5.2247 0.0687
11.3208 -5.0621 0.0698
11.6349 -4.8937 0.0711
11.9605 -4.7191 0.0724
11.9011 -4.3911 0.0714
11.7042 -4.0238 0.0697
11.5166 -3.6738 0.0681
11.3375 -3.3396 0.0665
11.1660 -3.0198 0.0651
11.0017 -2.7132 0.0638
10.8438 -2.4187 0.0626
10.6919 -2.1353 0.0614
10.5455 -1.8621 0.0603
10.4041 -1.5984 0.0593
10.2674 -1.3435 0.0583
10.1351 -1.0965 0.0574
10.0067 -0.8570 0.0565
9.8820 -0.6244 0.0557
9.7607 -0.3981 0.0550
9.6425 -0.1777 0.0543
9.5273 0.0373 0.0536
9.4148 0.2472 0.0530
9.3048 0.4524 0.0524
9.6546 0.6858 0.0545
11.8588 1.1091 0.0671
12.4965 1.4510 0.0708
13.2105 1.8337 0.0751
14.0165 2.2657 0.0799
14.9342 2.7577 0.0855
15.3258 3.1855 0.0881
15.1546 3.5048 0.0876
17.2165 4.3889 0.1000
32.3902 9.0321 0.1893
32.0283 9.7072 0.1884
31.6697 10.3762 0.1876
31.3139 11.0400 0.1869
30.9605 11.6992 0.1863
36.7637 14.8386 0.2232
42.9076 23.1798 0.2746
31.3372 20.7401 0.2116
14.1989 37.6395 0.2265
13.3380 37.8996 0.2262
12.4788 38.1591 0.2260
11.6204 38.4184 0.2260
9.7851 35.1669 0.2055
8.9864 35.3339 0.2053
8.1892 35.5005 0.2051
7.3927 35.6670 0.2051
6.5961 35.8335 0.2051
5.7987 36.0002 0.2053
3.9406 28.5055 0.1620
3.3059 28.6117 0.1622
3.3934 36.5030 0.2064
2.5845 36.6721 0.2070
1.7706 36.8423 0.2077
0.9509 37.0136 0.2085
0.1406 41.9779 0.2363
-0.7841 41.2903 0.2325
-1.7153 41.4850 0.2338
-1.8800 29.4925 0.1664
-3.6105 41.8812 0.2367
-4.5768 42.0832 0.2383
-5.5574 42.2881 0.2401
-6.5533 42.4963 0.2421
-7.5661 42.7081 0.2442
-8.5973 42.9236 0.2465
-6.8411 30.5907 0.1765
-10.9410 44.2583 0.2567
-12.1877 44.9655 0.2623
-13.0668 44.2685 0.2599
-14.2265 44.5109 0.2631
-15.4160 44.7595 0.2665
-11.9249 32.2640 0.1937
-12.5872 31.8498 0.1928
-19.1878 45.5480 0.2783
-34.4361 24.2576 0.2370
-19.1284 11.0628 0.1244
-16.4426 9.0255 0.1056
-16.6880 8.6810 0.1059
-16.9350 8.3343 0.1063
-17.1838 7.9850 0.1067
-17.4346 7.6329 0.1072
-17.6879 7.2774 0.1077
-17.9438 6.9182 0.1083
-18.2026 6.5549 0.1089
-18.4647 6.1870 0.1096
-18.7303 5.8141 0.1104
-46.0000 13.1600 0.2694
-13.6554 3.5787 0.0795
-13.4471 3.2049 0.0778
-13.2472 2.8462 0.0763
-13.0550 2.5012 0.0748
-12.8698 2.1690 0.0735
-12.6911 1.8483 0.0722
-12.5183 1.5385 0.0710
-12.3510 1.2386 0.0699
-12.4523 0.9685 0.0703
-12.9362 0.7159 0.0729
-13.4580 0.4436 0.0758
-14.0233 0.1488 0.0790
-18.3147 -0.2148 0.1031
-19.1197 -0.6515 0.1077
-20.0001 -1.1292 0.1128
-20.9679 -1.6543 0.1184
-13.5283 -3.2403 0.0783
-13.4382 -3.5378 0.0782
-13.3481 -3.8349 0.0782
-13.2581 -4.1317 0.0782
-13.1818 -4.4333 0.0783
-13.1723 -4.7601 0.0789
-13.1626 -5.0917 0.0795
-13.1528 -5.4287 0.0801
-13.1428 -5.7714 0.0808
-13.2122 -6.1575 0.0821
-13.3111 -6.5693 0.0836
-13.4137 -6.9967 0.0852
-13.5791 -7.4735 0.0873
-13.8945 -8.0565 0.0904
-14.2839 -8.7143 0.0942
-29.9879 -38.1938 0.2734
-29.1392 -38.8698 0.2735
-28.5677 -39.9358 0.2765
-23.9858 -35.1646 0.2397
-22.2459 -34.2319 0.2299
-20.6419 -33.3721 0.2209
-19.2017 -32.6521 0.2133
-18.7248 -33.5333 0.2162
-18.2365 -34.4443 0.2194
-17.7333 -35.3830 0.2228
-17.2140 -36.3518 0.2265
-16.6772 -37.3531 0.2303
-16.2136 -38.6088 0.2358
-15.4175 -39.1396 0.2368
-14.8242 -40.2465 0.2415
-14.2067 -41.3984 0.2464
-13.5631 -42.5991 0.2517
-12.8909 -43.8531 0.2573
-12.1876 -45.1651 0.2634
-8.3376 -47.3711 0.2708
-7.1459 -46.6858 0.2659
26.7623 -40.3874 0.2728
21.4128 -30.7977 0.2112
19.4909 -26.7390 0.1863
20.1507 -26.3853 0.1869
16.4311 -20.5467 0.1481
14.2959 -17.0801 0.1254
14.3718 -16.4117 0.1228
13.4396 -14.6726 0.1120
12.6576 -13.2139 0.1030
11.9917 -11.9716 0.0954
11.4173 -10.9000 0.0889
10.9162 -9.9652 0.0832
10.4749 -9.1418 0.0783
8.8700 -7.3988 0.0650
8.5613 -6.8229 0.0616
8.5811 -6.5307 0.0607
8.8168 -6.4043 0.0614
9.0578 -6.2751 0.0620
9.3043 -6.1430 0.0628
9.5568 -6.0076 0.0636
9.8159 -5.8688 0.0644
10.0820 -5.7261 0.0653
10.3556 -5.5794 0.0662
10.6375 -5.4283 0.0672
10.9283 -5.2725 0.0683
11.2287 -5.1114 0.0695
11.5395 -4.9448 0.0707
11.8616 -4.7722 0.0720
11.9621 -4.5049 0.0720
11.7623 -4.1321 0.0702
11.5720 -3.7771 0.0685
11.3903 -3.4383 0.0670
11.2167 -3.1143 0.0655
11.0502 -2.8038 0.0642
10.8905 -2.5058 0.0629
10.7369 -2.2192 0.0617
10.5889 -1.9431 0.0606
10.4460 -1.6766 0.0596
10.3080 -1.4191 0.0586
10.1744 -1.1698 0.0577
10.0448 -0.9281 0.0568
9.9190 -0.6935 0.0560
9.7967 -0.4653 0.0552
9.6777 -0.2432 0.0545
9.5616 -0.0267 0.0538
9.4483 0.1847 0.0532
9.3375 0.3913 0.0526
9.5169 0.6120 0.0537
11.6805 1.0135 0.0660
12.2978 1.3444 0.0697
12.9875 1.7142 0.0738
13.7641 2.1304 0.0784
14.6459 2.6031 0.0838
15.3775 3.0890 0.0883
15.2058 3.4094 0.0877
15.5751 3.8595 0.0903
17.0818 4.6401 0.0997
32.1366 9.5053 0.1887
31.7770 10.1761 0.1879
31.4204 10.8414 0.1871
31.0663 11.5019 0.1865
36.8900 14.6029 0.2234
15.6082 12.2971 0.1119
14.4578 37.5613 0.2266
13.5961 37.8216 0.2263
12.7364 38.0813 0.2261
11.8779 38.3406 0.2260
11.0196 38.5999 0.2260
3.7875 14.4850 0.0843
8.4282 35.4505 0.2052
7.6316 35.6171 0.2051
6.8351 35.7836 0.2051
6.0380 35.9502 0.2052
5.2396 36.1171 0.2055
3.4785 28.4339 0.1613
3.6351 36.4525 0.2063
2.8275 36.6213 0.2068
2.0154 36.7911 0.2075
1.1976 36.9621 0.2082
0.3733 37.1344 0.2091
-0.5142 41.8580 0.2357
-1.4348 41.4264 0.2334
-1.6856 29.5610 0.1667
-3.3231 41.8211 0.2362
-4.2855 42.0223 0.2378
-5.2617 42.2263 0.2396
-6.2529 42.4335 0.2415
-7.2605 42.6442 0.2435
-8.2859 42.8585 0.2458
-6.6212 30.5680 0.1761
-10.7948 44.9577 0.2603
-11.8460 44.8941 0.2614
-12.7244 44.1969 0.2589
-13.8757 44.4375 0.2621
-15.0560 44.6843 0.2655
-16.2677 44.9376 0.2691
-12.3006 31.7449 0.1917
-18.7954 45.4659 0.2770
-20.1173 45.7423 0.2813
-14.3428 24.7042 0.1608
-16.6283 9.2730 0.1072
-16.6142 8.7845 0.1058
-16.8607 8.4385 0.1062
-17.1090 8.0901 0.1066
-17.3592 7.7388 0.1070
-17.6117 7.3844 0.1075
-17.8667 7.0264 0.1081
-18.1246 6.6643 0.1087
-18.3856 6.2979 0.1094
-18.6502 5.9266 0.1102
-46.0421 13.5065 0.2701
-45.9283 12.3661 0.2678
-13.5087 3.3154 0.0783
-13.3063 2.9523 0.0767
-13.1119 2.6034 0.0753
-12.9247 2.2674 0.0739
-12.7440 1.9434 0.0726
-12.5695 1.6304 0.0714
-12.4007 1.3276 0.0702
-12.3139 1.0408 0.0696
-12.7873 0.7936 0.0721
-13.2973 0.5275 0.0749
-13.8488 0.2397 0.0780
-18.0864 -0.0909 0.1018
-18.8709 -0.5165 0.1063
-19.7275 -0.9813 0.1112
-20.6676 -1.4914 0.1167
-13.5555 -3.1509 0.0784
-13.4652 -3.4486 0.0783
-13.3751 -3.7458 0.0782
-13.2851 -4.0427 0.0782
-13.1951 -4.3396 0.0782
-13.1752 -4.6616 0.0787
-13.1655 -4.9918 0.0793
-13.1558 -5.3271 0.0799
-13.1458 -5.6680 0.0806
-13.1833 -6.0368 0.0816
-13.2811 -6.4442 0.0831
-13.3825 -6.8669 0.0847
-13.4888 -7.3065 0.0864
-13.7975 -7.8773 0.0895
-14.1292 -8.4905 0.0928
-14.9810 -9.4641 0.0998
-30.9743 -38.9107 0.2800
-29.3082 -38.5544 0.2727
-28.7404 -39.6137 0.2755
-24.5373 -35.4602 0.2428
-22.7528 -34.5037 0.2327
-21.1100 -33.6231 0.2235
-19.4505 -32.5735 0.2136
-18.8686 -33.2651 0.2153
-18.3845 -34.1681 0.2185
-17.8859 -35.0983 0.2218
-17.3716 -36.0578 0.2253
-16.8402 -37.0490 0.2291
-16.6098 -38.8211 0.2377
-15.5912 -38.8156 0.2355
-15.0046 -39.9100 0.2401
-14.3945 -41.0481 0.2449
-13.7590 -42.2337 0.2501
-13.0957 -43.4711 0.2556
-12.4020 -44.7652 0.2615
-4.5495 -24.8714 0.1424
-7.5078 -46.9441 0.2677
25.9860 -37.9147 0.2588
19.2939 -26.8446 0.1861
19.9524 -26.4916 0.1867
16.2734 -20.6313 0.1479
14.1617 -17.1521 0.1252
14.6104 -16.9115 0.1258
13.7016 -15.1615 0.1151
12.8787 -13.6264 0.1056
12.1810 -12.3246 0.0976
11.5812 -11.2058 0.0907
11.0597 -10.2330 0.0848
10.6017 -9.3785 0.0797
8.9694 -7.5842 0.0661
8.6505 -6.9893 0.0626
8.5112 -6.5681 0.0605
8.7456 -6.4425 0.0612
8.9849 -6.3142 0.0618
9.2297 -6.1830 0.0625
9.4804 -6.0486 0.0633
9.7375 -5.9108 0.0641
10.0014 -5.7693 0.0650
10.2727 -5.6239 0.0659
10.5521 -5.4741 0.0669
10.8401 -5.3197 0.0680
11.1375 -5.1603 0.0691
11.4451 -4.9954 0.0703
11.7637 -4.8247 0.0716
12.0241 -4.6205 0.0725
11.8212 -4.2420 0.0707
11.6281 -3.8818 0.0690
11.4440 -3.5383 0.0674
11.2680 -3.2100 0.0660
11.0995 -2.8956 0.0646
10.9378 -2.5940 0.0633
10.7823 -2.3040 0.0621
10.6327 -2.0248 0.0609
10.4883 -1.7556 0.0599
10.3489 -1.4954 0.0589
10.2140 -1.2437 0.0579
10.0832 -0.9998 0.0570
9.9564 -0.7631 0.0562
9.8331 -0.5331 0.0554
9.7130 -0.3092 0.0547
9.5961 -0.0911 0.0540
9.4820 0.1218 0.0534
9.3705 0.3298 0.0528
9.3830 0.5403 0.0529
9.8448 0.7878 0.0556
12.1055 1.2414 0.0685
12.7721 1.5987 0.0725
13.5209 2.0001 0.0770
14.3689 2.4547 0.0821
15.3382 2.9743 0.0880
15.2571 3.3137 0.0879
15.2008 3.6588 0.0880
17.1394 4.5327 0.0998
32.2450 9.3029 0.1890
31.8845 9.9755 0.1881
31.5270 10.6424 0.1873
31.1722 11.3042 0.1867
30.8197 11.9618 0.1861
36.8020 15.2380 0.2243
39.3813 25.3117 0.2636
15.6843 12.1876 0.1118
14.7167 37.4831 0.2267
13.8542 37.7436 0.2264
12.9940 38.0035 0.2261
12.1353 38.2629 0.2260
11.2771 38.5221 0.2260
3.8772 14.4324 0.0840
8.6674 35.4005 0.2052
7.8706 35.5671 0.2051
7.0741 35.7336 0.2051
6.2773 35.9002 0.2052
5.4794 36.0670 0.2054
3.6671 28.3952 0.1612
3.8767 36.4020 0.2061
3.0703 36.5706 0.2066
2.2595 36.7400 0.2072
1.4435 36.9106 0.2080
0.6212 37.0825 0.2088
-0.2349 42.0564 0.2368
-1.1554 41.3680 0.2330
-2.0907 41.5635 0.2343
-2.1500 29.5638 0.1669
-3.9955 41.9617 0.2373
-4.9674 42.1648 0.2390
-5.9538 42.3710 0.2409
-6.9563 42.5806 0.2429
-7.9762 42.7938 0.2451
-6.4252 30.6547 0.1763
-10.6443 45.6775 0.2641
-11.5065 44.8231 0.2605
-12.5592 44.7490 0.2617
-13.5272 44.3647 0.2611
-14.6986 44.6096 0.2644
-15.9007 44.8608 0.2680
-12.0835 31.8161 0.1916
-18.4068 45.3847 0.2757
-19.7165 45.6585 0.2800
-14.1732 24.7931 0.1608
-17.6099 9.9757 0.1139
-16.5406 8.8879 0.1057
-16.7866 8.5426 0.1060
-17.0343 8.1949 0.1064
-17.2839 7.8446 0.1069
-17.5356 7.4911 0.1074
-17.7899 7.1342 0.1079
-18.0469 6.7734 0.1085
-18.3070 6.4083 0.1092
-18.5705 6.0385 0.1099
-46.0844 13.8549 0.2709
-45.9564 12.7044 0.2685
-13.5710 3.4273 0.0788
-13.3662 3.0597 0.0772
-13.1694 2.7066 0.0757
-12.9801 2.3668 0.0743
-12.7975 2.0393 0.0730
-12.6213 1.7232 0.0717
-12.4508 1.4175 0.0706
-12.2856 1.1214 0.0695
-12.6416 0.8697 0.0713
-13.1402 0.6095 0.0741
-13.6785 0.3285 0.0770
-14.2630 0.0239 0.0803
-18.6284 -0.3850 0.1049
-19.4622 -0.8374 0.1097
-20.3760 -1.3332 0.1150
-13.5826 -3.0614 0.0784
-13.4922 -3.3594 0.0783
-13.4021 -3.6567 0.0782
-13.3121 -3.9536 0.0782
-13.2221 -4.2505 0.0782
-13.1780 -4.5634 0.0785
-13.1684 -4.8922 0.0791
-13.1587 -5.2259 0.0797
-13.1488 -5.5651 0.0804
-13.1546 -5.9174 0.0812
-13.2514 -6.3204 0.0827
-13.3517 -6.7384 0.0842
-13.4559 -7.1724 0.0858
-13.7026 -7.7017 0.0885
-14.0272 -8.3018 0.0918
-14.6725 -9.1322 0.0973
-29.4763 -38.2408 0.2718
-28.9120 -39.2935 0.2747
-24.9005 -35.4749 0.2440
-23.2722 -34.7821 0.2356
-21.5889 -33.8798 0.2262
-19.8655 -32.7678 0.2157
-19.0111 -32.9992 0.2144
-18.5312 -33.8945 0.2175
-18.0370 -34.8163 0.2208
-17.5276 -35.7668 0.2243
-17.0014 -36.7483 0.2280
-16.4587 -37.7659 0.2319
-15.7630 -38.4952 0.2342
-15.1830 -39.5772 0.2387
-14.5801 -40.7018 0.2434
-13.9525 -41.8727 0.2485
-13.2978 -43.0941 0.2539
-12.6135 -44.3707 0.2597
-11.2140 -47.4032 0.2742
-7.8649 -47.1495 0.2691
-7.1014 -49.3388 0.2806
5.4851 -43.6224 0.2475
27.1459 -40.1818 0.2730
21.2105 -29.9326 0.2065
19.7544 -26.5978 0.1865
16.1159 -20.7157 0.1478
14.3458 -17.6140 0.1279
14.4754 -16.9839 0.1256
13.9781 -15.6772 0.1183
13.1109 -14.0595 0.1082
12.3789 -12.6938 0.0998
11.7521 -11.5245 0.0927
11.2089 -10.5112 0.0865
10.7331 -9.6237 0.0812
10.3126 -8.8392 0.0765
8.7426 -7.1611 0.0636
8.4467 -6.6091 0.0604
8.6747 -6.4805 0.0610
8.9126 -6.3530 0.0616
9.1557 -6.2226 0.0623
9.4046 -6.0892 0.0631
9.6597 -5.9525 0.0639
9.9215 -5.8122 0.0647
10.1905 -5.6679 0.0657
10.4674 -5.5195 0.0666
10.7527 -5.3666 0.0677
11.0473 -5.2087 0.0688
11.3517 -5.0455 0.0699
11.6669 -4.8765 0.0712
11.9938 -4.7013 0.0725
11.8810 -4.3535 0.0712
11.6850 -3.9880 0.0695
11.4983 -3.6397 0.0679
11.3199 -3.3069 0.0664
11.1493 -2.9886 0.0650
10.9856 -2.6832 0.0637
10.8283 -2.3898 0.0624
10.6770 -2.1075 0.0613
10.5311 -1.8354 0.0602
10.3903 -1.5726 0.0592
10.2540 -1.3184 0.0582
10.1221 -1.0722 0.0573
9.9941 -0.8334 0.0565
9.8697 -0.6015 0.0557
9.7487 -0.3758 0.0549
9.6309 -0.1560 0.0542
9.5159 0.0585 0.0536
9.4037 0.2679 0.0530
9.2939 0.4727 0.0524
9.7015 0.7110 0.0548
11.9195 1.1417 0.0674
12.5643 1.4873 0.0712
13.2868 1.8746 0.0755
14.1030 2.3121 0.0805
15.0330 2.8107 0.0861
15.3086 3.2176 0.0881
15.1376 3.5365 0.0875
17.1972 4.4249 0.1000
32.3539 9.0999 0.1892
31.9923 9.7743 0.1883
31.6340 10.4428 0.1876
31.2784 11.1061 0.1869
30.9253 11.7649 0.1863
36.7216 14.9172 0.2232
42.8253 23.2591 0.2744
31.2670 20.7944 0.2114
14.1128 37.6655 0.2265
13.2520 37.9255 0.2262
12.3929 38.1850 0.2260
11.5345 38.4443 0.2260
3.9966 14.4888 0.0846
8.9066 35.3505 0.2053
8.1095 35.5172 0.2051
7.3130 35.6837 0.2051
6.5164 35.8502 0.2052
5.7188 36.0169 0.2053
3.8685 28.4537 0.1617
3.2600 28.7792 0.1631
3.3127 36.5199 0.2065
2.5034 36.6891 0.2070
1.6890 36.8593 0.2077
0.7879 33.5893 0.1892
0.0469 41.9975 0.2365
-0.8767 41.3097 0.2326
-1.8090 41.5046 0.2339
-1.9457 29.4859 0.1664
-3.7066 41.9013 0.2368
-4.6743 42.1035 0.2385
-5.6563 42.3088 0.2403
-6.6539 42.5174 0.2423
-7.6685 42.7294 0.2444
-9.5785 47.2736 0.2716
-6.9232 30.6365 0.1768
-10.9889 44.0293 0.2555
-12.3022 44.9894 0.2626
-13.1816 44.2924 0.2602
-14.3442 44.5355 0.2634
-15.5366 44.7847 0.2669
-11.9267 32.0489 0.1925
-18.0215 45.3042 0.2745
-19.3193 45.5755 0.2787
-18.7230 10.7725 0.1216
-16.4671 8.9911 0.1056
-16.7127 8.6464 0.1059
-16.9598 8.2994 0.1063
-17.2088 7.9499 0.1067
-17.4599 7.5975 0.1072
-17.7134 7.2416 0.1077
-17.9695 6.8821 0.1083
-18.2286 6.5184 0.1090
-18.4910 6.1500 0.1097
-18.7571 5.7765 0.1105
-45.9861 13.0450 0.2691
-13.6341 3.5406 0.0793
-13.4267 3.1684 0.0777
-13.2276 2.8111 0.0761
-13.0362 2.4675 0.0747
-12.8517 2.1364 0.0733
-12.6735 1.8169 0.0721
-12.5013 1.5081 0.0709
-12.3346 1.2092 0.0698
-12.4992 0.9440 0.0706
-12.9867 0.6895 0.0732
-13.5126 0.4151 0.0761
-14.0825 0.1179 0.0793
-18.3922 -0.2568 0.1036
-19.2043 -0.6974 0.1082
-20.0927 -1.1794 0.1133
-13.6097 -2.9718 0.0784
-13.5193 -3.2701 0.0783
-13.4291 -3.5675 0.0782
-13.3391 -3.8646 0.0782
-13.2491 -4.1614 0.0782
-13.1809 -4.4658 0.0784
-13.1713 -4.7931 0.0789
-13.1616 -5.1253 0.0795
-13.1518 -5.4628 0.0802
-13.1418 -5.8061 0.0809
-13.2220 -6.1980 0.0822
-13.3212 -6.6114 0.0837
-13.4242 -7.0404 0.0853
-13.6096 -7.5299 0.0876
-13.9273 -8.1171 0.0908
-14.3786 -8.8162 0.0950
-29.7826 -38.1075 0.2723
-29.0826 -38.9753 0.2738
-25.4773 -35.7842 0.2475
-23.8052 -35.0678 0.2386
-22.0797 -34.1429 0.2289
-20.4884 -33.2898 0.2201
-19.1525 -32.7354 0.2135
-18.6766 -33.6232 0.2165
-18.1869 -34.5368 0.2198
-17.6821 -35.4785 0.2232
-17.1611 -36.4504 0.2268
-16.6226 -37.4551 0.2307
-16.0831 -38.5388 0.2351
-15.3592 -39.2484 0.2373
-14.7634 -40.3598 0.2420
-14.1435 -41.5164 0.2469
-13.4971 -42.7222 0.2523
-12.8220 -43.9817 0.2579
-12.1154 -45.2999 0.2640
-11.5285 -47.3155 0.2742
-8.2369 -47.4188 0.2710
-7.3810 -48.9522 0.2787
26.8583 -40.3360 0.2728
21.0752 -30.1680 0.2072
19.5568 -26.7036 0.1864
16.2732 -21.2096 0.1505
16.4838 -20.5185 0.1482
14.3407 -17.0561 0.1255
14.2706 -16.2229 0.1216
13.3553 -14.5154 0.1111
12.5863 -13.0808 0.1022
11.9305 -11.8574 0.0947
11.3641 -10.8008 0.0883
10.8696 -9.8782 0.0827
10.4336 -9.0649 0.0778
8.8376 -7.3384 0.0647
8.5322 -6.7686 0.0613
8.6044 -6.5182 0.0608
8.8407 -6.3915 0.0614
9.0822 -6.2620 0.0621
9.3293 -6.1296 0.0628
9.5825 -5.9939 0.0636
9.8422 -5.8546 0.0645
10.1090 -5.7116 0.0654
10.3834 -5.5645 0.0663
10.6662 -5.4130 0.0673
10.9579 -5.2566 0.0684
11.2593 -5.0950 0.0696
11.5712 -4.9279 0.0708
11.8944 -4.7546 0.0721
11.9417 -4.4668 0.0718
11.7428 -4.0958 0.0700
11.5534 -3.7425 0.0684
11.3726 -3.4052 0.0668
11.1997 -3.0826 0.0654
11.0340 -2.7735 0.0641
10.8749 -2.4766 0.0628
10.7218 -2.1911 0.0616
10.5743 -1.9160 0.0605
10.4320 -1.6504 0.0595
10.2944 -1.3938 0.0585
10.1612 -1.1453 0.0576
10.0320 -0.9043 0.0567
9.9066 -0.6704 0.0559
9.7847 -0.4429 0.0551
9.6659 -0.2213 0.0544
9.5501 -0.0053 0.0538
9.4371 0.2056 0.0531
9.3266 0.4117 0.0526
9.5623 0.6364 0.0540
11.7392 1.0450 0.0664
12.3632 1.3795 0.0700
13.0610 1.7535 0.0742
13.8471 2.1750 0.0789
14.7407 2.6539 0.0843
15.3603 3.1212 0.0882
15.1887 3.4413 0.0877
17.2551 4.3168 0.1001
17.1355 4.6959 0.1000
32.1004 9.5727 0.1886
31.7411 10.2429 0.1878
31.3848 10.9077 0.1871
31.0310 11.5677 0.1865
36.8479 14.6815 0.2233
15.6030 12.3497 0.1120
14.3713 37.5874 0.2266
13.5101 37.8476 0.2263
12.6505 38.1072 0.2261
11.7921 38.3665 0.2260
10.9338 38.6258 0.2260
3.7695 14.5491 0.0846
8.3485 35.4672 0.2051
7.5520 35.6337 0.2051
6.7555 35.8002 0.2051
5.9583 35.9669 0.2053
5.1596 36.1338 0.2055
3.4193 28.4775 0.1615
3.5546 36.4693 0.2063
2.7466 36.6382 0.2069
1.9338 36.8082 0.2075
1.1153 36.9792 0.2083
0.2903 37.1517 0.2092
-0.6018 41.4391 0.2333
-1.5283 41.4459 0.2335
-1.7499 29.5266 0.1665
-3.4187 41.8411 0.2364
-4.3825 42.0425 0.2380
-5.3600 42.2469 0.2398
-6.3528 42.4544 0.2417
-7.3621 42.6654 0.2438
-8.3895 42.8802 0.2460
-6.6912 30.5610 0.1761
-10.8440 44.7225 0.2591
-11.9596 44.9178 0.2617
-12.8382 44.2207 0.2593
-13.9923 44.4619 0.2624
-15.1757 44.7093 0.2658
-16.3907 44.9633 0.2694
-12.3832 31.7476 0.1919
-18.9259 45.4932 0.2774
-34.3615 24.4355 0.2373
-16.3936 9.0942 0.1055
-16.6388 8.7500 0.1058
-16.8855 8.4038 0.1062
-17.1339 8.0551 0.1066
-17.3843 7.7036 0.1071
-17.6370 7.3488 0.1076
-17.8924 6.9904 0.1082
-18.1506 6.6279 0.1088
-18.4120 6.2610 0.1095
-18.6769 5.8891 0.1103
-46.0280 13.3906 0.2699
-13.6981 3.6553 0.0798
-13.4880 3.2784 0.0782
-13.2865 2.9168 0.0766
-13.0929 2.5692 0.0751
-12.9063 2.2345 0.0737
-12.7263 1.9116 0.0725
-12.5524 1.5997 0.0712
-12.3841 1.2979 0.0701
-12.3597 1.0168 0.0698
-12.8366 0.7679 0.0724
-13.3504 0.4997 0.0752
-13.9065 0.2097 0.0783
-18.1618 -0.1319 0.1023
-18.9531 -0.5611 0.1068
-19.8175 -1.0301 0.1117
-20.7667 -1.5452 0.1172
-13.5464 -3.1807 0.0783
-13.4562 -3.4783 0.0783
-13.3661 -3.7755 0.0782
-13.2761 -4.0723 0.0782
-13.1861 -4.3693 0.0782
-13.1742 -4.6944 0.0787
-13.1646 -5.0250 0.0793
-13.1548 -5.3609 0.0800
-13.1448 -5.7024 0.0807
-13.1929 -6.0769 0.0818
-13.2910 -6.4858 0.0833
-13.3929 -6.9100 0.0848
-13.5187 -7.3617 0.0867
-13.8296 -7.9366 0.0898
-14.1638 -8.5545 0.0932
-15.0875 -9.5787 0.1006
-30.7280 -38.7787 0.2786
-29.2520 -38.6593 0.2729
-28.6830 -39.7209 0.2758
-24.3516 -35.3607 0.2417
-22.5822 -34.4123 0.2317
-20.9525 -33.5387 0.2226
-19.3520 -32.5738 0.2133
-18.8207 -33.3543 0.2156
-18.3353 -34.2600 0.2188
-17.8352 -35.1928 0.2221
-17.3193 -36.1554 0.2257
-16.7861 -37.1500 0.2295
-16.4771 -38.7500 0.2371
-15.5336 -38.9231 0.2360
-14.9447 -40.0217 0.2405
-14.3322 -41.1644 0.2454
-13.6940 -42.3550 0.2506
-13.0277 -43.5979 0.2562
-12.3309 -44.8979 0.2621
-4.4995 -24.9123 0.1425
-7.3894 -46.8760 0.2672
26.7755 -40.8020 1.3742
25.5487 -37.0989 1.2684
19.3595 -26.8094 0.9311
20.0184 -26.4562 0.9342
16.3258 -20.6031 0.7402
14.2064 -17.1281 0.6266
14.5803 -16.8006 0.6264
13.6127 -14.9956 0.5703
12.8038 -13.4866 0.5236
12.1170 -12.2052 0.4843
11.5258 -11.1025 0.4506
11.0113 -10.1426 0.4215
10.5589 -9.2987 0.3962
8.9359 -7.5218 0.3289
8.6205 -6.9333 0.3115
8.5344 -6.5557 0.3030
8.7693 -6.4298 0.3062
9.0091 -6.3012 0.3096
9.2545 -6.1697 0.3132
9.5058 -6.0350 0.3170
9.7635 -5.8968 0.3212
10.0282 -5.7550 0.3256
10.3003 -5.6091 0.3302
10.5805 -5.4589 0.3352
10.8694 -5.3040 0.3406
11.1678 -5.1441 0.3462
11.4764 -4.9786 0.3522
11.7962 -4.8072 0.3587
12.0033 -4.5818 0.3618
11.8015 -4.2052 0.3528
11.6093 -3.8468 0.3444
11.4260 -3.5048 0.3365
11.2508 -3.1780 0.3292
11.0830 -2.8649 0.3223
10.9219 -2.5645 0.3159
10.7671 -2.2756 0.3099
10.6180 -1.9975 0.3042
10.4742 -1.7292 0.2989
10.3352 -1.4699 0.2939
10.2007 -1.2190 0.2893
10.0704 -0.9759 0.2849
9.9439 -0.7399 0.2808
9.8209 -0.5105 0.2769
9.7012 -0.2872 0.2733
9.5846 -0.0696 0.2699
9.4707 0.1428 0.2667
9.3595 0.3503 0.2637
9.4272 0.5639 0.2659
11.5646 0.9514 0.3267
12.1689 1.2753 0.3445
12.8431 1.6367 0.3646
13.6009 2.0430 0.3873
14.4599 2.5034 0.4132
15.4122 3.0243 0.4422
15.2399 3.3456 0.4393
15.3234 3.7245 0.4440
17.1202 4.5685 0.4989
32.2089 9.3704 0.9445
31.8486 10.0424 0.9403
31.4915 10.7087 0.9366
31.1369 11.3701 0.9334
30.8871 12.0673 0.9337
38.6264 16.0944 1.1783
39.4433 25.4762 1.3222
15.6477 12.2153 0.5590
28.5414 34.9640 1.2709
22.3049 31.4025 1.0846
21.5975 31.8922 1.0846
16.7211 28.6530 0.9341
11.2487 25.4227 0.7828
14.6304 37.5092 1.1337
13.7682 37.7696 1.1320
12.9082 38.0294 1.1308
12.0496 38.2887 1.1303
11.1913 38.5480 1.1302
3.8434 14.4350 0.4206
8.5877 35.4172 1.0262
7.7909 35.5838 1.0257
6.9945 35.7503 1.0257
6.1976 35.9168 1.0263
5.3995 36.0837 1.0273
3.6028 28.3964 0.8060
3.7963 36.4188 1.0310
2.9895 36.5875 1.0337
2.1782 36.7570 1.0368
1.3616 36.9278 1.0405
0.5387 37.0998 1.0448
-0.3289 42.0760 1.1848
-1.2484 41.3874 1.1659
-1.5601 29.6951 0.8373
-2.2206 29.6217 0.8364
-4.0920 41.9818 1.1877
-5.0652 42.1853 1.1964
-6.0533 42.3918 1.2058
-7.0575 42.6017 1.2159
-8.0793 42.8153 1.2269
-6.4888 30.6171 0.8813
