ply
format ascii 1.0
element vertex 2087
property float32 x
property float32 y
property float32 z
end_header
-12.7225 -1.6647 1.8180
-12.6822 -1.9485 1.8180
-12.6355 -2.2312 1.8180
-12.5825 -2.5129 1.8180
-12.5232 -2.7933 1.8180
-12.4577 -3.0723 1.8180
-12.3860 -3.3497 1.8180
-12.3081 -3.6255 1.8180
-12.2241 -3.8995 1.8180
-12.1339 -4.1716 1.8180
-12.0377 -4.4415 1.8180
-11.9355 -4.7093 1.8180
-11.8274 -4.9747 1.8180
-11.7133 -5.2376 1.8180
-11.5934 -5.4979 1.8180
-11.4677 -5.7555 1.8180
-11.3363 -6.0101 1.8180
-11.1993 -6.2618 1.8180
-11.0566 -6.5104 1.8180
-10.9085 -6.7557 1.8180
-10.7548 -6.9977 1.8180
-10.5959 -7.2361 1.8180
-10.4316 -7.4710 1.8180
-10.2621 -7.7021 1.8180
-10.0876 -7.9294 1.8180
-9.9080 -8.1527 1.8180
-8.3562 -7.1948 1.5624
-8.1934 -7.3796 1.5624
-8.4028 -7.9152 1.6356
-9.3561 -9.2161 1.8608
-10.4627 -10.7771 2.1282
-10.2194 -11.0081 2.1282
-9.9710 -11.2336 2.1282
-9.7176 -11.4535 2.1282
-9.4555 -11.6628 2.1274
-9.1888 -11.8661 2.1265
-8.9178 -12.0634 2.1256
-8.6426 -12.2545 2.1247
-8.3633 -12.4394 2.1238
-8.0801 -12.6179 2.1230
-8.3557 -13.7133 2.2753
-8.0473 -13.8965 2.2753
-7.7349 -14.0728 2.2753
-7.4187 -14.2421 2.2753
-7.0987 -14.4042 2.2753
-6.7753 -14.5591 2.2753
-6.4484 -14.7068 2.2753
-6.1184 -14.8472 2.2753
-5.7852 -14.9801 2.2753
-5.4492 -15.1056 2.2753
-5.1105 -15.2235 2.2753
-4.7692 -15.3339 2.2753
-4.4255 -15.4365 2.2753
-4.0796 -15.5316 2.2753
-3.7318 -15.6188 2.2753
-3.3820 -15.6982 2.2753
-3.0305 -15.7699 2.2753
-2.6776 -15.8336 2.2753
-2.3233 -15.8895 2.2753
-1.9678 -15.9374 2.2753
-1.6114 -15.9774 2.2753
-1.2541 -16.0094 2.2753
-0.8962 -16.0334 2.2753
-0.5379 -16.0494 2.2753
-0.1793 -16.0574 2.2753
0.1793 -16.0574 2.2753
0.5379 -16.0494 2.2753
0.8963 -16.0334 2.2753
1.2541 -16.0094 2.2753
1.6114 -15.9774 2.2753
1.9678 -15.9374 2.2753
2.3233 -15.8895 2.2753
2.6776 -15.8336 2.2753
3.0306 -15.7699 2.2753
3.3820 -15.6982 2.2753
3.7318 -15.6188 2.2753
4.0797 -15.5316 2.2753
4.4255 -15.4366 2.2753
4.7692 -15.3339 2.2753
5.1105 -15.2235 2.2753
5.0842 -14.0938 2.1229
5.3991 -13.9804 2.1235
5.7124 -13.8621 2.1243
6.0231 -13.7367 2.1252
6.3310 -13.6044 2.1261
6.6360 -13.4652 2.1270
6.9379 -13.3191 2.1279
7.2338 -13.1610 2.1279
7.5237 -12.9924 2.1273
7.8098 -12.8174 2.1267
8.0918 -12.6362 2.1261
8.3697 -12.4488 2.1255
8.6432 -12.2553 2.1249
8.9123 -12.0559 2.1243
9.1768 -11.8506 2.1237
9.4366 -11.6395 2.1231
9.6916 -11.4228 2.1225
9.9417 -11.2005 2.1220
10.1867 -10.9728 2.1214
10.4266 -10.7398 2.1209
10.6611 -10.5017 2.1204
10.8903 -10.2584 2.1198
10.7781 -9.7075 2.0552
10.3525 -8.9136 1.9356
8.7739 -7.2195 1.6099
8.4749 -6.6617 1.5274
8.6512 -6.4930 1.5326
8.8886 -6.3658 1.5491
9.1311 -6.2358 1.5667
9.3794 -6.1027 1.5855
9.6339 -5.9663 1.6056
9.8950 -5.8264 1.6270
10.1632 -5.6826 1.6498
10.4393 -5.5346 1.6742
10.7238 -5.3821 1.7001
11.0174 -5.2247 1.7277
11.3208 -5.0621 1.7571
11.6349 -4.8937 1.7884
11.9605 -4.7191 1.8218
11.9011 -4.3911 1.7974
11.7042 -4.0238 1.7536
11.5166 -3.6738 1.7128
11.3375 -3.3396 1.6746
11.1660 -3.0198 1.6389
11.0017 -2.7132 1.6055
10.8438 -2.4187 1.5742
10.6919 -2.1353 1.5448
10.5455 -1.8621 1.5173
10.4041 -1.5984 1.4914
10.2674 -1.3435 1.4672
10.1351 -1.0965 1.4444
10.0067 -0.8570 1.4230
9.8820 -0.6244 1.4030
9.7607 -0.3981 1.3841
9.6425 -0.1777 1.3665
9.5273 0.0373 1.3499
9.4148 0.2472 1.3344
9.3048 0.4524 1.3199
9.6546 0.6858 1.3714
11.8588 1.1091 1.6876
12.4965 1.4510 1.7825
13.2105 1.8337 1.8897
14.0165 2.2657 2.0118
14.7337 2.7207 2.1229
14.6699 3.0492 2.1230
14.6214 3.3814 2.1264
14.5490 3.7089 2.1274
14.4626 4.0329 2.1274
14.3691 4.3550 2.1274
14.2683 4.6749 2.1274
14.1604 4.9924 2.1274
14.0455 5.3074 2.1274
13.9236 5.6199 2.1275
13.7947 5.9295 2.1275
13.6590 6.2362 2.1275
13.5165 6.5398 2.1275
13.3673 6.8402 2.1276
13.2114 7.1371 2.1276
13.0491 7.4306 2.1277
12.8802 7.7204 2.1277
12.7049 8.0064 2.1278
12.5231 8.2883 2.1278
12.3360 8.5667 2.1280
12.1429 8.8410 2.1282
11.9424 9.1100 2.1282
11.7360 9.3745 2.1282
11.5190 9.6304 2.1274
11.2963 9.8811 2.1265
11.0682 10.1267 2.1256
10.8347 10.3670 2.1247
10.5960 10.6019 2.1238
10.3522 10.8314 2.1229
10.8333 11.8538 2.2753
10.5658 12.0928 2.2753
10.2931 12.3258 2.2753
10.0153 12.5526 2.2753
9.7324 12.7731 2.2753
9.4447 12.9873 2.2753
9.1523 13.1950 2.2753
8.8553 13.3962 2.2753
8.5539 13.5906 2.2753
8.2482 13.7782 2.2753
7.9384 13.9590 2.2753
7.6247 14.1328 2.2753
7.3071 14.2996 2.2753
6.9859 14.4592 2.2753
6.6613 14.6117 2.2753
5.9090 13.7684 2.1229
5.6001 13.8969 2.1229
5.2883 14.0185 2.1229
4.9739 14.1331 2.1229
4.6570 14.2407 2.1229
4.3378 14.3412 2.1229
4.0153 14.4305 2.1223
3.6930 14.5206 2.1229
3.3678 14.5994 2.1229
3.0408 14.6710 2.1229
2.7124 14.7353 2.1229
2.3826 14.7922 2.1229
2.0517 14.8417 2.1229
1.7197 14.8838 2.1229
1.3878 14.9285 2.1243
1.0791 15.3121 2.1749
0.7553 15.7153 2.2293
0.4124 16.0531 2.2753
0.0538 16.0583 2.2753
-0.3049 16.0555 2.2753
-0.6634 16.0447 2.2753
-1.0216 16.0259 2.2753
-1.3792 15.9991 2.2753
-1.7362 15.9643 2.2753
-2.0923 15.9215 2.2753
-2.4474 15.8708 2.2753
-2.8013 15.8122 2.2753
-3.1537 15.7457 2.2753
-3.5046 15.6713 2.2753
-3.8538 15.5891 2.2753
-4.2010 15.4992 2.2753
-4.5461 15.4015 2.2753
-4.8889 15.2961 2.2753
-5.2293 15.1831 2.2753
-5.5671 15.0625 2.2753
-5.9022 14.9344 2.2753
-6.2343 14.7989 2.2753
-6.5632 14.6560 2.2753
-6.8889 14.5057 2.2753
-7.2111 14.3483 2.2753
-7.5299 14.1836 2.2753
-7.8448 14.0118 2.2753
-8.1557 13.8331 2.2753
-8.4626 13.6476 2.2753
-8.7653 13.4552 2.2753
-8.4566 12.3682 2.1229
-8.7335 12.1801 2.1236
-9.0070 11.9869 2.1245
-9.2763 11.7875 2.1253
-9.5412 11.5822 2.1262
-9.8016 11.3709 2.1271
-10.0572 11.1538 2.1280
-10.3052 10.9278 2.1282
-10.5467 10.6949 2.1282
-8.9917 8.7197 1.7747
-8.2468 7.6474 1.5936
-8.2509 7.3153 1.5624
-9.7886 8.2957 1.8180
-9.9714 8.0750 1.8180
-10.1493 7.8503 1.8180
-10.3221 7.6216 1.8180
-10.4897 7.3892 1.8180
-10.6521 7.1531 1.8180
-10.8092 6.9134 1.8180
-10.9609 6.6702 1.8180
-11.1072 6.4237 1.8180
-11.2479 6.1741 1.8180
-11.3830 5.9213 1.8180
-11.5124 5.6656 1.8180
-11.6360 5.4071 1.8180
-11.7539 5.1458 1.8180
-11.8659 4.8820 1.8180
-11.9720 4.6158 1.8180
-12.0721 4.3472 1.8180
-12.1662 4.0766 1.8180
-12.2542 3.8038 1.8180
-12.3361 3.5292 1.8180
-12.4118 3.2528 1.8180
-12.4814 2.9748 1.8180
-12.5447 2.6952 1.8180
-12.6018 2.4144 1.8180
-12.6525 2.1323 1.8180
-12.6970 1.8492 1.8180
-12.7352 1.5652 1.8180
-12.7669 1.2804 1.8180
-12.7923 0.9949 1.8180
-12.8114 0.7090 1.8180
-12.8240 0.4227 1.8180
-12.8303 0.1362 1.8180
-12.8301 -0.1504 1.8180
-12.8235 -0.4370 1.8180
-12.8106 -0.7233 1.8180
-12.7912 -1.0092 1.8180
-12.7655 -1.2946 1.8180
-12.7334 -1.5794 1.8180
-12.6949 -1.8634 1.8180
-12.6502 -2.1465 1.8180
-12.5991 -2.4285 1.8180
-12.5417 -2.7093 1.8180
-12.4780 -2.9887 1.8180
-12.4082 -3.2667 1.8180
-12.3321 -3.5430 1.8180
-12.2499 -3.8175 1.8180
-12.1616 -4.0902 1.8180
-12.0672 -4.3608 1.8180
-11.9668 -4.6292 1.8180
-11.8604 -4.8953 1.8180
-11.7481 -5.1590 1.8180
-11.6300 -5.4201 1.8180
-11.5060 -5.6785 1.8180
-11.3763 -5.9340 1.8180
-11.2410 -6.1866 1.8180
-11.1000 -6.4362 1.8180
-10.9535 -6.6825 1.8180
-10.8015 -6.9255 1.8180
-10.6441 -7.1650 1.8180
-10.4814 -7.4009 1.8180
-10.3135 -7.6332 1.8180
-10.1405 -7.8616 1.8180
-9.9623 -8.0861 1.8180
-9.7793 -8.3066 1.8180
-8.2427 -7.3246 1.5624
-8.2590 -7.6760 1.5976
-8.9123 -8.6620 1.7609
-10.5347 -10.7067 2.1282
-10.2930 -10.9393 2.1282
-10.0461 -11.1665 2.1282
-9.7942 -11.3881 2.1282
-9.5346 -11.6006 2.1276
-9.2693 -11.8058 2.1267
-8.9996 -12.0049 2.1259
-8.7256 -12.1978 2.1250
-8.4475 -12.3846 2.1241
-8.1655 -12.5650 2.1232
-8.4474 -13.6570 2.2753
-8.1402 -13.8423 2.2753
-7.8290 -14.0207 2.2753
-7.5140 -14.1920 2.2753
-7.1951 -14.3563 2.2753
-6.8727 -14.5134 2.2753
-6.5468 -14.6633 2.2753
-6.2177 -14.8059 2.2753
-5.8854 -14.9411 2.2753
-5.5503 -15.0687 2.2753
-5.2124 -15.1890 2.2753
-4.8719 -15.3016 2.2753
-4.5289 -15.4066 2.2753
-4.1837 -15.5039 2.2753
-3.8363 -15.5934 2.2753
-3.4871 -15.6752 2.2753
-3.1361 -15.7492 2.2753
-2.7836 -15.8153 2.2753
-2.4297 -15.8736 2.2753
-2.0745 -15.9239 2.2753
-1.7184 -15.9662 2.2753
-1.3614 -16.0006 2.2753
-1.0036 -16.0270 2.2753
-0.6454 -16.0454 2.2753
-0.2869 -16.0559 2.2753
0.0718 -16.0583 2.2753
0.4304 -16.0527 2.2753
0.7888 -16.0390 2.2753
1.1468 -16.0174 2.2753
1.5043 -15.9878 2.2753
1.8610 -15.9502 2.2753
2.2167 -15.9047 2.2753
2.5714 -15.8512 2.2753
2.9248 -15.7898 2.2753
3.2767 -15.7206 2.2753
3.6270 -15.6435 2.2753
3.9755 -15.5585 2.2753
4.3220 -15.4659 2.2753
4.6664 -15.3655 2.2753
5.0084 -15.2574 2.2753
5.1742 -14.6500 2.2014
5.3047 -14.0145 2.1232
5.6187 -13.8983 2.1241
5.9302 -13.7751 2.1250
6.2390 -13.6448 2.1258
6.5449 -13.5077 2.1267
6.8477 -13.3636 2.1276
7.1460 -13.2103 2.1281
7.4371 -13.0436 2.1274
7.7244 -12.8706 2.1268
8.0076 -12.6912 2.1262
8.2867 -12.5057 2.1256
8.5616 -12.3140 2.1250
8.8320 -12.1163 2.1244
9.0979 -11.9128 2.1239
9.3592 -11.7034 2.1233
9.6156 -11.4884 2.1227
9.8672 -11.2677 2.1221
10.1135 -11.0418 2.1216
10.3551 -10.8103 2.1210
10.5913 -10.5736 2.1205
10.8221 -10.3319 2.1200
10.9162 -9.9652 2.0943
10.4749 -9.1419 1.9699
8.8700 -7.3988 1.6366
8.5613 -6.8229 1.5511
8.5811 -6.5307 1.5279
8.8168 -6.4043 1.5440
9.0578 -6.2751 1.5613
9.3043 -6.1430 1.5797
9.5568 -6.0076 1.5994
9.8159 -5.8688 1.6204
10.0820 -5.7261 1.6428
10.3556 -5.5794 1.6667
10.6375 -5.4283 1.6921
10.9283 -5.2725 1.7192
11.2287 -5.1114 1.7481
11.5395 -4.9448 1.7788
11.8616 -4.7722 1.8116
11.9621 -4.5049 1.8111
11.7623 -4.1321 1.7664
11.5720 -3.7771 1.7248
11.3903 -3.4383 1.6858
11.2167 -3.1143 1.6494
11.0502 -2.8038 1.6153
10.8905 -2.5058 1.5834
10.7369 -2.2192 1.5535
10.5889 -1.9431 1.5254
10.4460 -1.6766 1.4990
10.3080 -1.4191 1.4743
10.1744 -1.1698 1.4511
10.0448 -0.9281 1.4293
9.9190 -0.6935 1.4089
9.7967 -0.4653 1.3897
9.6777 -0.2432 1.3717
9.5616 -0.0267 1.3548
9.4483 0.1847 1.3390
9.3375 0.3913 1.3242
9.5169 0.6120 1.3512
11.6805 1.0135 1.6612
12.2978 1.3444 1.7528
12.9875 1.7142 1.8562
13.7641 2.1304 1.9734
14.6459 2.6031 2.1077
14.6894 2.9507 2.1229
14.6367 3.2818 2.1254
14.5735 3.6113 2.1274
14.4893 3.9359 2.1274
14.3979 4.2586 2.1274
14.2993 4.5791 2.1274
14.1936 4.8974 2.1274
14.0807 5.2132 2.1274
13.9609 5.5264 2.1274
13.8341 5.8369 2.1275
13.7004 6.1445 2.1275
13.5600 6.4491 2.1275
13.4128 6.7504 2.1276
13.2589 7.0484 2.1276
13.0984 7.3429 2.1276
12.9316 7.6339 2.1277
12.7582 7.9210 2.1278
12.5784 8.2042 2.1278
12.3923 8.4833 2.1279
12.2019 8.7595 2.1282
12.0032 9.0298 2.1282
11.7986 9.2956 2.1282
11.5848 9.5542 2.1276
11.3637 9.8064 2.1268
11.1372 10.0535 2.1259
10.9053 10.2954 2.1250
10.6681 10.5320 2.1241
10.4259 10.7631 2.1232
10.9125 11.7810 2.2753
10.6466 12.0217 2.2753
10.3755 12.2565 2.2753
10.0991 12.4852 2.2753
9.8178 12.7076 2.2753
9.5315 12.9238 2.2753
9.2405 13.1334 2.2753
8.9448 13.3365 2.2753
8.6447 13.5330 2.2753
8.3403 13.7227 2.2753
8.0318 13.9055 2.2753
7.7192 14.0814 2.2753
7.4028 14.2503 2.2753
7.0827 14.4121 2.2753
6.7590 14.5667 2.2753
6.0752 13.8978 2.1491
5.6931 13.8591 2.1229
5.3821 13.9828 2.1229
5.0685 14.0995 2.1229
4.7523 14.2092 2.1229
4.4338 14.3118 2.1229
4.1130 14.4072 2.1229
3.7717 14.4247 2.1125
3.4655 14.5765 2.1229
3.1391 14.6503 2.1229
2.8111 14.7168 2.1229
2.4817 14.7759 2.1229
2.1511 14.8276 2.1229
1.8194 14.8720 2.1229
1.4867 14.9089 2.1229
1.1729 15.1904 2.1587
0.8541 15.5922 2.2126
0.5200 16.0500 2.2753
0.1614 16.0576 2.2753
-0.1973 16.0572 2.2753
-0.5559 16.0488 2.2753
-0.9142 16.0324 2.2753
-1.2720 16.0080 2.2753
-1.6292 15.9756 2.2753
-1.9856 15.9352 2.2753
-2.3410 15.8869 2.2753
-2.6953 15.8306 2.2753
-3.0482 15.7665 2.2753
-3.3995 15.6945 2.2753
-3.7492 15.6146 2.2753
-4.0970 15.5270 2.2753
-4.4428 15.4316 2.2753
-4.7864 15.3285 2.2753
-5.1275 15.2178 2.2753
-5.4661 15.0995 2.2753
-5.8020 14.9736 2.2753
-6.1349 14.8403 2.2753
-6.4648 14.6996 2.2753
-6.7915 14.5516 2.2753
-7.1148 14.3963 2.2753
-7.4346 14.2337 2.2753
-7.7507 14.0641 2.2753
-8.0628 13.8876 2.2753
-8.3710 13.7040 2.2753
-8.6750 13.5136 2.2753
-8.9746 13.3165 2.2753
-8.6506 12.2369 2.1233
-8.9254 12.0455 2.1242
-9.1960 11.8480 2.1251
-9.4622 11.6444 2.1259
-9.7239 11.4349 2.1268
-9.9810 11.2195 2.1277
-10.2318 10.9966 2.1282
-10.4748 10.7654 2.1282
-9.4997 9.3366 1.8873
-8.3982 7.8932 1.6330
-8.2017 7.3705 1.5624
-8.3642 7.1854 1.5624
-9.9171 8.1416 1.8180
-10.0964 7.9181 1.8180
-10.2707 7.6906 1.8180
-10.4400 7.4593 1.8180
-10.6039 7.2243 1.8180
-10.7627 6.9856 1.8180
-10.9160 6.7435 1.8180
-11.0639 6.4980 1.8180
-11.2063 6.2493 1.8180
-11.3430 5.9975 1.8180
-11.4742 5.7426 1.8180
-11.5996 5.4849 1.8180
-11.7192 5.2245 1.8180
-11.8329 4.9614 1.8180
-11.9408 4.6959 1.8180
-12.0427 4.4280 1.8180
-12.1386 4.1580 1.8180
-12.2284 3.8859 1.8180
-12.3121 3.6118 1.8180
-12.3897 3.3359 1.8180
-12.4612 3.0584 1.8180
-12.5264 2.7793 1.8180
-12.5853 2.4988 1.8180
-12.6380 2.2171 1.8180
-12.6843 1.9343 1.8180
-12.7244 1.6505 1.8180
-12.7581 1.3659 1.8180
-12.7854 1.0806 1.8180
-12.8063 0.7948 1.8180
-12.8209 0.5086 1.8180
-12.8291 0.2221 1.8180
-12.8308 -0.0645 1.8180
-12.8262 -0.3511 1.8180
-12.8151 -0.6374 1.8180
-12.7977 -0.9235 1.8180
-12.7739 -1.2091 1.8180
-12.7437 -1.4941 1.8180
-12.7071 -1.7783 1.8180
-12.6643 -2.0617 1.8180
-12.6151 -2.3440 1.8180
-12.5596 -2.6252 1.8180
-12.4978 -2.9050 1.8180
-12.4298 -3.1834 1.8180
-12.3556 -3.4602 1.8180
-12.2752 -3.7353 1.8180
-12.1887 -4.0086 1.8180
-12.0962 -4.2798 1.8180
-11.9976 -4.5489 1.8180
-11.8930 -4.8158 1.8180
-11.7824 -5.0802 1.8180
-11.6660 -5.3421 1.8180
-11.5438 -5.6013 1.8180
-11.4158 -5.8577 1.8180
-11.2822 -6.1112 1.8180
-11.1428 -6.3617 1.8180
-10.9980 -6.6089 1.8180
-10.8477 -6.8529 1.8180
-10.6919 -7.0935 1.8180
-10.5308 -7.3305 1.8180
-10.3645 -7.5639 1.8180
-10.1929 -7.7935 1.8180
-10.0163 -8.0192 1.8180
-9.8347 -8.2409 1.8180
-8.2916 -7.2691 1.5624
-8.1272 -7.4525 1.5624
-8.7926 -8.4318 1.7261
-10.6062 -10.6359 2.1282
-10.3660 -10.8701 2.1282
-10.1207 -11.0990 2.1282
-9.8702 -11.3222 2.1282
-9.6133 -11.5379 2.1279
-9.3493 -11.7449 2.1270
-9.0809 -11.9458 2.1261
-8.8082 -12.1406 2.1252
-8.5314 -12.3292 2.1244
-8.2505 -12.5116 2.1235
-7.9668 -12.6892 2.1229
-8.2328 -13.7874 2.2753
-7.9228 -13.9679 2.2753
-7.6089 -14.1413 2.2753
-7.2912 -14.3078 2.2753
-6.9698 -14.4670 2.2753
-6.6449 -14.6191 2.2753
-6.3168 -14.7639 2.2753
-5.9855 -14.9012 2.2753
-5.6511 -15.0312 2.2753
-5.3140 -15.1537 2.2753
-4.9742 -15.2686 2.2753
-4.6320 -15.3759 2.2753
-4.2874 -15.4755 2.2753
-3.9407 -15.5674 2.2753
-3.5920 -15.6515 2.2753
-3.2416 -15.7278 2.2753
-2.8895 -15.7963 2.2753
-2.5360 -15.8569 2.2753
-2.1812 -15.9096 2.2753
-1.8254 -15.9543 2.2753
-1.4686 -15.9911 2.2753
-1.1110 -16.0199 2.2753
-0.7530 -16.0408 2.2753
-0.3945 -16.0536 2.2753
-0.0359 -16.0584 2.2753
0.3228 -16.0552 2.2753
0.6813 -16.0440 2.2753
1.0395 -16.0247 2.2753
1.3971 -15.9975 2.2753
1.7541 -15.9623 2.2753
2.1102 -15.9192 2.2753
2.4652 -15.8681 2.2753
2.8190 -15.8091 2.2753
3.1714 -15.7422 2.2753
3.5222 -15.6674 2.2753
3.8712 -15.5848 2.2753
4.2182 -15.4945 2.2753
4.5633 -15.3964 2.2753
4.9060 -15.2907 2.2753
5.2463 -15.1773 2.2753
5.2100 -14.0479 2.1229
5.5247 -13.9339 2.1238
5.8370 -13.8128 2.1247
6.1466 -13.6847 2.1256
6.4534 -13.5496 2.1265
6.7572 -13.4076 2.1273
7.0578 -13.2587 2.1282
7.3502 -13.0943 2.1276
7.6387 -12.9231 2.1270
7.9231 -12.7457 2.1264
8.2035 -12.5619 2.1258
8.4796 -12.3721 2.1252
8.7514 -12.1762 2.1246
9.0187 -11.9744 2.1240
9.2813 -11.7668 2.1235
9.5392 -11.5535 2.1229
9.7922 -11.3345 2.1223
10.0401 -11.1102 2.1218
10.2834 -10.8802 2.1212
10.5212 -10.6451 2.1207
10.7534 -10.4050 2.1201
10.9806 -10.1597 2.1196
10.6017 -9.3785 2.0056
8.9694 -7.5842 1.6643
8.6505 -6.9893 1.5758
8.5112 -6.5681 1.5233
8.7456 -6.4425 1.5391
8.9849 -6.3142 1.5560
9.2297 -6.1829 1.5741
9.4804 -6.0486 1.5934
9.7375 -5.9108 1.6140
10.0014 -5.7693 1.6360
10.2727 -5.6239 1.6594
10.5521 -5.4741 1.6843
10.8401 -5.3197 1.7109
11.1375 -5.1603 1.7392
11.4451 -4.9954 1.7694
11.7637 -4.8247 1.8015
12.0241 -4.6205 1.8251
11.8212 -4.2420 1.7795
11.6281 -3.8818 1.7370
11.4440 -3.5383 1.6972
11.2680 -3.2100 1.6601
11.0995 -2.8956 1.6253
10.9378 -2.5940 1.5927
10.7823 -2.3040 1.5622
10.6327 -2.0248 1.5336
10.4883 -1.7556 1.5068
10.3489 -1.4954 1.4816
10.2140 -1.2437 1.4579
10.0832 -0.9998 1.4357
9.9564 -0.7631 1.4148
9.8331 -0.5331 1.3953
9.7130 -0.3092 1.3769
9.5961 -0.0911 1.3597
9.4820 0.1218 1.3436
9.3705 0.3298 1.3285
9.3830 0.5403 1.3317
9.8448 0.7878 1.3994
12.1055 1.2414 1.7242
12.7721 1.5987 1.8238
13.5209 2.0001 1.9366
14.3689 2.4547 2.0654
14.7088 2.8522 2.1229
14.6514 3.1822 2.1243
14.5974 3.5136 2.1274
14.5153 3.8388 2.1274
14.4261 4.1620 2.1274
14.3296 4.4832 2.1274
14.2260 4.8022 2.1274
14.1152 5.1187 2.1274
13.9975 5.4328 2.1274
13.8728 5.7441 2.1275
13.7413 6.0525 2.1275
13.6029 6.3580 2.1275
13.4576 6.6603 2.1275
13.3058 6.9594 2.1276
13.1473 7.2550 2.1276
12.9823 7.5470 2.1277
12.8109 7.8353 2.1277
12.6330 8.1197 2.1278
12.4487 8.3999 2.1278
12.2602 8.6774 2.1282
12.0635 8.9492 2.1282
11.8606 9.2164 2.1282
11.6500 9.4775 2.1279
11.4306 9.7313 2.1270
11.2057 9.9800 2.1261
10.9754 10.2234 2.1252
10.7398 10.4616 2.1243
10.4990 10.6944 2.1234
10.2550 10.9234 2.1229
10.7270 11.9501 2.2753
10.4574 12.1867 2.2753
10.1826 12.4172 2.2753
9.9027 12.6416 2.2753
9.6179 12.8596 2.2753
9.3283 13.0712 2.2753
9.0340 13.2763 2.2753
8.7353 13.4747 2.2753
8.4321 13.6665 2.2753
8.1248 13.8514 2.2753
7.8134 14.0294 2.2753
7.4981 14.2004 2.2753
7.1791 14.3643 2.2753
6.8565 14.5211 2.2753
6.3283 14.2165 2.2049
5.7858 13.8206 2.1229
5.4757 13.9464 2.1229
5.1628 14.0652 2.1229
4.8474 14.1770 2.1229
4.5295 14.2818 2.1229
4.2095 14.3793 2.1229
3.8534 14.3437 2.1044
3.5631 14.5530 2.1229
3.2372 14.6289 2.1229
2.9097 14.6976 2.1229
2.5807 14.7589 2.1229
2.2504 14.8129 2.1229
1.9190 14.8594 2.1229
1.5880 14.9113 2.1247
1.2652 15.0701 2.1428
0.9515 15.4710 2.1962
0.6256 15.9971 2.2684
0.2690 16.0562 2.2753
-0.0897 16.0582 2.2753
-0.4483 16.0522 2.2753
-0.8067 16.0381 2.2753
-1.1648 16.0161 2.2753
-1.5222 15.9861 2.2753
-1.8788 15.9481 2.2753
-2.2345 15.9022 2.2753
-2.5891 15.8483 2.2753
-2.9424 15.7865 2.2753
-3.2943 15.7169 2.2753
-3.6445 15.6394 2.2753
-3.9929 15.5541 2.2753
-4.3393 15.4610 2.2753
-4.6835 15.3603 2.2753
-5.0254 15.2518 2.2753
-5.3648 15.1358 2.2753
-5.7015 15.0122 2.2753
-6.0354 14.8811 2.2753
-6.3662 14.7426 2.2753
-6.6939 14.5967 2.2753
-7.0183 14.4435 2.2753
-7.3391 14.2831 2.2753
-7.6563 14.1158 2.2753
-7.9696 13.9412 2.2753
-8.2790 13.7597 2.2753
-8.5842 13.5714 2.2753
-8.8852 13.3763 2.2753
-8.5674 12.2931 2.1231
-8.8434 12.1036 2.1239
-9.1153 11.9079 2.1248
-9.3828 11.7061 2.1257
-9.6459 11.4984 2.1265
-9.9044 11.2847 2.1274
-10.1578 11.0650 2.1282
-10.4024 10.8353 2.1282
-10.6418 10.6003 2.1282
-8.6536 8.2431 1.6934
-8.1521 7.4252 1.5624
-8.3159 7.2413 1.5624
-9.8623 8.2079 1.8180
-10.0431 7.9856 1.8180
-10.2190 7.7592 1.8180
-10.3898 7.5291 1.8180
-10.5553 7.2951 1.8180
-10.7156 7.0576 1.8180
-10.8705 6.8165 1.8180
-11.0201 6.5720 1.8180
-11.1641 6.3243 1.8180
-11.3026 6.0733 1.8180
-11.4354 5.8194 1.8180
-11.5625 5.5625 1.8180
-11.6839 5.3029 1.8180
-11.7994 5.0406 1.8180
-11.9090 4.7758 1.8180
-12.0127 4.5086 1.8180
-12.1104 4.2392 1.8180
-12.2021 3.9677 1.8180
-12.2877 3.6942 1.8180
-12.3671 3.4188 1.8180
-12.4404 3.1418 1.8180
-12.5075 2.8631 1.8180
-12.5683 2.5830 1.8180
-12.6228 2.3017 1.8180
-12.6711 2.0192 1.8180
-12.7130 1.7358 1.8180
-12.7486 1.4514 1.8180
-12.7779 1.1663 1.8180
-12.8007 0.8806 1.8180
-12.8172 0.5945 1.8180
-12.8273 0.3081 1.8180
-12.8310 0.0215 1.8180
-12.8282 -0.2651 1.8180
-12.8191 -0.5515 1.8180
-12.8036 -0.8377 1.8180
-12.7817 -1.1235 1.8180
-12.7534 -1.4087 1.8180
-12.7188 -1.6931 1.8180
-12.6778 -1.9768 1.8180
-12.6305 -2.2595 1.8180
-12.5769 -2.5410 1.8180
-12.5170 -2.8213 1.8180
-12.4508 -3.1001 1.8180
-12.3785 -3.3774 1.8180
-12.3000 -3.6530 1.8180
-12.2153 -3.9268 1.8180
-12.1246 -4.1986 1.8180
-12.0278 -4.4684 1.8180
-11.9250 -4.7359 1.8180
-11.8162 -5.0011 1.8180
-11.7016 -5.2638 1.8180
-11.5811 -5.5238 1.8180
-11.4548 -5.7811 1.8180
-11.3229 -6.0354 1.8180
-11.1852 -6.2868 1.8180
-11.0420 -6.5351 1.8180
-10.8933 -6.7801 1.8180
-10.7392 -7.0217 1.8180
-10.5797 -7.2598 1.8180
-10.4149 -7.4943 1.8180
-10.2449 -7.7250 1.8180
-10.0698 -7.9519 1.8180
-9.8897 -8.1748 1.8180
-8.3401 -7.2134 1.5624
-8.1769 -7.3979 1.5624
-8.6076 -8.1444 1.6790
-9.5232 -9.4227 1.8982
-10.4387 -10.8004 2.1282
-10.1948 -11.0309 2.1282
-9.9459 -11.2558 2.1282
-9.6916 -11.4747 2.1282
-9.4290 -11.6834 2.1273
-9.1619 -11.8861 2.1264
-8.8905 -12.0828 2.1255
-8.6149 -12.2733 2.1246
-8.3352 -12.4575 2.1238
-8.0651 -12.6566 2.1265
-8.3250 -13.7320 2.2753
-8.0162 -13.9145 2.2753
-7.7035 -14.0901 2.2753
-7.3868 -14.2586 2.2753
-7.0665 -14.4200 2.2753
-6.7427 -14.5742 2.2753
-6.4156 -14.7212 2.2753
-6.0852 -14.8608 2.2753
-5.7517 -14.9930 2.2753
-5.4155 -15.1177 2.2753
-5.0765 -15.2349 2.2753
-4.7349 -15.3445 2.2753
-4.3910 -15.4464 2.2753
-4.0450 -15.5406 2.2753
-3.6969 -15.6271 2.2753
-3.3469 -15.7058 2.2753
-2.9953 -15.7766 2.2753
-2.6422 -15.8396 2.2753
-2.2877 -15.8946 2.2753
-1.9322 -15.9418 2.2753
-1.5756 -15.9809 2.2753
-1.2183 -16.0121 2.2753
-0.8604 -16.0354 2.2753
-0.5020 -16.0506 2.2753
-0.1434 -16.0578 2.2753
0.2152 -16.0570 2.2753
0.5738 -16.0482 2.2753
0.9321 -16.0313 2.2753
1.2899 -16.0065 2.2753
1.6471 -15.9737 2.2753
2.0034 -15.9330 2.2753
2.3588 -15.8842 2.2753
2.7129 -15.8276 2.2753
3.0658 -15.7631 2.2753
3.4171 -15.6907 2.2753
3.7666 -15.6104 2.2753
4.1144 -15.5224 2.2753
4.4600 -15.4266 2.2753
4.8035 -15.3232 2.2753
5.1445 -15.2121 2.2753
5.1157 -14.0824 2.1229
5.4306 -13.9688 2.1235
5.7436 -13.8498 2.1244
6.0541 -13.7238 2.1253
6.3617 -13.5908 2.1262
6.6663 -13.4509 2.1271
6.9679 -13.3041 2.1279
7.2629 -13.1444 2.1278
7.5525 -12.9752 2.1272
7.8382 -12.7996 2.1266
8.1198 -12.6177 2.1260
8.3972 -12.4297 2.1254
8.6703 -12.2357 2.1248
8.9389 -12.0356 2.1242
9.2030 -11.8297 2.1236
9.4624 -11.6181 2.1231
9.7169 -11.4008 2.1225
9.9664 -11.1780 2.1219
10.2109 -10.9498 2.1214
10.4503 -10.7162 2.1208
10.6843 -10.4775 2.1203
10.9130 -10.2338 2.1198
10.7331 -9.6237 2.0426
10.3126 -8.8392 1.9245
8.7426 -7.1611 1.6012
8.4467 -6.6091 1.5196
8.6747 -6.4805 1.5342
8.9126 -6.3530 1.5508
9.1557 -6.2226 1.5685
9.4046 -6.0892 1.5875
9.6597 -5.9525 1.6077
9.9214 -5.8122 1.6292
10.1905 -5.6679 1.6522
10.4674 -5.5195 1.6767
10.7527 -5.3666 1.7028
11.0473 -5.2087 1.7305
11.3517 -5.0455 1.7601
11.6669 -4.8765 1.7917
11.9938 -4.7013 1.8253
11.8810 -4.3535 1.7929
11.6850 -3.9880 1.7494
11.4983 -3.6397 1.7089
11.3199 -3.3069 1.6710
11.1493 -2.9886 1.6355
10.9856 -2.6832 1.6023
10.8283 -2.3898 1.5712
10.6770 -2.1075 1.5420
10.5311 -1.8354 1.5146
10.3903 -1.5726 1.4890
10.2540 -1.3184 1.4648
10.1221 -1.0723 1.4422
9.9940 -0.8334 1.4210
9.8697 -0.6015 1.4010
9.7487 -0.3758 1.3823
9.6309 -0.1560 1.3648
9.5159 0.0585 1.3483
9.4037 0.2679 1.3329
9.2939 0.4727 1.3186
9.7015 0.7110 1.3783
11.9195 1.1417 1.6966
12.5643 1.4873 1.7927
13.2868 1.8746 1.9012
14.1030 2.3121 2.0249
14.7276 2.7536 2.1229
14.6654 3.0824 2.1233
14.6161 3.4146 2.1267
14.5407 3.7414 2.1274
14.4536 4.0652 2.1274
14.3593 4.3871 2.1274
14.2579 4.7067 2.1274
14.1492 5.0240 2.1274
14.0336 5.3388 2.1274
13.9110 5.6510 2.1275
13.7815 5.9603 2.1275
13.6450 6.2667 2.1275
13.5019 6.5700 2.1275
13.3520 6.8700 2.1276
13.1955 7.1667 2.1276
13.0326 7.4598 2.1277
12.8630 7.7492 2.1277
12.6871 8.0348 2.1278
12.5046 8.3163 2.1278
12.3172 8.5944 2.1281
12.1231 8.8681 2.1282
11.9221 9.1367 2.1282
11.7147 9.4004 2.1282
11.4970 9.6557 2.1273
11.2738 9.9059 2.1264
11.0451 10.1509 2.1255
10.8110 10.3907 2.1246
10.5718 10.6251 2.1237
10.3279 10.8544 2.1229
10.8068 11.8780 2.2753
10.5388 12.1164 2.2753
10.2655 12.3487 2.2753
9.9872 12.5749 2.2753
9.7038 12.7949 2.2753
9.4156 13.0084 2.2753
9.1228 13.2155 2.2753
8.8253 13.4159 2.2753
8.5235 13.6097 2.2753
8.2174 13.7966 2.2753
7.9072 13.9767 2.2753
7.5931 14.1498 2.2753
7.2752 14.3159 2.2753
6.9536 14.4748 2.2753
6.6286 14.6265 2.2753
5.8783 13.7815 2.1229
5.5690 13.9094 2.1229
5.2570 14.0303 2.1229
4.9423 14.1442 2.1229
4.6252 14.2511 2.1229
4.3057 14.3508 2.1229
3.9745 14.4087 2.1178
3.6605 14.5288 2.1229
3.3351 14.6069 2.1229
3.0080 14.6778 2.1229
2.6795 14.7413 2.1229
2.3496 14.7975 2.1229
2.0185 14.8462 2.1229
1.6864 14.8876 2.1229
1.3573 14.9625 2.1287
1.0475 15.3515 2.1802
0.7222 15.7604 2.2354
0.3766 16.0540 2.2753
0.0179 16.0584 2.2753
-0.3407 16.0548 2.2753
-0.6992 16.0432 2.2753
-1.0574 16.0236 2.2753
-1.4150 15.9960 2.2753
-1.7719 15.9604 2.2753
-2.1279 15.9168 2.2753
-2.4829 15.8653 2.2753
-2.8366 15.8059 2.2753
-3.1889 15.7386 2.2753
-3.5396 15.6635 2.2753
-3.8886 15.5805 2.2753
-4.2356 15.4898 2.2753
-4.5805 15.3913 2.2753
-4.9231 15.2851 2.2753
-5.2632 15.1714 2.2753
-5.6008 15.0501 2.2753
-5.9355 14.9212 2.2753
-6.2673 14.7849 2.2753
-6.5959 14.6413 2.2753
-6.9213 14.4902 2.2753
-7.2432 14.3321 2.2753
-7.5615 14.1668 2.2753
-7.8760 13.9943 2.2753
-8.1866 13.8149 2.2753
-8.4931 13.6286 2.2753
-8.7954 13.4356 2.2753
-8.4842 12.3492 2.1229
-8.7611 12.1610 2.1237
-9.0342 11.9672 2.1245
-9.3030 11.7673 2.1254
-9.5675 11.5613 2.1263
-9.8273 11.3494 2.1272
-10.0825 11.1317 2.1280
-10.3296 10.9048 2.1282
-10.5705 10.6714 2.1282
-8.9816 8.6711 1.7689
-8.1995 7.5696 1.5812
-8.2672 7.2969 1.5624
-9.8071 8.2738 1.8180
-9.9894 8.0527 1.8180
-10.1668 7.8276 1.8180
-10.3391 7.5985 1.8180
-10.5062 7.3657 1.8180
-10.6681 7.1292 1.8180
-10.8246 6.8892 1.8180
-10.9758 6.6457 1.8180
-11.1215 6.3989 1.8180
-11.2616 6.1489 1.8180
-11.3962 5.8959 1.8180
-11.5250 5.6398 1.8180
-11.6481 5.3810 1.8180
-11.7654 5.1195 1.8180
-11.8768 4.8555 1.8180
-11.9822 4.5891 1.8180
-12.0818 4.3203 1.8180
-12.1752 4.0494 1.8180
-12.2626 3.7765 1.8180
-12.3439 3.5016 1.8180
-12.4191 3.2251 1.8180
-12.4880 2.9469 1.8180
-12.5507 2.6672 1.8180
-12.6071 2.3862 1.8180
-12.6573 2.1041 1.8180
-12.7011 1.8209 1.8180
-12.7386 1.5367 1.8180
-12.7698 1.2518 1.8180
-12.7945 0.9663 1.8180
-12.8129 0.6803 1.8180
-12.8249 0.3940 1.8180
-12.8305 0.1074 1.8180
-12.8297 -0.1792 1.8180
-12.8225 -0.4657 1.8180
-12.8089 -0.7519 1.8180
-12.7889 -1.0378 1.8180
-12.7626 -1.3231 1.8180
-12.7298 -1.6079 1.8180
-12.6907 -1.8918 1.8180
-12.6453 -2.1747 1.8180
-12.5936 -2.4566 1.8180
-12.5356 -2.7373 1.8180
-12.4713 -3.0166 1.8180
-12.4008 -3.2944 1.8180
-12.3242 -3.5705 1.8180
-12.2414 -3.8449 1.8180
-12.1524 -4.1173 1.8180
-12.0574 -4.3877 1.8180
-11.9564 -4.6559 1.8180
-11.8495 -4.9218 1.8180
-11.7366 -5.1853 1.8180
-11.6178 -5.4461 1.8180
-11.4933 -5.7042 1.8180
-11.3631 -5.9594 1.8180
-11.2271 -6.2117 1.8180
-11.0856 -6.4609 1.8180
-10.9385 -6.7069 1.8180
-10.7860 -6.9496 1.8180
-10.6281 -7.1887 1.8180
-10.4649 -7.4243 1.8180
-10.2965 -7.6562 1.8180
-10.1229 -7.8842 1.8180
-9.9443 -8.1084 1.8180
-9.7607 -8.3284 1.8180
-8.2263 -7.3429 1.5624
-8.3051 -7.7535 1.6099
-9.0001 -8.7866 1.7822
-10.5108 -10.7303 2.1282
-10.2685 -10.9623 2.1282
-10.0211 -11.1889 2.1282
-9.7687 -11.4100 2.1282
-9.5083 -11.6214 2.1275
-9.2425 -11.8260 2.1266
-8.9724 -12.0244 2.1258
-8.6980 -12.2168 2.1249
-8.4195 -12.4029 2.1240
-8.1371 -12.5827 2.1232
-8.4169 -13.6759 2.2753
-8.1093 -13.8605 2.2753
-7.7977 -14.0381 2.2753
-7.4822 -14.2088 2.2753
-7.1630 -14.3723 2.2753
-6.8402 -14.5287 2.2753
-6.5141 -14.6779 2.2753
-6.1846 -14.8197 2.2753
-5.8521 -14.9542 2.2753
-5.5166 -15.0811 2.2753
-5.1784 -15.2006 2.2753
-4.8376 -15.3124 2.2753
-4.4944 -15.4167 2.2753
-4.1490 -15.5132 2.2753
-3.8015 -15.6020 2.2753
-3.4521 -15.6830 2.2753
-3.1010 -15.7562 2.2753
-2.7483 -15.8215 2.2753
-2.3942 -15.8789 2.2753
-2.0390 -15.9284 2.2753
-1.6827 -15.9700 2.2753
-1.3256 -16.0036 2.2753
-0.9679 -16.0292 2.2753
-0.6096 -16.0468 2.2753
-0.2510 -16.0565 2.2753
0.1076 -16.0581 2.2753
0.4663 -16.0517 2.2753
0.8247 -16.0372 2.2753
1.1826 -16.0148 2.2753
1.5400 -15.9844 2.2753
1.8966 -15.9460 2.2753
2.2523 -15.8997 2.2753
2.6069 -15.8454 2.2753
2.9601 -15.7832 2.2753
3.3118 -15.7132 2.2753
3.6619 -15.6353 2.2753
4.0102 -15.5496 2.2753
4.3565 -15.4562 2.2753
4.7007 -15.3550 2.2753
5.0424 -15.2462 2.2753
5.1068 -14.3571 2.1591
5.3362 -14.0032 2.1233
5.6500 -13.8863 2.1242
5.9612 -13.7624 2.1250
6.2697 -13.6314 2.1259
6.5753 -13.4936 2.1268
6.8778 -13.3488 2.1277
7.1753 -13.1939 2.1280
7.4661 -13.0266 2.1274
7.7529 -12.8529 2.1268
8.0358 -12.6729 2.1262
8.3145 -12.4867 2.1256
8.5889 -12.2945 2.1250
8.8589 -12.0962 2.1244
9.1243 -11.8921 2.1238
9.3850 -11.6822 2.1232
9.6410 -11.4666 2.1227
9.8921 -11.2454 2.1221
10.1381 -11.0188 2.1215
10.3791 -10.7868 2.1210
10.6145 -10.5497 2.1205
10.8449 -10.3074 2.1199
10.8696 -9.8782 2.0811
10.4336 -9.0649 1.9584
8.8376 -7.3384 1.6276
8.5322 -6.7686 1.5431
8.6044 -6.5182 1.5295
8.8407 -6.3915 1.5457
9.0822 -6.2620 1.5631
9.3293 -6.1296 1.5816
9.5825 -5.9939 1.6015
9.8422 -5.8546 1.6226
10.1090 -5.7116 1.6452
10.3834 -5.5645 1.6692
10.6662 -5.4130 1.6948
10.9579 -5.2566 1.7220
11.2593 -5.0950 1.7511
11.5712 -4.9279 1.7820
11.8944 -4.7546 1.8150
11.9417 -4.4668 1.8065
11.7428 -4.0958 1.7621
11.5534 -3.7425 1.7207
11.3726 -3.4052 1.6821
11.1997 -3.0826 1.6459
11.0340 -2.7735 1.6120
10.8749 -2.4766 1.5803
10.7218 -2.1911 1.5506
10.5743 -1.9160 1.5227
10.4320 -1.6504 1.4965
10.2944 -1.3938 1.4719
10.1612 -1.1453 1.4488
10.0320 -0.9043 1.4272
9.9066 -0.6704 1.4069
9.7847 -0.4429 1.3878
9.6659 -0.2213 1.3699
9.5501 -0.0053 1.3532
9.4371 0.2056 1.3375
9.3266 0.4117 1.3228
9.5623 0.6364 1.3579
11.7392 1.0450 1.6699
12.3632 1.3795 1.7626
13.0610 1.7535 1.8672
13.8471 2.1750 1.9860
14.7407 2.6539 2.1222
14.6828 2.9835 2.1229
14.6317 3.3151 2.1257
14.5654 3.6439 2.1274
14.4805 3.9683 2.1274
14.3883 4.2908 2.1274
14.2890 4.6111 2.1274
14.1826 4.9291 2.1274
14.0690 5.2446 2.1274
13.9485 5.5576 2.1275
13.8211 5.8678 2.1275
13.6867 6.1751 2.1275
13.5456 6.4793 2.1275
13.3977 6.7804 2.1276
13.2431 7.0780 2.1276
13.0821 7.3722 2.1276
12.9145 7.6628 2.1277
12.7405 7.9495 2.1278
12.5600 8.2323 2.1278
12.3736 8.5111 2.1279
12.1823 8.7867 2.1282
11.9830 9.0566 2.1282
11.7777 9.3220 2.1282
11.5629 9.5797 2.1276
11.3413 9.8314 2.1267
11.1142 10.0780 2.1258
10.8818 10.3194 2.1249
10.6441 10.5554 2.1240
10.4014 10.7859 2.1231
10.8861 11.8053 2.2753
10.6198 12.0455 2.2753
10.3481 12.2797 2.2753
10.0712 12.5077 2.2753
9.7894 12.7295 2.2753
9.5026 12.9450 2.2753
9.2111 13.1540 2.2753
8.9150 13.3565 2.2753
8.6145 13.5522 2.2753
8.3097 13.7413 2.2753
8.0007 13.9234 2.2753
7.6877 14.0987 2.2753
7.3709 14.2668 2.2753
7.0504 14.4279 2.2753
6.7264 14.5818 2.2753
6.0059 13.8235 2.1355
5.6621 13.8718 2.1229
5.3508 13.9948 2.1229
5.0370 14.1108 2.1229
4.7206 14.2198 2.1229
4.4018 14.3216 2.1229
4.0808 14.4164 2.1229
3.7485 14.4679 2.1176
3.4330 14.5842 2.1229
3.1064 14.6573 2.1229
2.7782 14.7230 2.1229
2.4487 14.7814 2.1229
2.1179 14.8324 2.1229
1.7862 14.8760 2.1229
1.4535 14.9122 2.1229
1.1418 15.2309 2.1641
0.8213 15.6331 2.2181
0.4841 16.0511 2.2753
0.1255 16.0579 2.2753
-0.2332 16.0567 2.2753
-0.5918 16.0475 2.2753
-0.9500 16.0303 2.2753
-1.3077 16.0051 2.2753
-1.6649 15.9719 2.2753
-2.0212 15.9307 2.2753
-2.3765 15.8816 2.2753
-2.7306 15.8246 2.2753
-3.0834 15.7596 2.2753
-3.4346 15.6868 2.2753
-3.7841 15.6062 2.2753
-4.1317 15.5178 2.2753
-4.4772 15.4217 2.2753
-4.8206 15.3178 2.2753
-5.1615 15.2063 2.2753
-5.4998 15.0872 2.2753
-5.8354 14.9606 2.2753
-6.1681 14.8266 2.2753
-6.4977 14.6851 2.2753
-6.8241 14.5363 2.2753
-7.1470 14.3803 2.2753
-7.4665 14.2170 2.2753
-7.7821 14.0468 2.2753
-8.0938 13.8695 2.2753
-8.4016 13.6853 2.2753
-8.7051 13.4942 2.2753
-8.4012 12.4058 2.1229
-8.6783 12.2180 2.1234
-8.9527 12.0260 2.1243
-9.2228 11.8279 2.1251
-9.4886 11.6237 2.1260
-9.7498 11.4136 2.1269
-10.0065 11.1976 2.1278
-10.2563 10.9737 2.1282
-10.4988 10.7419 2.1282
-9.3674 9.1655 1.8569
-8.3463 7.8093 1.6195
-8.2181 7.3521 1.5624
-9.7514 8.3393 1.8180
-9.9352 8.1194 1.8180
-10.1141 7.8955 1.8180
-10.2879 7.6676 1.8180
-10.4566 7.4360 1.8180
-10.6201 7.2006 1.8180
-10.7782 6.9616 1.8180
-10.9310 6.7191 1.8180
-11.0784 6.4733 1.8180
-11.2202 6.2242 1.8180
-11.3564 5.9721 1.8180
-11.4869 5.7170 1.8180
-11.6118 5.4590 1.8180
-11.7308 5.1983 1.8180
-11.8440 4.9350 1.8180
-11.9512 4.6692 1.8180
-12.0525 4.4011 1.8180
-12.1478 4.1309 1.8180
-12.2371 3.8585 1.8180
-12.3202 3.5842 1.8180
-12.3972 3.3082 1.8180
-12.4680 3.0305 1.8180
-12.5325 2.7512 1.8180
-12.5909 2.4707 1.8180
-12.6429 2.1889 1.8180
-12.6886 1.9060 1.8180
-12.7280 1.6221 1.8180
-12.7611 1.3374 1.8180
-12.7878 1.0520 1.8180
-12.8081 0.7662 1.8180
-12.8220 0.4799 1.8180
-12.8295 0.1934 1.8180
-12.8306 -0.0932 1.8180
-12.8254 -0.3797 1.8180
-12.8137 -0.6661 1.8180
-12.7956 -0.9521 1.8180
-12.7711 -1.2376 1.8180
-12.7403 -1.5226 1.8180
-12.7031 -1.8067 1.8180
-12.6596 -2.0900 1.8180
-12.6098 -2.3722 1.8180
-12.5536 -2.6533 1.8180
-12.4913 -2.9330 1.8180
-12.4226 -3.2112 1.8180
-12.3478 -3.4878 1.8180
-12.2668 -3.7628 1.8180
-12.1797 -4.0358 1.8180
-12.0866 -4.3068 1.8180
-11.9874 -4.5757 1.8180
-11.8822 -4.8423 1.8180
-11.7711 -5.1065 1.8180
-11.6541 -5.3681 1.8180
-11.5313 -5.6271 1.8180
-11.4027 -5.8832 1.8180
-11.2685 -6.1364 1.8180
-11.1286 -6.3865 1.8180
-10.9832 -6.6335 1.8180
-10.8323 -6.8772 1.8180
-10.6760 -7.1174 1.8180
-10.5144 -7.3540 1.8180
-10.3475 -7.5870 1.8180
-10.1755 -7.8162 1.8180
-9.9984 -8.0415 1.8180
-9.8163 -8.2628 1.8180
-8.2753 -7.2876 1.5624
-8.1690 -7.5246 1.5737
-8.8608 -8.5354 1.7432
-10.5824 -10.6596 2.1282
-10.3417 -10.8933 2.1282
-10.0959 -11.1215 2.1282
-9.8449 -11.3442 2.1282
-9.5871 -11.5589 2.1278
-9.3227 -11.7652 2.1269
-9.0538 -11.9655 2.1260
-8.7807 -12.1598 2.1252
-8.5034 -12.3478 2.1243
-8.2222 -12.5295 2.1234
-7.9384 -12.7070 2.1229
-8.2020 -13.8058 2.2753
-7.8916 -13.9856 2.2753
-7.5773 -14.1583 2.2753
-7.2592 -14.3240 2.2753
-6.9375 -14.4826 2.2753
-6.6123 -14.6339 2.2753
-6.2838 -14.7779 2.2753
-5.9522 -14.9146 2.2753
-5.6175 -15.0438 2.2753
-5.2802 -15.1655 2.2753
-4.9401 -15.2797 2.2753
-4.5976 -15.3862 2.2753
-4.2528 -15.4850 2.2753
-3.9059 -15.5762 2.2753
-3.5571 -15.6595 2.2753
-3.2064 -15.7350 2.2753
-2.8542 -15.8027 2.2753
-2.5005 -15.8625 2.2753
-2.1456 -15.9144 2.2753
-1.7897 -15.9584 2.2753
-1.4328 -15.9944 2.2753
-1.0752 -16.0224 2.2753
-0.7171 -16.0424 2.2753
-0.3587 -16.0544 2.2753
-0.0000 -13.8116 2.2753
0.3085 -13.8081 2.2753
0.6168 -13.7978 2.2753
0.9248 -13.7806 2.2753
1.2324 -13.7565 2.2753
1.5393 -13.7255 2.2753
1.8455 -13.6877 2.2753
2.1507 -13.6431 2.2753
2.4549 -13.5917 2.2753
2.7578 -13.5334 2.2753
3.0594 -13.4685 2.2753
3.3594 -13.3968 2.2753
3.6578 -13.3184 2.2753
3.9544 -13.2334 2.2753
4.2489 -13.1418 2.2753
4.5414 -13.0436 2.2753
4.6767 -12.5243 2.2024
4.7765 -11.9687 2.1229
5.0444 -11.8632 2.1237
5.3100 -11.7517 2.1244
5.5730 -11.6342 2.1251
5.8334 -11.5107 2.1259
6.0911 -11.3814 2.1266
6.3459 -11.2462 2.1273
6.5976 -11.1053 2.1280
6.8438 -10.9548 2.1279
7.0851 -10.7967 2.1274
7.3226 -10.6334 2.1269
7.5567 -10.4648 2.1265
7.7867 -10.2912 2.1260
8.0129 -10.1125 2.1255
8.2352 -9.9289 2.1251
8.4531 -9.7405 2.1246
8.6671 -9.5473 2.1242
8.8764 -9.3496 2.1238
9.0814 -9.1473 2.1234
9.2816 -8.9406 2.1230
9.4808 -8.7329 2.1235
9.6780 -8.5229 2.1245
8.9359 -7.5218 1.9242
8.6205 -6.9333 1.8225
8.5344 -6.5557 1.7729
8.7693 -6.4298 1.7914
9.0091 -6.3012 1.8112
9.2545 -6.1697 1.8323
9.5058 -6.0350 1.8549
9.7635 -5.8968 1.8790
10.0282 -5.7550 1.9047
10.3003 -5.6091 1.9321
10.5805 -5.4589 1.9613
10.8694 -5.3040 1.9924
11.1678 -5.1441 2.0256
11.4764 -4.9786 2.0609
11.7962 -4.8072 2.0985
12.0033 -4.5818 2.1166
11.8015 -4.2052 2.0639
11.6093 -3.8468 2.0148
11.4260 -3.5048 1.9689
11.2508 -3.1780 1.9260
11.0830 -2.8649 1.8858
10.9219 -2.5645 1.8482
10.7671 -2.2756 1.8130
10.6180 -1.9975 1.7799
10.4742 -1.7292 1.7489
10.3352 -1.4699 1.7198
10.2007 -1.2190 1.6924
10.0704 -0.9759 1.6668
9.9439 -0.7399 1.6427
9.8209 -0.5105 1.6201
9.7012 -0.2872 1.5989
9.5846 -0.0696 1.5790
9.4707 0.1428 1.5604
9.3595 0.3503 1.5430
9.4272 0.5639 1.5558
11.5646 0.9514 1.9116
12.1689 1.2753 2.0157
12.7824 1.6290 2.1228
12.7435 1.9142 2.1229
12.7039 2.1994 2.1240
12.6688 2.4860 2.1268
12.6148 2.7693 2.1276
12.5499 3.0504 2.1277
12.4787 3.3299 2.1277
12.4013 3.6079 2.1277
12.3177 3.8840 2.1277
12.2279 4.1581 2.1277
12.1321 4.4302 2.1277
12.0302 4.7001 2.1277
11.9223 4.9676 2.1277
11.8085 5.2327 2.1278
11.6888 5.4952 2.1278
11.5634 5.7550 2.1278
11.4321 6.0119 2.1278
11.2951 6.2658 2.1279
11.1526 6.5167 2.1279
11.0045 6.7643 2.1280
10.8509 7.0085 2.1280
10.6920 7.2493 2.1281
10.5276 7.4865 2.1281
10.3583 7.7202 2.1282
10.1818 7.9484 2.1279
9.9982 8.1709 2.1272
9.8097 8.3892 2.1264
9.6165 8.6031 2.1256
9.4185 8.8126 2.1249
9.2161 9.0175 2.1241
9.0091 9.2178 2.1234
8.7991 9.4147 2.1229
9.2031 10.2987 2.2753
8.9708 10.5016 2.2753
8.7340 10.6994 2.2753
8.4929 10.8918 2.2753
8.2475 11.0787 2.2753
7.9980 11.2602 2.2753
7.7445 11.4360 2.2753
7.4871 11.6061 2.2753
7.2261 11.7705 2.2753
6.9614 11.9289 2.2753
6.6932 12.0814 2.2753
6.4217 12.2279 2.2753
6.1470 12.3683 2.2753
5.8692 12.5025 2.2753
5.5885 12.6304 2.2753
5.3050 12.7521 2.2753
4.8528 12.4416 2.2000
4.4134 12.1071 2.1229
4.1419 12.2027 2.1229
3.8684 12.2921 2.1229
3.5929 12.3755 2.1229
3.3156 12.4526 2.1229
3.0366 12.5236 2.1229
2.7896 12.7410 2.1487
2.5640 13.1049 2.1998
2.3254 13.4764 2.2529
2.0440 13.6595 2.2753
1.7384 13.7017 2.2753
1.4319 13.7371 2.2753
1.1248 13.7657 2.2753
0.8170 13.7874 2.2753
0.5089 13.8022 2.2753
0.2005 13.8101 2.2753
-0.1080 13.8111 2.2753
-0.4164 13.8053 2.2753
-0.7246 13.7925 2.2753
-1.0325 13.7729 2.2753
-1.3399 13.7464 2.2753
-1.6465 13.7131 2.2753
-1.9524 13.6729 2.2753
-2.2573 13.6259 2.2753
-2.5610 13.5720 2.2753
-2.8635 13.5115 2.2753
-3.1646 13.4441 2.2753
-3.4641 13.3701 2.2753
-3.7618 13.2894 2.2753
-4.0577 13.2021 2.2753
-4.3515 13.1081 2.2753
-4.6432 13.0077 2.2753
-4.9326 12.9008 2.2753
-5.2195 12.7874 2.2753
-5.5038 12.6676 2.2753
-5.7853 12.5415 2.2753
-6.0640 12.4092 2.2753
-6.3396 12.2706 2.2753
-6.6121 12.1260 2.2753
-6.8813 11.9753 2.2753
-7.1470 11.8186 2.2753
-6.9129 10.8753 2.1229
-7.1558 10.7208 2.1234
-7.3961 10.5620 2.1242
-7.6329 10.3980 2.1249
-7.8661 10.2286 2.1257
-8.0955 10.0540 2.1265
-8.3210 9.8742 2.1272
-8.5425 9.6894 2.1280
-8.7578 9.4972 2.1282
-8.9677 9.2993 2.1282
-9.1732 9.0967 2.1282
-8.5861 8.1423 1.9493
-8.1581 7.3974 1.8142
-7.7358 6.7059 1.6866
-7.3032 6.0505 1.5624
-7.4365 5.8859 1.5624
-8.8041 6.6540 1.8180
-8.9505 6.4557 1.8180
-9.0924 6.2542 1.8180
-9.2298 6.0495 1.8180
-9.3626 5.8419 1.8180
-9.4908 5.6313 1.8180
-9.6142 5.4179 1.8180
-9.7328 5.2019 1.8180
-9.8466 4.9832 1.8180
-9.9554 4.7620 1.8180
-10.0593 4.5385 1.8180
-10.1581 4.3127 1.8180
-10.2519 4.0847 1.8180
-10.3406 3.8547 1.8180
-10.4241 3.6228 1.8180
-10.5024 3.3891 1.8180
-10.5755 3.1537 1.8180
-10.6433 2.9167 1.8180
-10.7058 2.6783 1.8180
-10.7629 2.4385 1.8180
-10.8147 2.1975 1.8180
-10.8611 1.9554 1.8180
-10.9020 1.7124 1.8180
-10.9376 1.4685 1.8180
-10.9676 1.2238 1.8180
-10.9922 0.9786 1.8180
-11.0113 0.7328 1.8180
-11.0250 0.4867 1.8180
-11.0331 0.2403 1.8180
-11.0357 -0.0062 1.8180
-11.0328 -0.2526 1.8180
-11.0244 -0.4990 1.8180
-11.0105 -0.7451 1.8180
-10.9911 -0.9908 1.8180
-10.9663 -1.2361 1.8180
-10.9359 -1.4807 1.8180
-10.9001 -1.7245 1.8180
-10.8589 -1.9676 1.8180
-10.8122 -2.2096 1.8180
-10.7602 -2.4505 1.8180
-10.7028 -2.6902 1.8180
-10.6400 -2.9286 1.8180
-10.5720 -3.1655 1.8180
-10.4986 -3.4008 1.8180
-10.4200 -3.6345 1.8180
-10.3363 -3.8663 1.8180
-10.2473 -4.0962 1.8180
-10.1533 -4.3240 1.8180
-10.0542 -4.5497 1.8180
-9.9501 -4.7731 1.8180
-9.8410 -4.9942 1.8180
-9.7270 -5.2127 1.8180
-9.6081 -5.4287 1.8180
-9.4845 -5.6419 1.8180
-9.3561 -5.8523 1.8180
-9.2231 -6.0598 1.8180
-9.0854 -6.2643 1.8180
-8.9433 -6.4657 1.8180
-7.5597 -5.7268 1.5624
-7.4299 -5.8942 1.5624
-7.4307 -6.1702 1.5911
-7.8019 -6.7785 1.7026
-8.1766 -7.4308 1.8202
-8.6643 -8.2348 1.9692
-9.1630 -9.1069 2.1282
-8.9573 -9.3093 2.1282
-8.7472 -9.5070 2.1282
-8.5327 -9.7000 2.1282
-8.3139 -9.8882 2.1282
-8.0883 -10.0681 2.1275
-7.8586 -10.2425 2.1268
-7.6251 -10.4117 2.1260
-7.3880 -10.5756 2.1252
-7.1474 -10.7341 2.1245
-6.9034 -10.8872 2.1237
-6.6561 -11.0347 2.1229
-6.8679 -11.9830 2.2753
-6.5986 -12.1334 2.2753
-6.3259 -12.2777 2.2753
-6.0501 -12.4159 2.2753
-5.7713 -12.5480 2.2753
-5.4896 -12.6737 2.2753
-5.2052 -12.7932 2.2753
-4.9182 -12.9062 2.2753
-4.6287 -13.0129 2.2753
-4.3369 -13.1130 2.2753
-4.0430 -13.2066 2.2753
-3.7470 -13.2936 2.2753
-3.4492 -13.3740 2.2753
-3.1496 -13.4477 2.2753
-2.8485 -13.5146 2.2753
-2.5459 -13.5749 2.2753
-2.2421 -13.6284 2.2753
-1.9371 -13.6751 2.2753
-1.6312 -13.7149 2.2753
-1.3245 -13.7479 2.2753
-1.0171 -13.7741 2.2753
-0.7092 -13.7933 2.2753
-0.4010 -13.8057 2.2753
-0.0925 -13.8113 2.2753
0.2159 -13.8099 2.2753
0.5243 -13.8016 2.2753
0.8324 -13.7865 2.2753
1.1402 -13.7644 2.2753
1.4473 -13.7355 2.2753
1.7537 -13.6998 2.2753
2.0593 -13.6572 2.2753
2.3638 -13.6078 2.2753
2.6671 -13.5516 2.2753
2.9691 -13.4887 2.2753
3.2696 -13.4190 2.2753
3.5685 -13.3426 2.2753
3.8656 -13.2596 2.2753
4.1608 -13.1699 2.2753
4.4539 -13.0737 2.2753
4.7448 -12.9710 2.2753
4.6962 -12.0003 2.1229
4.9643 -11.8955 2.1235
5.2306 -11.7858 2.1242
5.4944 -11.6700 2.1249
5.7556 -11.5483 2.1257
6.0141 -11.4208 2.1264
6.2698 -11.2874 2.1271
6.5225 -11.1482 2.1278
6.7706 -11.0012 2.1281
7.0129 -10.8447 2.1276
7.2518 -10.6829 2.1271
7.4872 -10.5158 2.1266
7.7183 -10.3437 2.1261
7.9456 -10.1666 2.1257
8.1689 -9.9845 2.1252
8.3882 -9.7975 2.1248
8.6032 -9.6057 2.1243
8.8140 -9.4094 2.1239
9.0204 -9.2085 2.1235
9.2220 -9.0031 2.1232
9.4208 -8.7950 2.1232
9.6193 -8.5863 2.1242
9.8105 -8.3710 2.1246
8.7115 -7.1032 1.8517
8.4649 -6.5929 1.7676
8.6983 -6.4678 1.7857
8.9366 -6.3401 1.8051
9.1803 -6.2095 1.8258
9.4298 -6.0757 1.8480
9.6855 -5.9386 1.8716
9.9480 -5.7979 1.8969
10.2178 -5.6533 1.9237
10.4955 -5.5044 1.9524
10.7818 -5.3510 1.9829
11.0772 -5.1926 2.0154
11.3827 -5.0289 2.0500
11.6990 -4.8593 2.0869
11.9836 -4.6665 2.1186
11.8609 -4.3162 2.0793
11.6660 -3.9525 2.0292
11.4801 -3.6058 1.9823
11.3026 -3.2745 1.9385
11.1326 -2.9575 1.8976
10.9696 -2.6533 1.8592
10.8129 -2.3611 1.8233
10.6622 -2.0799 1.7896
10.5168 -1.8087 1.7580
10.3764 -1.5468 1.7283
10.2406 -1.2935 1.7004
10.1091 -1.0481 1.6743
9.9815 -0.8100 1.6497
9.8575 -0.5786 1.6267
9.7368 -0.3536 1.6051
9.6193 -0.1343 1.5848
9.5046 0.0796 1.5658
9.3926 0.2886 1.5481
9.2960 0.4936 1.5336
9.7487 0.7363 1.6106
11.9808 1.1745 1.9832
12.6327 1.5240 2.0962
12.7561 1.8288 2.1229
12.7132 2.1134 2.1231
12.6800 2.4000 2.1260
12.6331 2.6848 2.1276
12.5700 2.9662 2.1276
12.5007 3.2463 2.1277
12.4251 3.5247 2.1277
12.3434 3.8013 2.1277
12.2555 4.0761 2.1277
12.1614 4.3488 2.1277
12.0614 4.6194 2.1277
11.9553 4.8876 2.1277
11.8433 5.1535 2.1278
11.7253 5.4168 2.1278
11.6016 5.6774 2.1278
11.4721 5.9352 2.1278
11.3368 6.1900 2.1279
11.1959 6.4418 2.1279
11.0495 6.6903 2.1280
10.8976 6.9356 2.1280
10.7402 7.1774 2.1281
10.5775 7.4158 2.1281
10.4095 7.6503 2.1282
10.2359 7.8808 2.1281
10.0538 8.1046 2.1274
9.8668 8.3242 2.1266
9.6749 8.5394 2.1259
9.4784 8.7502 2.1251
9.2773 8.9565 2.1244
9.0716 9.1582 2.1236
8.8620 9.3555 2.1229
9.2719 10.2368 2.2753
9.0409 10.4413 2.2753
8.8055 10.6406 2.2753
8.5656 10.8346 2.2753
8.3215 11.0232 2.2753
8.0733 11.2063 2.2753
7.8210 11.3839 2.2753
7.5647 11.5557 2.2753
7.3048 11.7218 2.2753
7.0411 11.8820 2.2753
6.7740 12.0363 2.2753
6.5035 12.1846 2.2753
6.2297 12.3268 2.2753
5.9529 12.4629 2.2753
5.6730 12.5927 2.2753
5.3904 12.7163 2.2753
5.0275 12.6386 2.2408
4.4945 12.0773 2.1229
4.2236 12.1747 2.1229
3.9506 12.2660 2.1229
3.6757 12.3511 2.1229
3.3989 12.4301 2.1229
3.1206 12.5037 2.1230
2.8559 12.6378 2.1344
2.6333 12.9966 2.1845
2.3983 13.3638 2.2367
2.1355 13.6455 2.2753
1.8302 13.6898 2.2753
1.5240 13.7272 2.2753
1.2170 13.7579 2.2753
0.9094 13.7816 2.2753
0.6014 13.7985 2.2753
0.2930 13.8085 2.2753
-0.0154 13.8116 2.2753
-0.3239 13.8078 2.2753
-0.6322 13.7971 2.2753
-0.9402 13.7795 2.2753
-1.2477 13.7551 2.2753
-1.5546 13.7238 2.2753
-1.8609 13.6855 2.2753
-2.1659 13.6407 2.2753
-2.4701 13.5889 2.2753
-2.7729 13.5304 2.2753
-3.0744 13.4650 2.2753
-3.3744 13.3930 2.2753
-3.6727 13.3143 2.2753
-3.9691 13.2290 2.2753
-4.2636 13.1370 2.2753
-4.5560 13.0385 2.2753
-4.8460 12.9335 2.2753
-5.1337 12.8221 2.2753
-5.4188 12.7042 2.2753
-5.7012 12.5800 2.2753
-5.9807 12.4495 2.2753
-6.2573 12.3128 2.2753
-6.5307 12.1700 2.2753
-6.8009 12.0211 2.2753
-7.0677 11.8662 2.2753
-7.3309 11.7054 2.2753
-7.0830 10.7673 2.1232
-7.3244 10.6102 2.1239
-7.5622 10.4477 2.1247
-7.7965 10.2799 2.1255
-8.0270 10.1069 2.1262
-8.2537 9.9287 2.1270
-8.4765 9.7454 2.1278
-8.6940 9.5557 2.1282
-8.9052 9.3591 2.1282
-9.1120 9.1579 2.1282
-8.9288 8.5817 2.0402
-8.2152 7.5501 1.8381
-7.7978 6.8517 1.7100
-7.3802 6.1982 1.5877
-7.3969 5.9356 1.5624
-7.5276 5.7689 1.5624
-8.9070 6.5155 1.8180
-9.0503 6.3149 1.8180
-9.1891 6.1112 1.8180
-9.3233 5.9045 1.8180
-9.4528 5.6948 1.8180
-9.5777 5.4822 1.8180
-9.6977 5.2669 1.8180
-9.8129 5.0490 1.8180
-9.9233 4.8286 1.8180
-10.0286 4.6058 1.8180
-10.1290 4.3807 1.8180
-10.2243 4.1533 1.8180
-10.3145 3.9239 1.8180
-10.3996 3.6926 1.8180
-10.4795 3.4594 1.8180
-10.5541 3.2245 1.8180
-10.6235 2.9880 1.8180
-10.6876 2.7500 1.8180
-10.7463 2.5106 1.8180
-10.7997 2.2699 1.8180
-10.8477 2.0282 1.8180
-10.8903 1.7854 1.8180
-10.9275 1.5417 1.8180
-10.9592 1.2973 1.8180
-10.9854 1.0522 1.8180
-11.0062 0.8066 1.8180
-11.0215 0.5605 1.8180
-11.0312 0.3142 1.8180
-11.0355 0.0678 1.8180
-11.0342 -0.1787 1.8180
-11.0275 -0.4251 1.8180
-11.0153 -0.6713 1.8180
-10.9975 -0.9171 1.8180
-10.9743 -1.1625 1.8180
-10.9456 -1.4074 1.8180
-10.9114 -1.6515 1.8180
-10.8718 -1.8947 1.8180
-10.8268 -2.1371 1.8180
-10.7764 -2.3784 1.8180
-10.7206 -2.6185 1.8180
-10.6594 -2.8572 1.8180
-10.5929 -3.0946 1.8180
-10.5212 -3.3304 1.8180
-10.4442 -3.5646 1.8180
-10.3619 -3.7970 1.8180
-10.2746 -4.0274 1.8180
-10.1820 -4.2559 1.8180
-10.0845 -4.4822 1.8180
-9.9818 -4.7063 1.8180
-9.8742 -4.9281 1.8180
-9.7617 -5.1474 1.8180
-9.6443 -5.3641 1.8180
-9.5221 -5.5782 1.8180
-9.3951 -5.7895 1.8180
-9.2635 -5.9979 1.8180
-9.1272 -6.2033 1.8180
-8.9864 -6.4056 1.8180
-8.8411 -6.6047 1.8180
-7.4693 -5.8443 1.5624
-7.3704 -6.0372 1.5695
-7.7116 -6.6099 1.6732
-7.9801 -7.1552 1.7657
-8.4171 -7.8932 1.9009
-9.2238 -9.0453 2.1282
-9.0195 -9.2491 2.1282
-8.8107 -9.4482 2.1282
-8.5975 -9.6426 2.1282
-8.3800 -9.8322 2.1282
-8.1565 -10.0148 2.1278
-7.9279 -10.1908 2.1270
-7.6956 -10.3615 2.1262
-7.4595 -10.5270 2.1255
-7.2200 -10.6871 2.1247
-6.9769 -10.8418 2.1239
-6.7306 -10.9910 2.1232
-6.9480 -11.9367 2.2753
-6.6797 -12.0889 2.2753
-6.4080 -12.2351 2.2753
-6.1332 -12.3751 2.2753
-5.8553 -12.5090 2.2753
-5.5744 -12.6367 2.2753
-5.2908 -12.7580 2.2753
-5.0045 -12.8730 2.2753
-4.7158 -12.9816 2.2753
-4.4247 -13.0836 2.2753
-4.1314 -13.1792 2.2753
-3.8360 -13.2682 2.2753
-3.5387 -13.3505 2.2753
-3.2396 -13.4263 2.2753
-2.9389 -13.4953 2.2753
-2.6368 -13.5575 2.2753
-2.3333 -13.6130 2.2753
-2.0287 -13.6618 2.2753
-1.7231 -13.7037 2.2753
-1.4166 -13.7387 2.2753
-1.1094 -13.7669 2.2753
-0.8016 -13.7883 2.2753
-0.4935 -13.8028 2.2753
-0.1851 -13.8103 2.2753
0.1234 -13.8110 2.2753
0.4318 -13.8048 2.2753
0.7401 -13.7917 2.2753
1.0479 -13.7718 2.2753
1.3552 -13.7449 2.2753
1.6619 -13.7112 2.2753
1.9677 -13.6707 2.2753
2.2725 -13.6233 2.2753
2.5762 -13.5692 2.2753
2.8786 -13.5083 2.2753
3.1796 -13.4406 2.2753
3.4790 -13.3662 2.2753
3.7767 -13.2852 2.2753
4.0724 -13.1975 2.2753
4.3662 -13.1033 2.2753
4.6577 -13.0025 2.2753
4.6218 -12.0475 2.1257
4.8840 -11.9272 2.1232
5.1509 -11.8193 2.1240
5.4155 -11.7054 2.1247
5.6775 -11.5855 2.1254
5.9369 -11.4597 2.1262
6.1934 -11.3280 2.1269
6.4470 -11.1905 2.1276
6.6972 -11.0472 2.1282
6.9406 -10.8922 2.1277
7.1808 -10.7319 2.1272
7.4167 -10.5665 2.1267
7.6493 -10.3959 2.1263
7.8778 -10.2203 2.1258
8.1023 -10.0396 2.1253
8.3228 -9.8541 2.1249
8.5391 -9.6638 2.1245
8.7513 -9.4688 2.1241
8.9590 -9.2692 2.1237
9.1620 -9.0652 2.1233
9.3604 -8.8568 2.1229
9.5602 -8.6494 2.1239
9.7544 -8.4368 2.1246
8.8056 -7.2787 1.8821
8.5034 -6.7149 1.7850
8.6278 -6.5056 1.7801
8.8646 -6.3787 1.7991
9.1066 -6.2489 1.8195
9.3543 -6.1162 1.8412
9.6081 -5.9801 1.8644
9.8685 -5.8405 1.8891
10.1361 -5.6971 1.9155
10.4113 -5.5496 1.9436
10.6949 -5.3975 1.9735
10.9876 -5.2407 2.0054
11.2900 -5.0786 2.0394
11.6030 -4.9108 2.0756
